100.99644 100.99809 101.00967 101.02157 101.02868 101.03700 101.04680 101.05287 101.06973 101.08147 101.09394 101.11318 101.12627 101.14079 101.15525 101.17792 101.18588 101.20277 101.21920 101.23578 101.24759 101.26371 101.27734 101.28336 101.28668 101.28763 101.29302 101.29855 101.28609 101.30414 101.34956 101.36575 101.42784 101.46933 101.50860 101.51278 101.55219 101.62423 101.69392 101.86763 101.98821 102.10110 102.08644 102.15797 102.11427 102.17645 102.27746 102.53127 102.55354 102.49136 102.54462 102.33481 102.54563 102.82901 102.95184 103.42677 103.41906 103.43266 103.48611 103.62487 103.54869 103.41517 103.00555 102.88462 102.95968 103.15987 103.23759 103.19466 103.09154 102.90768 103.18970 103.47502 103.71574 103.83313 103.60702 103.61974 103.49260 102.99218 102.52810 102.12673 101.93137 101.80816 101.86403 101.89706 101.94988 101.88030 101.90413 101.83074 101.77177 101.62302 101.55342 101.50633 101.42416 101.36799 101.33341 101.33501 101.32280 101.32354 101.32166 101.30970 101.29651 101.28906 101.26726 101.25016 101.23433 101.21999 101.20246 101.18898 101.17249 101.15403 101.14408 101.12875 101.11803 101.10146 101.09273 101.08066 101.06961 101.06037 101.05380 101.04215 101.03571 101.02823 101.01861
101.00099 101.00099 101.01040 101.02157 101.02831 101.03702 101.04752 101.05856 101.06863 101.08610 101.09491 101.11633 101.12477 101.13890 101.15853 101.16849 101.18500 101.20388 101.21526 101.23911 101.25433 101.28063 101.29521 101.31250 101.31405 101.33028 101.33306 101.31984 101.34014 101.33744 101.36486 101.43544 101.47198 101.53160 101.57254 101.63024 101.70188 101.76001 101.79829 101.94445 102.11360 102.25529 102.35356 102.34382 102.42365 102.58517 102.68670 102.79512 102.99671 103.15272 103.04100 102.88417 102.87075 103.19826 103.75431 103.97084 104.15811 104.02851 104.36152 104.34315 104.21582 104.04091 103.70908 103.43434 103.48662 103.82013 103.93807 103.86591 103.73152 103.60072 103.99092 104.33484 104.58909 104.59747 104.67346 104.16885 103.46678 103.19469 102.64404 102.31489 102.10238 102.11296 102.11047 102.23156 102.18747 102.17047 102.13971 102.04377 101.94204 101.78294 101.68481 101.55991 101.46552 101.41888 101.38020 101.38849 101.37526 101.36682 101.35030 101.34016 101.31881 101.28787 101.27681 101.25956 101.24065 101.22444 101.20098 101.18882 101.17270 101.15186 101.14246 101.12416 101.11216 101.10139 101.08809 101.08082 101.06981 101.06072 101.05059 101.04355 101.03555 101.02927 101.01965
101.00293 101.00293 101.00849 101.02059 101.03143 101.03872 101.04617 101.05664 101.07321 101.07961 101.09459 101.11062 101.12329 101.13636 101.15346 101.16888 101.17815 101.19716 101.22048 101.23485 101.25631 101.28643 101.30725 101.33207 101.34886 101.37586 101.39257 101.40949 101.38894 101.39670 101.38102 101.47583 101.51732 101.60679 101.67486 101.78088 101.85029 101.87224 101.90006 102.01888 102.26320 102.37206 102.53523 102.58360 102.72580 102.96462 103.06331 103.50512 103.64014 103.59295 103.53823 103.37953 103.39933 104.00247 104.61556 104.82197 105.03483 105.63916 105.34997 105.29429 105.02050 104.73666 104.02371 104.55456 104.61292 104.68264 104.80450 104.48444 104.30825 104.18998 104.67233 105.09566 105.25530 104.96814 104.91545 104.39012 103.86267 103.39700 102.83848 102.37921 102.24825 102.37437 102.43580 102.51935 102.64574 102.47592 102.39658 102.20209 102.14273 101.96644 101.73027 101.61104 101.53374 101.45339 101.44710 101.44286 101.42283 101.41149 101.38655 101.35580 101.32498 101.30772 101.28181 101.25287 101.23659 101.21624 101.19931 101.18507 101.16217 101.14994 101.13371 101.11843 101.10958 101.09765 101.08388 101.07827 101.06792 101.06049 101.05055 101.04153 101.03639 101.02930 101.02035
100.99532 100.99594 101.00701 101.02054 101.02797 101.03826 101.04709 101.05682 101.06940 101.07785 101.08766 101.10187 101.11416 101.12966 101.14633 101.16164 101.17219 101.18902 101.21069 101.23851 101.25620 101.29357 101.32300 101.35572 101.39332 101.41191 101.45516 101.47516 101.52357 101.47796 101.46710 101.47103 101.53166 101.66134 101.75991 101.87556 101.94706 102.06988 102.13473 102.12689 102.34114 102.60299 102.81964 102.89470 103.11874 103.42305 103.76366 103.99753 104.00128 104.43593 104.32609 104.20676 104.08552 104.64462 105.18526 105.66389 106.36263 106.36642 106.25168 106.74337 106.27775 105.99012 105.47761 105.52687 105.88403 105.71091 105.44505 105.27224 104.76995 104.94388 105.50139 105.86154 106.11002 105.95158 105.38022 104.83875 104.22592 103.39743 103.00390 102.65817 102.69537 102.80511 103.05285 103.08986 102.97250 102.98872 102.78691 102.57816 102.24705 102.06148 101.82849 101.71508 101.56381 101.51722 101.50043 101.50024 101.47982 101.43845 101.41900 101.37056 101.34153 101.30753 101.28154 101.24776 101.22732 101.21191 101.19090 101.17696 101.15706 101.14248 101.13121 101.11579 101.10593 101.09502 101.08527 101.07721 101.06748 101.05843 101.05082 101.04194 101.03698 101.03004 101.02218
100.99902 100.99959 101.00989 101.02010 101.02895 101.03832 101.04689 101.05658 101.06500 101.07214 101.07876 101.09545 101.10143 101.12216 101.12748 101.14842 101.15801 101.17905 101.19711 101.23535 101.25561 101.29918 101.33437 101.38385 101.43151 101.47274 101.52736 101.58359 101.59486 101.62181 101.63381 101.59401 101.62197 101.70022 101.89073 101.93162 102.07332 102.24828 102.31573 102.31650 102.72948 102.84218 103.07289 103.13803 103.43092 103.56888 104.31944 104.74938 105.07080 105.33138 105.17876 105.27144 105.50698 105.35300 106.34969 107.19085 107.71361 108.05282 108.59721 108.15860 107.96509 106.88878 106.33747 107.24814 107.41622 107.16774 107.07256 106.28216 105.71559 105.92309 106.56376 107.03364 106.85417 106.44452 105.93015 105.32040 104.47309 103.66932 103.09431 102.92611 103.12519 103.36349 103.42596 103.47293 103.38417 103.27107 102.99468 102.77835 102.47616 102.10369 101.93958 101.77942 101.65424 101.59748 101.57268 101.56210 101.53142 101.48419 101.44593 101.38424 101.34159 101.29926 101.27124 101.24334 101.21174 101.19189 101.17695 101.16231 101.14680 101.13682 101.12494 101.11626 101.10538 101.09709 101.08709 101.08068 101.07013 101.06288 101.05294 101.04484 101.03255 101.02180 101.02038
100.99827 101.00794 101.01167 101.02294 101.02990 101.04037 101.04485 101.05225 101.05946 101.06933 101.07670 101.08646 101.10006 101.11034 101.12659 101.14061 101.16232 101.17780 101.19347 101.22587 101.25191 101.30652 101.33787 101.40246 101.46018 101.52765 101.54461 101.67688 101.74766 101.80940 101.80603 101.78879 101.80188 101.84478 101.92457 102.13118 102.27834 102.43681 102.60050 102.60074 102.80240 103.08986 103.52577 103.80009 104.02313 104.50246 104.98716 105.50626 106.05639 106.27453 106.44542 105.83989 106.30118 107.46048 107.86632 109.58070 109.49826 110.14505 109.98262 109.99533 109.09030 108.98128 108.48568 108.72980 108.97050 108.63256 107.86392 107.54006 107.00467 107.29752 107.58727 107.77517 107.48640 107.15345 106.46765 105.58626 104.71210 103.93557 103.53792 103.21595 103.62727 103.87008 104.06160 103.82724 103.95285 103.57918 103.37540 102.84498 102.61174 102.22683 102.01470 101.85995 101.77915 101.71882 101.67065 101.62292 101.57952 101.48777 101.45712 101.37541 101.33463 101.28666 101.24917 101.21926 101.19656 101.18432 101.16258 101.14969 101.13967 101.13179 101.12674 101.11984 101.10989 101.10207 101.09116 101.08366 101.07054 101.06434 101.05518 101.04571 101.03467 101.02543 101.02401
101.00043 101.01010 101.01429 101.02195 101.02887 101.03915 101.04653 101.05496 101.06316 101.07128 101.08217 101.09873 101.10334 101.12117 101.13347 101.15252 101.17199 101.18934 101.20962 101.22325 101.26440 101.28914 101.36843 101.41212 101.48093 101.55900 101.68714 101.77849 101.87373 101.96593 101.95227 101.95820 102.04186 102.03493 102.09417 102.28717 102.42465 102.74398 102.84701 103.24958 103.06449 103.42172 103.75312 104.26232 104.74543 105.35862 105.78886 106.43929 106.87888 107.87093 108.02540 107.47022 107.40462 108.53729 109.92740 110.85735 112.25867 112.29230 112.92041 112.37654 111.23964 110.43793 110.29062 110.65514 110.51318 110.03827 109.48685 108.93860 108.60628 108.64602 108.89950 108.61503 108.27720 107.66069 106.82436 106.00389 104.93914 104.41589 104.48372 104.24779 104.33276 104.59904 104.64135 104.59992 104.40601 103.82034 103.57399 103.00371 102.68757 102.31138 102.06073 101.96048 101.86978 101.81890 101.73664 101.64795 101.57478 101.51954 101.45000 101.35161 101.30168 101.25647 101.22717 101.20574 101.18459 101.16954 101.15893 101.15027 101.14678 101.14338 101.13349 101.12552 101.11256 101.10190 101.09297 101.08155 101.07185 101.06483 101.05491 101.04864 101.03792 101.02695 101.02578
101.00170 101.01137 101.01594 101.02037 101.02921 101.03930 101.04851 101.05659 101.06715 101.08012 101.09281 101.10321 101.11849 101.13321 101.14738 101.16608 101.18274 101.20769 101.22292 101.23455 101.26067 101.29792 101.35500 101.41662 101.50964 101.62687 101.72301 101.90261 102.00446 102.19865 102.32867 102.34028 102.41944 102.47380 102.42691 102.52272 102.69463 102.89856 103.22605 103.55965 103.96991 103.93728 104.12624 104.76207 105.32071 106.14550 106.95301 107.95260 108.60425 109.67853 110.40791 110.67930 110.88147 110.57404 112.22354 113.40739 114.50529 115.01660 116.13965 115.22661 114.92231 113.25177 113.12567 113.62470 113.78002 113.24118 111.97680 111.21581 110.68555 110.61783 110.15709 109.66851 108.92968 107.92634 107.07861 106.22586 105.36121 104.87218 105.03256 104.96796 105.03978 105.39813 105.29439 105.01034 104.74547 104.15210 103.60683 103.27523 102.72967 102.40570 102.28399 102.01123 101.96189 101.95693 101.80955 101.68870 101.57308 101.48577 101.39335 101.33375 101.27492 101.22255 101.21924 101.20786 101.19028 101.18017 101.17595 101.16770 101.16094 101.15473 101.14304 101.13357 101.11725 101.10871 101.09073 101.08340 101.07382 101.06673 101.05597 101.05118 101.04039 101.03132 101.03058
101.00400 101.00440 101.01349 101.01991 101.03005 101.03962 101.04944 101.05781 101.07102 101.08213 101.09520 101.10690 101.12062 101.13990 101.15902 101.17395 101.19394 101.20978 101.23562 101.25271 101.26834 101.31081 101.34745 101.42666 101.51236 101.65512 101.80974 101.93003 102.17244 102.31001 102.51589 102.56244 102.76246 102.82853 102.81105 102.81656 102.88813 103.22900 103.70052 103.92233 104.42665 104.58373 105.00141 105.56415 106.47288 107.25591 108.06682 109.48157 110.77439 111.24567 112.22552 112.56543 111.95016 113.25169 115.64579 117.69264 118.49727 119.40067 120.54753 119.37374 119.49447 117.86390 117.53163 117.14106 117.54967 116.27489 115.32900 114.07700 113.32251 111.96748 111.79457 110.90373 110.07765 108.41375 106.95569 106.49696 106.72266 105.91300 105.91706 106.02077 106.16294 106.28207 105.77907 105.47518 104.92278 104.27537 103.80333 103.16220 102.77202 102.55344 102.35431 102.24591 102.06781 101.95217 101.80335 101.67912 101.52170 101.48252 101.35007 101.28829 101.26162 101.25259 101.24932 101.22687 101.22913 101.20121 101.19391 101.18908 101.16987 101.16109 101.14688 101.13498 101.11999 101.11098 101.10067 101.08641 101.07788 101.06960 101.05795 101.05036 101.04255 101.03641 101.02982
100.99744 100.99860 101.00954 101.02173 101.03158 101.03811 101.04935 101.06074 101.07027 101.08284 101.09664 101.11387 101.12884 101.14984 101.16343 101.18448 101.20219 101.22154 101.25030 101.27016 101.29373 101.32971 101.37866 101.41965 101.54566 101.66828 101.78238 101.98886 102.23404 102.37441 102.68897 102.96296 103.15565 103.22003 103.33654 103.33466 103.33616 103.42660 104.10396 104.45574 105.12282 105.70587 105.94187 106.48770 107.51274 108.51099 110.11976 110.91300 112.81153 114.18174 114.95787 115.99956 114.80795 115.67106 119.15089 120.39793 124.15679 124.90636 124.70541 124.68945 123.85001 120.41939 120.63343 120.41861 121.37667 119.83845 118.94560 118.83084 116.86346 115.93438 113.07886 112.19182 110.78311 109.45469 108.26691 107.66776 107.04829 107.76605 107.51481 107.52818 107.10420 106.85542 106.34526 105.62996 104.98955 104.42270 103.84169 103.36075 103.10939 102.67535 102.49387 102.26991 102.10301 101.94130 101.79300 101.62778 101.50754 101.39800 101.31126 101.27580 101.26211 101.29693 101.28746 101.27378 101.25206 101.22825 101.21507 101.19734 101.18075 101.16470 101.14729 101.13212 101.11934 101.10895 101.10053 101.08725 101.07905 101.06971 101.06075 101.05381 101.04134 101.03616 101.02710
100.99894 100.99997 101.00796 101.02092 101.02917 101.04075 101.04892 101.06069 101.06911 101.08436 101.09975 101.11586 101.13082 101.14955 101.16474 101.18511 101.20796 101.22701 101.25187 101.28443 101.32249 101.35000 101.38321 101.44199 101.52210 101.63247 101.73416 102.03277 102.24588 102.46266 102.81565 103.04435 103.51336 103.72393 103.86892 103.75841 103.78178 104.05148 104.34158 105.26508 106.05731 106.64971 107.53294 107.71517 108.59768 109.94492 111.52910 113.51293 115.23406 117.35834 118.91774 118.48736 120.18415 119.82437 122.48725 125.42000 128.38827 131.56181 132.14388 132.60576 131.47508 128.76433 128.95784 126.62599 126.32235 125.72364 124.76326 121.24006 120.64923 118.32418 116.59855 113.28524 111.50393 110.28595 109.47204 109.70944 109.87217 109.30001 108.92259 108.69284 108.10425 107.52283 106.94771 106.03834 105.41910 104.60266 104.04362 103.45970 103.13685 102.85596 102.58328 102.32241 102.13956 101.93075 101.74417 101.53620 101.40737 101.34339 101.37001 101.36039 101.36534 101.34340 101.32859 101.29888 101.27975 101.24235 101.22553 101.20569 101.17887 101.16268 101.14508 101.13507 101.11774 101.10685 101.10023 101.08947 101.07798 101.06929 101.05984 101.05010 101.03888 101.02856 101.02856
100.99781 100.99821 101.00681 101.02221 101.02761 101.03815 101.05041 101.05808 101.07157 101.07802 101.10116 101.11968 101.13090 101.14698 101.16331 101.18292 101.20231 101.22994 101.26323 101.29027 101.33132 101.36203 101.41708 101.45663 101.50623 101.64812 101.76044 101.94533 102.17804 102.51249 102.93279 103.29295 103.87185 104.10657 104.40137 104.54249 104.64595 104.97745 105.16122 106.08504 106.68753 107.84466 108.68224 109.48012 110.28085 111.66863 113.41764 115.46232 118.54609 120.32605 122.44135 123.06459 124.20878 124.12706 126.79566 130.21748 135.27113 138.67421 138.25853 140.64463 138.34578 134.95239 135.23172 134.84746 133.01859 134.05908 131.15917 127.67883 124.51637 120.78275 118.54343 116.74171 113.75149 112.14685 112.07214 111.77284 112.25630 111.17793 110.75276 110.55151 109.10431 108.50355 107.88223 106.53893 105.46838 104.73665 104.13783 103.67144 103.22086 102.85233 102.61085 102.25999 102.08512 101.90967 101.64385 101.52012 101.41019 101.43040 101.44524 101.43385 101.42973 101.40006 101.36846 101.33108 101.29594 101.26604 101.23118 101.21710 101.17709 101.16974 101.15583 101.13478 101.12343 101.11095 101.10126 101.08870 101.07640 101.06514 101.05966 101.04950 101.03952 101.03316 101.03146
100.99603 100.99643 101.00741 101.01960 101.03153 101.03823 101.05046 101.05913 101.07404 101.08449 101.09585 101.11234 101.12628 101.14070 101.16056 101.18114 101.20360 101.22925 101.25412 101.29474 101.34898 101.38564 101.44515 101.49364 101.57534 101.64914 101.78440 101.89076 102.09244 102.46810 102.82162 103.56064 103.89514 104.35901 104.78430 105.17040 105.69120 105.78514 106.03136 106.47347 107.48789 108.36244 110.00931 111.03074 112.17449 113.59939 116.27503 117.93653 121.00731 124.20418 127.47701 129.58686 129.29104 129.89700 133.23595 137.94498 139.56226 145.44007 147.72800 150.72394 145.71030 144.83406 145.83811 143.72340 143.31494 141.79843 137.29450 133.73591 128.64518 124.83291 121.59696 119.00096 116.34700 115.33796 114.75742 114.44785 114.58043 114.55669 112.88783 111.95958 110.98380 109.14208 108.18747 106.75939 105.73530 104.88933 104.16356 103.53891 103.15531 102.74578 102.47196 102.15094 102.01154 101.79512 101.64916 101.50564 101.47500 101.54607 101.54692 101.54276 101.48364 101.46635 101.39437 101.33702 101.31156 101.28079 101.25023 101.21539 101.19615 101.17637 101.16158 101.14742 101.12881 101.11645 101.10243 101.08865 101.07436 101.06879 101.05629 101.04552 101.03908 101.02943 101.02773
100.99842 100.99882 101.00818 101.02060 101.02834 101.03779 101.04722 101.05951 101.06946 101.07823 101.09080 101.10828 101.12185 101.13585 101.15397 101.16762 101.19258 101.21507 101.25211 101.30093 101.34057 101.41747 101.47663 101.55225 101.66977 101.74877 101.87364 102.02452 102.24822 102.47712 102.87589 103.30709 104.09481 104.74226 105.35182 105.99937 106.72603 107.20358 107.00019 107.53149 107.81167 108.51610 110.95375 112.21421 114.01555 116.90543 118.54539 122.14193 124.48512 130.34405 133.72800 135.44073 138.27045 137.76384 140.19318 144.42116 147.36475 155.84567 160.00896 158.70497 155.16284 157.70904 158.49362 153.65737 155.23198 147.09267 144.65362 140.35519 137.76440 131.53530 126.89784 122.76297 121.57916 119.94218 119.63999 118.69761 118.25071 116.84783 115.28668 113.17917 111.53965 110.28339 108.94996 107.51045 105.91370 104.87002 104.14167 103.60932 103.16813 102.69517 102.31413 102.04529 101.81936 101.65424 101.60202 101.60303 101.68339 101.65536 101.61420 101.63588 101.59361 101.53520 101.43971 101.40245 101.34774 101.31892 101.27822 101.24264 101.22456 101.18789 101.17353 101.15334 101.13336 101.11919 101.10437 101.08913 101.07538 101.06573 101.05489 101.04464 101.03709 101.02455 101.02285
101.00349 101.00370 101.00913 101.02014 101.02758 101.03735 101.04516 101.05513 101.06589 101.07613 101.08740 101.09999 101.11152 101.12713 101.14255 101.16467 101.19358 101.22026 101.24512 101.28573 101.35307 101.43915 101.49822 101.58092 101.72498 101.86386 102.03796 102.25286 102.39698 102.71113 102.94018 103.44405 104.30375 104.86324 105.79320 106.53226 107.36210 108.20666 109.00008 109.23546 110.52018 110.17049 112.48573 113.66835 117.31773 118.14183 122.29551 126.44736 131.17842 135.21465 139.59055 141.09659 145.66847 147.37173 147.93804 155.15923 161.02528 166.94117 170.71261 171.17190 170.57093 167.97235 167.88109 165.57031 164.26792 162.59655 158.87438 148.70566 144.57455 138.64884 130.63345 127.57458 125.80379 123.79274 123.28680 121.22850 121.42262 120.38921 117.64814 114.96059 112.47217 110.76645 108.76973 107.56263 105.89885 104.98849 104.33882 103.50953 103.04906 102.53993 102.25635 101.93286 101.74892 101.90004 101.82520 101.81184 101.82256 101.89088 101.82886 101.72608 101.68265 101.65339 101.54324 101.45665 101.42346 101.35717 101.31664 101.28696 101.24135 101.21665 101.17640 101.16227 101.13516 101.11717 101.09971 101.09194 101.07555 101.06322 101.05521 101.04435 101.03712 101.02569 101.02423
100.99888 100.99888 101.00923 101.01657 101.02701 101.03642 101.04017 101.05151 101.06105 101.06703 101.08104 101.08984 101.10411 101.12861 101.15661 101.18224 101.21771 101.25530 101.27817 101.30163 101.35519 101.45936 101.49977 101.61171 101.75974 101.95128 102.16424 102.39846 102.72833 102.96044 103.53240 103.92223 104.38115 105.16174 106.38711 107.62908 108.65218 110.24922 111.09752 112.23087 111.71645 111.88880 114.73966 116.93742 119.29987 120.89092 125.24760 130.02712 137.17264 139.54618 147.48160 152.51870 154.64150 156.82775 161.57254 165.27810 170.48142 176.18613 181.54053 181.43788 182.36857 181.98834 179.54449 181.58417 177.01475 168.29152 166.88930 161.50418 152.04429 145.52913 141.17227 133.68045 132.68761 130.23567 128.51337 126.59802 124.71158 121.58631 119.58425 116.26502 113.42045 111.27969 109.26116 107.27987 106.35356 104.88287 104.03912 103.38066 102.83624 102.47498 102.10096 102.01566 102.06581 102.13192 102.11930 102.01944 102.05333 102.04760 101.96548 101.91815 101.83262 101.72139 101.63497 101.55577 101.49334 101.41592 101.36648 101.31285 101.26962 101.22248 101.18697 101.16478 101.14000 101.12165 101.10172 101.08625 101.07478 101.06657 101.05475 101.04296 101.03652 101.02828 101.02376
100.99521 100.99521 101.00820 101.01644 101.02666 101.03734 101.04658 101.05092 101.06397 101.07093 101.08340 101.09583 101.11552 101.13095 101.16031 101.21063 101.25449 101.27871 101.31971 101.38165 101.42920 101.58161 101.62406 101.69509 101.76554 101.95078 102.21830 102.56816 102.81700 103.36666 103.86600 104.22783 104.91735 105.42698 106.79320 107.90929 109.63634 111.14257 112.26091 113.65267 115.82575 116.63000 118.82291 120.42283 122.25404 126.37957 129.37750 138.16249 140.50238 148.79823 154.95420 161.70778 167.43054 166.14375 175.98839 180.79395 180.72093 186.23792 195.47937 192.35629 195.28133 197.46036 197.66581 191.05002 192.17182 182.59430 175.98242 170.23522 160.53937 151.76717 147.62455 141.37226 138.79368 135.86496 133.89468 128.52623 127.53962 124.76279 121.65090 117.49943 114.70163 110.83638 108.90107 106.72455 105.93631 104.80656 103.44282 103.05757 102.59556 102.29974 102.11628 102.37973 102.58888 102.66851 102.54595 102.39545 102.38809 102.32917 102.21376 102.04839 101.93767 101.86809 101.73291 101.65920 101.58225 101.46857 101.40648 101.34236 101.28350 101.22717 101.19011 101.16684 101.13864 101.11811 101.09789 101.08706 101.07560 101.06455 101.05748 101.04672 101.03644 101.02790 101.02302
100.99501 100.99763 101.00842 101.01944 101.02701 101.03713 101.04663 101.05912 101.06744 101.07720 101.08958 101.10858 101.13347 101.16355 101.19109 101.23771 101.28835 101.33579 101.43350 101.45903 101.57851 101.68186 101.77568 101.83398 101.95407 102.06732 102.28617 102.69120 103.12597 103.62035 104.14485 104.92356 105.77119 106.10182 107.15091 108.40773 110.67666 112.86486 114.80571 117.56214 118.67507 121.03895 122.52505 124.12922 126.18716 127.32943 134.49025 140.89063 148.27575 156.24170 161.28316 170.66440 178.44304 183.71687 185.65400 191.77058 194.66379 201.55235 204.18834 210.95639 208.38903 208.26821 206.79058 204.48928 199.76714 196.06372 185.66213 178.45910 171.30739 161.88167 154.50384 149.15208 145.38479 141.23490 138.35179 134.81370 128.00161 125.41990 122.72903 116.94115 113.85498 110.83910 108.50726 107.11411 105.58386 104.16178 103.31978 103.02175 102.67062 102.62294 102.56832 102.83794 103.16477 103.12312 102.99376 102.88192 102.81478 102.56198 102.43077 102.31590 102.09818 102.02834 101.85545 101.75109 101.62376 101.50578 101.42404 101.38461 101.28814 101.23519 101.20266 101.17011 101.14665 101.12381 101.09791 101.08718 101.07431 101.06698 101.05614 101.04466 101.03718 101.02895 101.02507
101.00243 101.00428 101.01112 101.02142 101.02898 101.03816 101.04552 101.05839 101.06904 101.08297 101.10120 101.11812 101.14542 101.17003 101.23445 101.28204 101.33528 101.40063 101.51078 101.58818 101.67527 101.87940 101.95382 102.08077 102.21219 102.35461 102.51434 102.79098 103.12034 103.90663 104.54695 105.15295 106.44769 107.54043 108.12573 109.76161 111.74391 113.74256 116.63207 118.59604 121.50566 123.88396 125.48980 130.11185 134.01309 138.81366 142.13491 148.44737 158.93251 165.23498 176.13857 186.38735 193.56188 196.49951 203.77478 203.58905 212.54746 213.16467 213.02156 215.41271 216.75636 215.12416 214.33356 210.34877 206.26197 201.10867 195.21615 184.17019 176.47181 168.35917 162.32109 156.32853 151.13492 146.03416 140.86370 135.13652 130.73509 125.10887 121.63697 115.70883 113.52069 110.16025 108.51773 106.60953 104.83433 104.07031 103.38034 103.63829 103.56179 103.49672 103.73366 103.72546 103.74101 103.75260 103.56162 103.39771 103.13910 102.99206 102.65548 102.42913 102.30075 102.11872 101.97704 101.80178 101.69925 101.54517 101.45016 101.39074 101.30141 101.25457 101.21375 101.17583 101.14699 101.12283 101.10490 101.08512 101.07774 101.06337 101.05515 101.04487 101.03827 101.03254 101.02312
100.99949 101.00890 101.01414 101.02206 101.03080 101.03996 101.05189 101.06307 101.07189 101.08683 101.10490 101.12752 101.15351 101.17934 101.25794 101.29315 101.39191 101.48238 101.56416 101.71612 101.79047 102.00059 102.18665 102.29083 102.47241 102.69622 102.85458 103.08615 103.37457 103.97122 104.71652 105.67720 107.47988 108.24223 109.55221 111.31592 113.20410 115.47989 119.96183 121.68773 124.34306 130.48722 132.43707 137.15344 140.11168 146.16748 150.81004 154.74653 168.76302 180.24570 188.25626 195.67486 202.33299 212.51620 215.49196 218.41708 220.16868 219.98084 221.72934 220.32102 219.44160 217.06788 214.13121 211.95385 206.46439 200.24641 193.79855 185.82872 178.97827 172.88505 166.13860 159.95429 151.98313 147.33968 139.47434 134.29680 130.16930 122.90311 119.07738 115.30065 111.25062 109.19968 107.27848 105.62899 104.26253 103.88211 104.31171 104.94562 105.11459 104.91370 104.97831 104.48348 104.50847 104.51494 104.12072 103.89143 103.52706 103.20245 102.83603 102.61452 102.44775 102.18952 102.07102 101.84754 101.69476 101.60221 101.47318 101.39010 101.30897 101.25962 101.20507 101.17748 101.14182 101.12457 101.10411 101.08512 101.07494 101.06402 101.05545 101.04664 101.03832 101.03183 101.02311
100.99841 101.00782 101.01272 101.02344 101.03149 101.03875 101.04833 101.06121 101.07247 101.08857 101.10667 101.12778 101.15737 101.20165 101.25277 101.32884 101.42189 101.51720 101.67285 101.78357 102.03878 102.22821 102.43688 102.72610 102.93525 103.14702 103.43010 103.58762 103.91475 104.14397 105.03534 106.09043 107.55550 109.08510 110.62107 112.35013 115.32715 117.22047 121.20836 123.06507 129.71608 135.34382 139.19088 140.53427 148.89343 153.24921 159.32970 173.28608 180.20887 189.87847 197.28233 216.85483 218.77315 226.46019 228.23526 227.65714 227.60074 224.42784 223.04530 218.29469 214.72760 210.43801 210.08919 206.00667 197.45089 197.64342 188.39143 184.15503 177.89915 173.10931 164.57672 159.89146 152.05578 146.72602 136.66420 132.41803 127.38503 121.73853 117.59843 112.34374 110.09926 108.26041 106.34454 105.32999 105.22486 105.50049 105.63839 106.63274 106.56457 106.33125 105.93573 106.36122 105.64795 105.40360 104.70511 104.25904 103.61916 103.40019 102.96865 102.62177 102.41667 102.24289 102.00412 101.88805 101.67568 101.56165 101.44158 101.37149 101.28797 101.24000 101.19591 101.16367 101.13471 101.11665 101.09975 101.08558 101.07471 101.06395 101.05397 101.04693 101.03840 101.03178 101.02236
100.99946 100.99946 101.01011 101.01996 101.02766 101.03899 101.04871 101.06036 101.06938 101.08081 101.09654 101.11633 101.13955 101.17721 101.24747 101.29373 101.44639 101.52837 101.68387 101.90274 102.13161 102.38037 102.63639 102.95779 103.21980 103.36266 103.95106 104.40583 104.68841 105.07985 105.70808 106.39683 107.94661 109.91650 111.98396 114.19256 117.17132 120.19893 124.38842 128.07821 131.81227 141.01615 144.76807 152.34485 158.75479 166.69139 173.98884 182.49034 193.06037 208.07885 218.52418 225.23780 232.92762 234.60487 235.38007 230.55842 228.05496 222.35330 216.51347 210.78700 202.37044 201.22563 193.03600 190.89264 190.17931 187.78487 183.31608 177.60460 168.66031 164.78054 159.71723 153.94724 147.85917 143.52475 133.01263 128.24148 122.55464 118.36892 113.74663 110.52018 108.50851 106.89331 106.01755 106.71887 107.83704 107.91037 107.98277 108.36652 108.45706 108.44900 108.27872 107.38884 106.56751 105.72152 105.30656 104.50393 103.95640 103.34167 102.94252 102.65701 102.46488 102.17200 101.91851 101.84290 101.66723 101.52596 101.45037 101.36446 101.27033 101.21907 101.17266 101.14715 101.11871 101.10708 101.09350 101.08684 101.07446 101.06359 101.05620 101.04492 101.03940 101.03204 101.02682
100.99522 100.99552 101.00916 101.01756 101.02714 101.03705 101.04747 101.05833 101.06907 101.07892 101.08612 101.10435 101.12959 101.16046 101.23270 101.28648 101.42006 101.51417 101.66719 101.91481 102.15209 102.47414 102.77050 103.12796 103.44893 103.81470 104.40953 104.73721 105.15789 105.44190 106.51552 107.06694 108.25146 110.39583 112.11983 115.27247 117.67203 122.43762 125.76227 130.79090 135.90515 145.14760 153.79120 159.17182 166.95069 173.81966 190.94178 196.30308 210.95092 222.58232 230.46182 236.64140 241.24508 240.50463 239.11280 231.47399 225.32991 215.21896 209.64402 199.82934 196.51715 188.74324 183.74105 181.56057 175.81433 170.29999 165.70267 161.50310 158.56474 155.27573 152.93300 148.71655 140.75610 135.79767 129.14091 125.37354 120.02346 115.43446 111.56338 108.33961 107.61627 107.31453 108.35367 108.82779 110.12374 109.90501 111.29611 110.86433 110.44869 110.12426 108.93967 108.30649 107.53556 106.21192 105.55326 104.85660 103.95881 103.42351 102.98619 102.58702 102.38687 102.11017 101.89925 101.75158 101.61987 101.47931 101.40290 101.30243 101.23313 101.19419 101.16172 101.13580 101.11631 101.10929 101.09661 101.08676 101.07322 101.06255 101.05409 101.04796 101.03717 101.02743 101.02684
100.99598 100.99628 101.00946 101.01820 101.02845 101.04154 101.04951 101.06373 101.07461 101.09289 101.10775 101.12591 101.15446 101.16783 101.20081 101.24832 101.37935 101.49544 101.68638 101.82555 102.11903 102.43845 102.75667 103.23369 103.41945 104.08742 104.62130 105.03601 105.74721 106.29660 107.09315 107.96001 109.08379 110.90540 112.78907 115.13686 117.88754 124.22234 128.47612 135.87310 141.84976 149.03461 157.51833 166.58107 175.34167 184.38558 199.89212 213.57597 222.34716 234.06457 243.86512 248.51787 249.21526 246.06454 236.57838 228.91548 220.48706 208.57676 195.18126 190.85224 180.91420 174.03049 168.30285 169.26187 164.87044 159.37854 156.39241 153.92115 151.91543 147.28990 143.93529 138.92220 133.88936 129.24043 125.60868 121.55158 116.72942 113.71135 110.30196 108.83493 109.41642 109.61180 110.71107 112.64152 113.01882 113.94650 113.97294 114.03977 112.91191 111.75962 110.20200 109.19927 107.82689 106.86689 105.74986 104.65907 103.94787 103.43781 102.87071 102.47280 102.24314 101.96430 101.84252 101.64911 101.53519 101.41411 101.36331 101.30225 101.23687 101.20118 101.17138 101.14913 101.13805 101.11503 101.10173 101.09169 101.07478 101.06663 101.05210 101.04576 101.03573 101.02596 101.02554
100.99842 100.99842 101.00815 101.01940 101.02912 101.04395 101.05512 101.07458 101.08719 101.11324 101.12860 101.15594 101.17972 101.20103 101.23263 101.27569 101.33494 101.38780 101.59952 101.69648 102.06308 102.25169 102.75459 103.00308 103.58640 103.87891 104.56742 105.05042 105.75150 106.28280 107.30823 108.52953 109.83205 111.20909 113.75505 115.31005 120.72455 124.45094 128.20588 137.95878 143.52622 153.27006 163.13140 174.09063 185.11689 196.64899 207.12388 225.32258 236.82739 250.60146 256.91390 258.90515 254.42960 246.70531 234.89997 223.21960 209.70422 196.83429 188.52135 177.17989 170.61197 162.22966 157.67752 152.22621 150.49853 148.06688 144.50471 140.41637 139.59086 136.26651 133.63823 131.62367 128.17394 125.40062 121.59225 116.77490 114.14537 111.88769 110.04028 110.56876 112.22251 114.24507 115.19745 115.48264 115.74855 116.83030 117.47490 116.23693 114.41162 113.30282 111.70663 109.00643 108.37419 106.63610 105.91683 104.65084 103.99884 103.40419 102.80594 102.47847 102.15241 101.92849 101.80484 101.66870 101.49727 101.43539 101.38210 101.31346 101.26915 101.23243 101.19966 101.17266 101.14707 101.12740 101.11074 101.09231 101.08124 101.06610 101.05671 101.04607 101.03433 101.02316 101.02257
100.99771 100.99862 101.00932 101.01992 101.03255 101.04471 101.06240 101.07798 101.10400 101.12727 101.14617 101.20711 101.20775 101.24664 101.28385 101.32276 101.36562 101.40652 101.50635 101.64925 101.82812 102.14095 102.46175 102.86143 103.38056 103.69522 104.34824 104.83138 105.58981 106.26647 107.18475 108.56108 110.48616 111.89002 114.14174 117.69134 121.26567 125.41038 129.08174 136.81186 146.57211 157.08667 171.12994 183.25571 191.60042 208.22160 221.80803 241.70708 252.11078 261.73247 263.77272 263.64942 254.96821 244.49053 231.68150 215.69198 203.08826 188.13566 179.06963 167.69561 159.55124 152.37606 148.70613 144.88550 141.49572 138.91970 135.93989 134.32486 129.22027 129.57555 128.28129 125.18004 122.57035 119.38999 117.04845 114.48758 112.60268 110.81672 111.41635 114.87575 116.44704 120.45771 119.66339 120.34324 121.93612 122.00597 119.77800 118.86331 116.47779 114.48740 112.28142 109.95865 108.43438 106.71113 105.70897 104.51646 103.91806 103.31249 102.78412 102.54284 102.21209 102.03619 101.91358 101.72620 101.60274 101.47143 101.42262 101.34850 101.29409 101.25087 101.21880 101.17795 101.15734 101.13220 101.11518 101.08839 101.08244 101.06856 101.05621 101.04547 101.03708 101.02460 101.02410
101.00097 101.00097 101.01092 101.02282 101.03100 101.04657 101.05744 101.08196 101.09955 101.13773 101.18558 101.21279 101.25768 101.33072 101.36031 101.42410 101.47340 101.51628 101.55886 101.60573 101.75295 101.98330 102.18462 102.62363 102.96918 103.48160 103.87671 104.23138 104.90460 105.88133 106.70554 108.20641 110.46494 111.68242 114.37153 117.77196 122.01676 126.89801 133.71116 138.95019 145.96445 156.63902 173.89127 189.24603 202.52406 222.75280 243.11529 250.54283 263.12774 269.52532 268.12166 264.22228 253.32831 238.29722 230.95155 211.40166 198.85916 181.89089 172.90826 164.01981 153.61118 146.62793 139.02989 134.51600 132.37019 131.87800 127.93205 123.50716 124.45017 124.75891 120.48204 120.24343 119.05330 117.18515 113.64265 113.02720 113.71861 113.38011 115.80914 118.71773 120.42116 123.53892 125.89471 125.85043 126.17023 124.60640 123.15404 120.37648 117.89519 114.80558 112.56270 110.53875 108.77321 106.77089 105.48755 104.74833 103.86657 103.23983 102.96698 102.67369 102.37689 102.13079 101.99642 101.82846 101.66368 101.56521 101.45625 101.37627 101.30866 101.25654 101.22013 101.18292 101.15658 101.13618 101.11423 101.09272 101.08151 101.07338 101.05583 101.04618 101.04022 101.03161 101.03145
100.99571 100.99690 101.00922 101.02123 101.03099 101.04590 101.05888 101.08346 101.10668 101.13971 101.18589 101.23282 101.28349 101.36222 101.41099 101.47504 101.56993 101.62252 101.74751 101.76939 101.77810 101.90076 102.10294 102.42728 102.71249 103.15412 103.47270 103.92535 104.36610 105.27750 105.56685 107.65887 109.05205 111.38261 113.92530 118.17537 119.95159 126.61595 132.15549 141.14631 151.12057 160.38870 178.08263 192.21736 206.60472 228.48782 247.16666 258.71651 271.65817 275.81747 274.19046 263.51551 251.94161 235.31290 223.18445 205.25528 190.48135 179.91460 171.07740 158.87571 152.22278 141.86908 135.82848 128.61341 127.77949 125.29484 123.45933 121.80321 119.72078 119.17753 118.34464 117.41735 116.16284 115.07464 114.18257 114.33979 116.32593 117.35358 119.38503 121.61982 126.93642 130.71562 130.41312 133.18056 131.29413 128.32748 125.48291 121.36603 117.55204 114.92674 111.39669 110.04787 108.48297 106.76659 105.55761 104.85103 103.98373 103.48462 103.24990 102.94868 102.63795 102.40784 102.07767 101.93664 101.71022 101.55506 101.45892 101.39658 101.29326 101.25397 101.20923 101.16630 101.13907 101.12628 101.10861 101.09081 101.07707 101.06776 101.05390 101.04817 101.04097 101.03677 101.02961
101.00352 101.00408 101.01090 101.01927 101.03202 101.04704 101.05789 101.08223 101.11925 101.15371 101.19326 101.24031 101.30797 101.39461 101.47856 101.57689 101.68317 101.76289 101.84404 101.98544 102.11178 102.19935 102.22688 102.43322 102.66034 102.90142 103.28724 103.67891 104.21463 104.84735 105.46526 106.69889 108.26839 110.59365 113.60379 115.88917 119.83632 126.55705 133.91117 142.30155 153.34299 167.08983 180.13032 200.19542 216.06404 233.68727 249.38843 266.01790 277.07439 280.72620 275.92310 266.45292 249.99609 231.16396 218.51017 199.59863 187.97503 174.35081 165.06089 153.58606 145.75472 139.95291 133.64779 127.52627 124.10556 122.01577 119.90626 118.48142 118.05376 116.84850 115.78959 115.26341 114.60632 114.68545 115.52472 116.80347 119.21859 121.44664 125.96176 128.11976 132.85338 136.39091 138.19395 137.38246 135.77872 130.36448 127.49832 124.77626 118.74401 116.07253 112.59532 110.24678 108.32269 106.73523 105.94135 105.03410 104.59055 103.96768 103.56299 103.08856 102.81094 102.45655 102.17962 101.89113 101.74224 101.59021 101.46701 101.38432 101.30403 101.23469 101.19382 101.15454 101.13088 101.11400 101.09619 101.08444 101.07460 101.06327 101.05253 101.04605 101.03960 101.03670 101.02698
100.99826 100.99826 101.00926 101.02105 101.02949 101.04528 101.05798 101.07978 101.09975 101.14185 101.20142 101.24760 101.31817 101.43183 101.52511 101.63607 101.80583 101.89296 102.07633 102.23648 102.32848 102.42713 102.59440 102.70406 102.80634 103.23808 103.72805 104.10720 104.72051 105.37189 106.35239 107.26392 108.57230 109.97381 111.44417 115.84958 121.19629 126.57747 133.54831 144.62780 157.74437 169.43513 184.86565 203.28324 218.07137 243.60409 255.07508 275.40282 281.99561 284.35929 277.60924 267.72733 252.68752 229.07283 215.76821 195.30329 181.28780 168.21316 157.43436 150.83572 144.28617 137.28342 132.28484 126.13585 122.37844 119.53408 118.42279 117.00368 116.39523 115.21324 115.06191 114.88048 114.91501 115.86196 116.48138 119.74375 121.84873 126.90192 132.98515 135.17258 139.94610 141.69266 143.70162 143.64623 139.91836 136.20497 128.72672 124.08746 121.19284 115.36489 113.17750 110.40407 108.64879 107.51445 106.23225 105.50758 104.77639 104.21073 103.62122 103.22548 102.76533 102.52108 102.15351 101.96996 101.70976 101.57198 101.47795 101.36688 101.32964 101.25398 101.21598 101.17193 101.13940 101.10265 101.09641 101.07748 101.06707 101.05949 101.05094 101.04503 101.03594 101.02959 101.01987
100.99730 100.99855 101.00957 101.02101 101.02825 101.04314 101.05279 101.07699 101.09425 101.13330 101.18906 101.23017 101.31951 101.43651 101.52780 101.68507 101.83588 101.97452 102.20790 102.43017 102.55992 102.80647 102.94239 103.38613 103.57825 103.73430 104.15389 104.90127 105.11612 106.34668 107.85509 108.67897 109.60885 111.64969 113.65625 116.75695 119.46519 127.24158 132.08852 144.77476 157.54738 170.47142 183.69590 203.50380 223.14780 246.03894 261.82184 274.36190 283.17240 285.04079 280.43637 261.39947 245.85435 230.49710 217.57838 199.00405 181.63219 168.49284 152.16258 146.21958 138.77077 133.44165 130.55003 124.53305 120.86073 118.41030 116.62751 115.94971 115.23236 114.92723 114.88278 115.11113 115.78155 117.65611 119.79713 121.94770 126.76207 133.10159 136.76193 142.10718 146.71840 148.97531 151.86138 148.37582 141.71220 138.16772 132.90980 125.47719 121.43756 117.48830 114.08160 110.85149 109.55494 108.08153 106.67371 105.80459 104.95309 104.20280 103.81198 103.24092 102.88288 102.52149 102.13850 101.88897 101.72934 101.56970 101.46291 101.40141 101.34088 101.29742 101.23006 101.18497 101.16189 101.13462 101.09662 101.08248 101.07059 101.06128 101.05334 101.04178 101.03373 101.02637 101.01665
101.00161 101.00286 101.01050 101.01702 101.03068 101.04133 101.05492 101.06181 101.09112 101.12745 101.18078 101.22065 101.28290 101.41246 101.50939 101.64907 101.84307 102.09451 102.27248 102.54847 102.87931 103.00672 103.39544 103.70902 104.12350 104.68729 105.14961 105.47281 106.64399 107.44644 108.84912 110.73712 112.53448 114.86481 115.57836 119.52270 122.58262 126.71133 131.28343 142.52003 154.59486 169.74535 187.30564 201.55611 223.13777 241.44360 264.47859 274.95345 286.50664 284.63122 273.55490 264.74511 245.62673 231.73873 215.19160 199.65980 184.39558 168.13401 158.14568 146.34457 138.50377 130.67743 127.05943 121.95141 119.31603 117.66355 116.28008 115.24032 115.06027 114.87154 114.94144 115.49371 116.90498 119.48924 122.09128 127.06194 132.30069 139.22645 145.64199 152.08837 156.89602 159.24829 157.41860 153.95337 150.29696 142.25761 134.86287 129.71029 122.86305 119.44880 114.47466 112.38823 110.15680 108.31605 107.00513 105.57968 104.82082 104.32672 103.47958 103.17805 102.84030 102.48855 102.13125 102.01805 101.81393 101.69581 101.60640 101.52110 101.43793 101.35174 101.27730 101.24336 101.17691 101.15632 101.12209 101.09602 101.07680 101.06375 101.05394 101.04347 101.03372 101.02580 101.01608
101.00384 101.00384 101.01175 101.01808 101.03012 101.03763 101.04844 101.06986 101.08518 101.11676 101.14859 101.20974 101.27603 101.35104 101.49603 101.61272 101.87306 102.06587 102.33177 102.65154 102.99773 103.26616 103.78872 104.22295 104.53410 105.54493 105.96020 106.97308 107.90293 108.60611 110.98614 112.77577 115.96739 116.69059 121.08349 122.75753 126.55763 132.94795 137.76238 142.22027 154.46856 169.72883 184.02250 208.76814 226.62886 249.89230 264.59998 279.18012 285.76089 284.63922 272.91649 259.45339 244.96427 227.27874 212.62766 199.49633 181.67078 165.94044 157.07049 146.76988 139.63721 131.21510 126.06042 120.41728 118.01609 116.79133 115.62874 115.02045 114.88373 114.92995 115.26477 116.25588 118.59174 120.92942 125.23075 131.84247 138.82978 148.30646 153.02499 160.41639 166.34794 166.97662 168.52995 161.74173 152.00477 145.22533 140.48884 130.93328 124.35048 120.38582 116.31340 113.86602 110.87093 108.89375 107.60536 106.11287 105.04028 104.52123 103.84061 103.46507 102.98405 102.63997 102.32711 102.11803 102.00063 101.84121 101.68973 101.59855 101.50768 101.39695 101.31968 101.27074 101.20135 101.15434 101.13980 101.10686 101.08663 101.06823 101.05486 101.04390 101.03723 101.02870 101.01898
100.99886 100.99886 101.01013 101.01764 101.02816 101.03854 101.04689 101.06056 101.07729 101.10370 101.14119 101.18827 101.24880 101.31806 101.42885 101.59546 101.86824 102.01472 102.31365 102.59637 103.19385 103.53309 103.93593 104.82302 105.46242 106.20847 107.33082 108.25617 109.63504 111.00216 113.63161 115.35573 117.83578 122.86597 125.46103 127.75931 133.89266 136.98856 142.74896 154.20998 161.77898 172.54099 192.24898 209.09761 232.64818 251.44224 268.05655 280.92180 285.24778 280.79242 263.80399 258.82375 236.91838 222.35431 208.37244 197.12784 179.70588 165.09668 155.87101 145.35320 138.39424 130.43585 125.98053 121.90985 117.86741 115.76376 115.29737 115.01311 115.05678 115.27067 115.54151 117.26345 119.47457 121.88759 130.61541 135.73282 143.15888 149.76204 159.87572 168.67795 174.40359 175.26785 173.78091 166.38301 155.27832 149.12190 139.62623 133.97297 127.38157 122.28310 118.35950 115.02873 112.27644 109.83919 107.84688 106.99839 105.67403 104.84671 104.30094 103.81539 103.29592 102.84210 102.59868 102.40054 102.13826 101.97918 101.78773 101.64280 101.55855 101.45204 101.36333 101.28971 101.23649 101.17177 101.14255 101.11607 101.08617 101.06746 101.05622 101.04505 101.03830 101.02881 101.02300
100.99679 100.99679 101.00770 101.02026 101.02656 101.03670 101.04578 101.05619 101.06970 101.09375 101.11197 101.16051 101.21785 101.29036 101.37722 101.54520 101.73334 101.91154 102.27735 102.76588 103.12884 103.76641 104.35579 105.28443 106.34051 107.53540 108.30182 109.58921 111.09191 113.46286 115.66883 118.32903 121.39019 126.22958 131.86514 134.34627 140.52330 145.67435 154.36026 163.20675 177.81051 183.97406 207.09200 221.47907 241.66721 255.72782 272.90283 284.08978 284.45946 275.01876 264.49685 250.80971 231.27141 216.97635 197.56223 188.70225 176.70344 163.05377 151.95175 144.63882 135.26866 129.66425 124.30436 119.02253 117.54793 115.68469 115.37868 115.55869 115.74639 116.58602 116.42890 117.71461 121.33980 126.12845 131.19707 139.51936 148.41611 156.07196 167.12240 178.38156 182.57928 184.33822 181.21918 169.95603 161.64732 154.21533 142.23416 136.79854 129.21921 123.11872 119.79792 115.71573 112.56667 110.30553 108.38280 107.29993 105.94519 105.47787 104.58779 104.03221 103.49738 103.04550 102.74415 102.50405 102.22016 102.00048 101.84746 101.71248 101.55936 101.47630 101.36192 101.29619 101.23530 101.19913 101.13219 101.11709 101.08721 101.06614 101.05742 101.04530 101.03959 101.03287 101.02856
100.99553 101.00514 101.00984 101.01681 101.02770 101.03789 101.04552 101.05580 101.06717 101.08450 101.11518 101.15567 101.19756 101.27073 101.37376 101.45841 101.71049 101.90397 102.40122 102.76991 103.31151 103.81583 104.89982 105.80462 106.64015 108.04152 109.37412 110.64454 113.73911 115.47883 117.59860 121.36561 125.69223 129.03812 134.27862 140.48207 145.26560 155.35025 162.14732 173.40937 179.59974 196.37786 214.64863 229.70920 247.37125 261.88475 275.95839 285.73682 283.16291 273.46196 263.36382 242.49321 228.36215 210.41111 193.91264 182.99323 168.19860 161.98164 148.27458 141.47954 131.91046 128.33564 122.58980 120.09788 116.99489 116.20976 115.90187 116.42649 117.55803 118.08623 118.64445 119.68293 120.42975 128.08452 134.67706 145.12166 160.17533 165.65695 178.12996 186.58561 189.42683 190.18427 186.35784 178.29508 165.49520 157.04540 145.07310 138.71851 131.94390 123.92483 120.15494 115.72064 112.91003 110.71629 108.91277 107.67116 106.44115 105.44386 104.64639 104.13310 103.66455 103.19611 102.76995 102.46766 102.26071 102.00751 101.86655 101.72910 101.55920 101.47256 101.36424 101.28533 101.23533 101.18181 101.14301 101.11876 101.09240 101.07466 101.05792 101.04390 101.03638 101.02592 101.02563
100.99769 101.00730 101.01288 101.02054 101.02887 101.03595 101.05013 101.06083 101.07593 101.10162 101.13742 101.17935 101.22626 101.30993 101.40344 101.56414 101.72031 101.92001 102.29270 102.79935 103.27293 103.81409 105.15240 105.77766 106.86739 108.97486 110.11182 112.11128 114.49696 116.70555 120.20232 123.57355 127.01740 132.08896 138.40199 143.80689 152.32702 162.89677 170.25150 183.57719 196.95522 209.42640 225.14567 245.02520 262.67461 277.05224 284.79935 288.81051 285.49685 270.59653 256.84233 241.59087 218.97429 202.33741 189.05206 180.22268 164.62971 148.80944 146.64262 137.89782 131.94609 127.20957 122.06085 119.24406 118.29168 116.86878 116.67885 118.51935 119.89161 121.33193 122.00615 124.42360 125.63304 132.43656 139.78705 148.80491 160.52362 168.94612 184.49162 190.07522 197.38729 197.42260 190.55009 183.45808 169.54300 158.51281 147.36805 140.37280 132.72605 124.54257 119.44566 116.17714 113.85800 110.93816 108.81206 107.36576 106.35721 105.49281 104.67656 104.16551 103.50677 103.12675 102.68312 102.45223 102.14915 101.93402 101.70584 101.61304 101.47451 101.43094 101.33895 101.27802 101.21480 101.18520 101.14482 101.10699 101.08939 101.07321 101.05647 101.04806 101.03643 101.02640 101.02625
101.00002 101.00963 101.01328 101.02350 101.03096 101.04110 101.05239 101.06070 101.08914 101.10794 101.14734 101.17808 101.24146 101.34129 101.43478 101.59394 101.74923 101.96940 102.24090 102.77269 103.11265 104.06340 104.72891 105.57893 107.04444 108.65373 110.17284 111.98136 114.40904 116.58781 120.24664 124.36108 127.58502 132.70916 137.91281 145.55348 153.38390 163.84985 175.73848 187.23980 204.30963 220.76275 238.04486 259.07414 267.13557 283.18097 291.91898 292.29305 285.20901 269.90173 252.39501 235.40173 223.09192 196.63431 186.50933 175.81447 161.66057 151.01746 144.34090 135.83359 131.50058 125.40940 122.23522 121.05040 119.34223 118.56169 118.73104 120.75124 122.66233 124.30332 127.75232 128.65164 128.91478 134.85205 143.06769 151.79275 167.78272 177.10229 189.63815 197.79961 202.28103 201.08102 195.71651 183.80677 170.20130 160.47531 148.08777 140.44393 130.59340 124.65879 119.98123 115.98934 113.36788 109.87904 108.39526 106.91147 105.96045 105.03685 104.23728 103.79370 103.27972 102.84881 102.57658 102.29945 101.98408 101.72503 101.61319 101.51759 101.42609 101.35206 101.28197 101.24687 101.20446 101.17081 101.13575 101.10422 101.08537 101.07224 101.05822 101.04482 101.03630 101.02350 101.02335
101.00125 101.01041 101.01428 101.02176 101.03254 101.04139 101.05053 101.07027 101.08586 101.11120 101.14483 101.18772 101.27197 101.34085 101.47205 101.61132 101.74366 102.00455 102.33074 102.72178 103.14554 103.85864 104.37889 105.49795 106.26659 107.82507 109.27934 111.79960 113.56165 116.37709 118.80189 123.13119 125.71993 130.97742 138.41996 145.92341 153.14415 160.70666 176.51565 194.17505 208.29151 225.60887 241.29103 261.50401 280.10978 288.98517 297.13187 292.94447 289.41686 269.79776 256.06849 235.22597 222.62104 204.87881 188.48242 176.92175 161.63470 152.84100 144.09139 137.44430 132.78984 126.37658 124.21575 122.56316 121.33331 119.72536 120.48455 123.51709 127.33551 130.45907 131.42395 135.05678 134.55088 136.90117 143.82754 155.20733 166.44336 177.56727 196.41556 204.21629 208.15842 205.15643 197.58985 188.07155 178.70962 160.70148 147.43400 138.72197 130.49227 126.24394 118.52208 115.06584 112.10157 109.66955 108.25083 106.43092 105.29934 104.51777 103.75485 103.20941 102.91470 102.56444 102.25571 102.05557 101.86215 101.63823 101.52826 101.42421 101.35897 101.29498 101.23243 101.20069 101.16878 101.14335 101.12345 101.10302 101.08659 101.06577 101.05613 101.04438 101.03541 101.02166 101.02151
101.00078 101.00078 101.01202 101.01943 101.02973 101.04101 101.05361 101.07398 101.08873 101.11785 101.14604 101.19646 101.25035 101.35380 101.43620 101.61500 101.77110 101.99949 102.21816 102.55760 102.85059 103.76949 104.28963 104.64098 105.93574 106.59482 108.38841 109.74439 112.51352 114.72905 117.00185 120.25622 124.32083 127.54431 136.70368 142.69772 152.40252 162.88021 173.88492 188.67426 208.77253 227.86694 244.24028 264.98093 281.58450 292.79541 300.66962 298.55400 287.96931 275.39224 260.15098 241.95972 224.65710 207.82965 191.60290 180.48451 163.35396 153.24534 145.48811 138.47257 135.77080 131.43099 129.21913 126.28921 124.11722 122.63137 123.01325 126.62334 130.49201 134.80610 138.15187 139.46323 141.25824 144.69610 147.78708 160.14978 169.25996 182.04823 200.19658 206.56646 210.88880 209.70864 201.52087 185.74391 175.19174 158.10966 149.16248 139.62574 132.50046 124.18528 119.52216 115.60293 112.77371 110.08467 108.41817 106.44858 105.33392 104.60666 103.76554 103.19662 102.74077 102.52071 102.11257 101.96769 101.76764 101.66783 101.60103 101.46353 101.38214 101.30982 101.21795 101.18435 101.14611 101.12513 101.11304 101.08746 101.07816 101.06641 101.05368 101.04650 101.03576 101.02558 101.02558
100.99947 100.99947 101.01131 101.01873 101.02918 101.04199 101.05374 101.07231 101.08741 101.11661 101.15147 101.18940 101.24590 101.31942 101.42248 101.50278 101.63345 101.78911 102.07845 102.23502 102.63242 103.13276 103.53760 104.12052 104.64961 105.63221 107.19776 108.53822 110.53348 112.94186 115.30788 117.41424 121.22142 125.69169 133.89134 139.65740 149.02797 160.86166 172.09321 184.43221 203.34358 219.93232 237.99169 269.37181 283.72206 294.73649 301.75417 301.32884 294.18147 284.20601 260.87887 249.50882 230.22132 211.06729 197.61738 177.89063 167.60351 157.83444 149.14826 143.54733 139.66212 137.24303 132.34288 130.02335 126.78004 125.75397 126.43712 131.34175 135.81605 139.58273 144.19923 146.54068 150.27215 149.67805 157.67255 164.03886 175.83171 186.75791 198.98829 208.92641 214.90288 211.15660 202.44361 188.17515 177.76645 163.19762 149.93536 139.78085 132.36708 124.84653 120.00177 116.38715 112.33506 109.79638 108.13213 106.96643 105.57344 104.63572 104.08017 103.39549 102.97896 102.53554 102.24258 102.01681 101.84690 101.72024 101.62540 101.51330 101.43227 101.34621 101.27133 101.20891 101.14944 101.13175 101.11160 101.09103 101.07329 101.06522 101.05841 101.04777 101.03734 101.03023 101.03014
100.99502 101.00448 101.01178 101.02151 101.03156 101.03835 101.05152 101.06700 101.08316 101.11314 101.14283 101.17485 101.22918 101.27356 101.35109 101.44062 101.60533 101.68834 101.82588 102.05020 102.26147 102.67524 103.27154 103.42152 103.89964 104.79723 105.96994 107.03512 108.60448 110.14396 112.58645 115.58185 119.41494 124.79198 131.06081 136.54329 147.73634 157.18558 172.96833 187.59038 203.90214 219.62139 244.62630 262.50210 279.89359 292.31187 301.53492 302.42362 295.27122 285.97160 267.87559 248.26405 235.41760 214.10204 202.29904 185.82371 176.11735 163.67105 156.44897 151.24665 147.99077 144.11773 137.25248 134.41785 133.59368 132.51759 131.07410 136.82302 143.39433 147.45647 155.76780 156.23146 157.28500 163.18343 167.76068 172.32386 182.25917 193.41830 203.52836 212.65468 217.56475 214.74465 207.84086 190.38839 172.51264 164.08594 149.53227 141.58788 132.02744 125.37235 120.42790 116.44319 112.77739 110.50941 108.24336 107.18830 106.10495 104.86364 104.17497 103.49758 102.93656 102.56875 102.33134 102.08354 101.91849 101.78639 101.69004 101.55230 101.46518 101.35245 101.29318 101.23393 101.17858 101.14830 101.11642 101.09612 101.07940 101.06820 101.05889 101.04797 101.03590 101.02449 101.02440
100.99510 101.00456 101.01143 101.02126 101.03055 101.04014 101.04943 101.06496 101.07553 101.09174 101.11001 101.15051 101.18450 101.23004 101.26893 101.30912 101.40994 101.53467 101.62884 101.70107 101.97657 102.18115 102.47440 103.03669 103.60109 104.61633 105.69383 106.37456 108.01982 110.06503 112.77856 116.23187 119.80138 125.54152 130.96703 136.33981 146.44178 154.27534 176.30308 185.89766 204.27429 219.26580 240.34090 261.73629 277.30533 292.27025 299.28110 303.29717 296.96684 289.98788 274.03183 258.73504 241.66992 222.64742 203.48907 191.62472 180.93536 169.98995 162.88385 158.70640 154.91781 148.75795 145.89447 140.15290 139.03046 138.37150 138.70605 145.55659 151.03658 155.93921 163.09793 163.89004 166.85038 174.64715 176.03743 178.07443 189.97706 200.45194 210.66759 218.17628 221.97593 218.25649 207.97038 192.54362 182.43729 165.56238 150.77645 141.73991 133.33736 125.97481 122.10754 116.73336 113.37518 110.96849 108.45776 106.85146 105.96971 104.55681 103.84510 103.34160 102.84240 102.56731 102.28006 102.09795 101.95099 101.78527 101.67315 101.53600 101.47016 101.36873 101.29743 101.23953 101.18297 101.14700 101.12429 101.10404 101.08697 101.07041 101.05790 101.04685 101.03673 101.02783 101.02456
100.99754 101.00540 101.01124 101.02442 101.03125 101.04009 101.05084 101.05919 101.06640 101.07774 101.09644 101.11954 101.15978 101.17368 101.21604 101.27843 101.32602 101.45126 101.55028 101.70979 101.92450 102.17094 102.55730 103.00219 103.72574 104.44579 105.74114 107.13200 108.70417 110.61998 113.11201 115.56401 118.36874 125.59254 130.78641 136.99482 146.11719 157.61142 173.26366 184.10374 200.16404 221.79522 231.10952 257.91107 269.78595 285.77950 296.60590 301.31396 300.00214 292.47066 276.03567 265.41909 247.88433 230.31102 213.02730 198.40929 191.58811 182.80255 180.75755 167.27794 160.15523 155.15770 151.94123 151.57953 151.29351 145.29530 150.06034 151.93606 161.68416 167.95780 179.54447 184.55484 180.01234 180.89631 185.59468 189.85491 198.45322 209.30416 217.91341 222.77994 224.87932 217.86156 212.64379 191.03733 182.89461 163.92992 155.61681 143.85693 134.81814 128.13463 121.05611 118.21378 112.32352 110.67785 108.09554 106.49685 105.16757 104.38828 103.60430 102.96712 102.83680 102.35761 102.25693 102.02964 101.89436 101.74519 101.66930 101.52445 101.47195 101.36800 101.29922 101.24961 101.18946 101.16483 101.13820 101.10751 101.08549 101.07088 101.05814 101.05117 101.03581 101.02594 101.02370
100.99546 101.00399 101.01158 101.02106 101.02956 101.04226 101.05079 101.06007 101.07189 101.08641 101.10180 101.13235 101.14304 101.17907 101.23547 101.29626 101.36284 101.48999 101.61150 101.76664 101.96271 102.33022 102.76177 103.25060 103.96251 104.82498 105.73314 107.15151 109.03958 110.78603 113.14834 116.10591 119.68774 124.87472 129.10304 136.55262 144.68362 154.69997 166.53324 179.04462 192.10683 211.97662 227.75377 244.73983 263.12698 278.11147 289.76959 294.92257 297.66147 294.06402 283.25370 268.47803 257.51663 236.13178 223.12876 210.69630 202.03863 197.48635 190.59742 179.02161 170.26859 166.52105 160.24464 159.65104 157.93206 155.29824 155.63130 161.70214 173.39065 178.93378 185.33375 189.15304 194.14118 196.86021 202.90012 207.30576 210.03234 216.01304 222.65551 227.97459 227.63953 218.19201 207.21738 193.49481 181.80342 167.63707 155.32370 144.30087 132.21986 126.83097 121.90461 116.23046 113.50687 109.08839 107.73154 106.13930 104.96555 103.97443 103.28797 102.86357 102.58615 102.27007 102.10357 101.93286 101.82192 101.71382 101.60172 101.50321 101.44480 101.35449 101.29085 101.23835 101.20214 101.17008 101.13305 101.11246 101.08771 101.07121 101.05999 101.04565 101.03604 101.02375 101.02042
101.00407 101.00407 101.01087 101.02328 101.03040 101.03885 101.05171 101.06560 101.07745 101.10501 101.12452 101.15412 101.18001 101.21790 101.27815 101.32727 101.45953 101.55698 101.68542 101.84704 102.07827 102.45575 102.80860 103.48692 104.01889 104.91161 105.92891 106.87439 108.58068 110.95222 113.29993 116.22046 119.84431 124.63571 128.83672 136.42415 143.23841 153.15750 162.48443 172.80228 188.44707 207.03636 220.10984 238.75338 250.55683 257.22592 276.18750 289.30091 295.00468 294.84400 287.60678 274.32447 261.59753 244.26163 231.77521 227.19822 221.61781 207.04248 198.94553 185.62388 178.73907 180.47741 176.46429 171.69856 168.24341 164.21439 170.95689 175.82613 183.31058 194.87167 200.96611 209.89140 203.65680 210.95071 214.52236 215.64910 220.20148 227.80266 231.68436 232.59490 228.50004 222.37438 204.21199 191.99236 181.53401 161.53391 153.10011 143.23910 131.13817 125.87408 120.68092 116.01278 112.21932 109.09168 107.09352 105.68140 104.34989 103.77538 103.09725 102.65508 102.37607 102.20242 101.97951 101.86822 101.68908 101.59025 101.53074 101.46433 101.39658 101.33704 101.28164 101.23269 101.19429 101.16839 101.12411 101.10792 101.09056 101.07366 101.05585 101.04759 101.03544 101.02619 101.02408
100.99766 100.99766 101.00872 101.01777 101.03065 101.04064 101.05846 101.07014 101.08269 101.11295 101.13335 101.16797 101.20644 101.24058 101.30302 101.37736 101.46580 101.59225 101.71194 101.94601 102.14449 102.46440 102.77166 103.26584 104.00744 104.70724 105.66490 106.73973 108.02512 111.03581 112.72785 115.46167 119.11965 123.66086 127.68762 134.83316 140.80829 148.03868 159.21262 168.28760 186.46925 192.12666 205.40109 217.60668 228.88965 250.89876 265.47868 276.19421 290.76383 294.50614 289.73070 281.75538 275.84406 260.11949 248.91646 239.02625 228.56744 224.70719 209.01152 199.04287 192.65145 189.54925 186.65555 181.46112 179.10745 178.43412 179.39510 187.80883 198.90919 210.64110 214.97907 220.26549 227.66986 224.95083 229.44454 232.02393 234.26163 234.92104 236.50495 233.64710 225.06760 218.66438 205.50501 192.26678 182.03487 158.66672 154.90212 140.10443 132.60708 124.75152 119.97554 115.52238 112.48861 109.10023 107.09618 105.61439 104.31477 103.54016 102.92281 102.55720 102.25582 102.07325 101.84920 101.75807 101.62910 101.52462 101.45359 101.39918 101.32867 101.29244 101.25599 101.20907 101.18934 101.15112 101.12346 101.10541 101.08862 101.06861 101.05704 101.04872 101.03595 101.02289 101.02284
100.99748 100.99748 101.00768 101.01960 101.03221 101.04241 101.05931 101.06726 101.09691 101.12638 101.14556 101.18543 101.22699 101.26843 101.33966 101.41400 101.48382 101.61432 101.76613 101.95979 102.09619 102.47111 102.81034 103.31400 103.85751 104.54686 105.43089 106.60012 108.13450 109.78093 112.18961 114.82000 118.52636 121.89571 126.83382 131.92967 138.34557 146.11795 153.38390 159.95624 167.08313 183.88817 193.05070 209.12228 221.07047 236.33851 256.19932 272.40317 283.09715 292.61795 294.09767 289.72894 284.20365 273.87824 262.43854 252.24743 246.65162 235.32864 225.54009 213.74842 209.75278 197.62245 199.74945 199.26111 196.55028 197.45975 196.71644 199.75792 210.09362 218.81803 234.41398 239.48064 239.89293 247.82223 243.92076 244.66907 244.13701 244.36227 239.39064 234.90445 222.78497 213.80699 198.44480 185.77429 173.99860 160.65585 149.92589 140.34471 133.36491 124.29166 119.41783 115.08738 112.26735 109.12075 106.58113 105.65608 104.59486 103.65676 102.96750 102.64536 102.36512 102.15087 101.96827 101.77084 101.64499 101.55988 101.47669 101.38767 101.29919 101.25300 101.20986 101.17776 101.15347 101.13661 101.11178 101.09348 101.07999 101.06900 101.05575 101.04628 101.03462 101.02378 101.02378
100.99553 100.99579 101.00717 101.01512 101.02966 101.04497 101.05871 101.07775 101.09457 101.11929 101.15524 101.19865 101.23156 101.27941 101.35040 101.40531 101.50851 101.59373 101.71815 101.97314 102.10089 102.44244 102.65938 103.10106 103.64717 104.30978 105.35497 106.50977 107.55494 109.46708 111.63725 114.26747 118.05847 120.69699 125.05598 131.08233 134.30567 141.21888 146.42824 156.19024 158.69144 170.32901 181.31980 187.72210 209.34914 227.36090 237.98852 259.46020 279.76422 289.60536 296.89071 295.89163 290.37881 284.08246 282.41819 266.66447 256.07040 246.73147 234.55148 228.35895 222.49748 225.84752 218.32102 211.84287 207.99386 208.59036 208.71887 212.79944 232.98810 240.31057 249.36392 255.82029 254.72424 255.00612 256.01454 254.45611 250.22215 245.67639 236.25965 227.58240 212.49952 205.24467 193.15752 179.22085 167.87241 156.04989 145.00473 138.60187 129.16584 124.34825 118.11246 115.11991 111.26355 108.57222 107.09138 105.49843 104.73363 103.73068 103.17793 102.74438 102.43735 102.22285 102.02325 101.88739 101.72297 101.61028 101.52192 101.40650 101.34363 101.26266 101.22379 101.16671 101.13745 101.11533 101.10546 101.08578 101.07387 101.06754 101.05630 101.04701 101.03459 101.02390 101.02390
100.99794 100.99817 101.00955 101.01734 101.02999 101.03834 101.05608 101.07796 101.08755 101.13873 101.14782 101.16860 101.22547 101.26266 101.31838 101.40183 101.46088 101.55094 101.67049 101.84286 101.97074 102.21348 102.54229 102.91795 103.55643 104.33324 105.01402 106.27637 107.50491 109.69915 111.42685 113.27137 116.43659 120.80035 123.77148 126.27119 131.18514 135.25953 141.44159 144.15707 150.64686 160.44328 165.15025 176.68188 192.14072 216.10485 231.59371 250.72519 272.26520 285.07232 298.54669 302.31804 300.66401 296.37564 288.18799 280.47764 265.57915 259.54405 254.29709 243.99038 244.71502 238.50001 233.50340 231.28264 228.56798 223.64764 224.60440 232.89944 242.21718 252.59204 257.89948 269.86427 270.91776 267.74876 265.67967 258.51886 247.44852 240.93246 230.01092 221.88885 205.76066 194.01471 183.87565 167.14068 160.39702 151.12028 138.68783 133.24449 126.57822 122.80293 117.79652 113.91396 110.77875 108.57039 106.64655 105.51465 104.66168 103.65526 103.18038 102.75681 102.48922 102.29381 102.12359 101.92680 101.82299 101.64955 101.56009 101.47742 101.38300 101.30867 101.24289 101.18572 101.15215 101.11696 101.09840 101.08404 101.07591 101.06582 101.05864 101.05021 101.03530 101.02481 101.02481
100.99686 100.99695 101.01012 101.01830 101.02965 101.04020 101.05444 101.07435 101.09138 101.11649 101.13627 101.16935 101.20690 101.25066 101.28056 101.37322 101.42605 101.48431 101.56177 101.73987 101.98868 102.19927 102.48592 103.07659 103.46905 104.59229 105.15153 106.15221 107.68481 109.49749 111.60591 113.38982 116.39680 119.19761 121.71962 124.13942 126.46615 130.89393 132.11543 137.45093 141.44590 146.12584 158.81162 166.88172 181.96531 196.00878 222.72223 240.12398 267.31859 280.31572 297.32555 304.72736 308.24410 307.23665 299.95554 292.93597 281.23129 271.59955 260.42645 262.36554 257.45348 252.83823 251.92935 242.87088 239.46094 236.97350 238.90533 247.56976 252.93879 267.26451 276.63296 280.18587 280.18277 275.74845 269.24297 256.49899 247.97735 232.62325 221.82305 207.64820 193.93758 183.80091 173.97528 164.54575 152.54540 143.07844 138.55423 129.26178 124.72036 118.92105 114.98660 113.44891 110.04633 108.11661 106.68052 105.38327 104.56815 103.61265 103.06143 102.73786 102.44953 102.30340 102.12050 101.95470 101.84676 101.70417 101.61688 101.49498 101.41039 101.34529 101.26045 101.22146 101.16331 101.13454 101.10816 101.09160 101.07691 101.06732 101.05877 101.04708 101.03436 101.02730 101.02730
100.99941 100.99941 101.01163 101.01964 101.02955 101.04143 101.05437 101.06652 101.08563 101.10103 101.12532 101.14601 101.17072 101.22222 101.27063 101.30907 101.37766 101.43966 101.59125 101.86770 102.02847 102.32025 102.79945 103.38276 103.87127 104.68372 105.29892 106.66649 108.08767 110.19493 111.50740 114.18174 115.91297 118.06526 119.22351 120.98496 122.92881 124.87867 127.70172 128.92700 133.88508 140.04689 147.74128 160.18126 175.48299 190.69344 210.27986 229.31274 253.76600 274.31673 287.16188 304.70763 310.33634 310.52836 306.88273 298.15430 294.07795 285.88474 278.76296 278.90874 272.45423 267.60100 260.82475 263.21966 255.68486 256.14625 257.98047 259.51455 270.81077 277.95228 282.48226 285.34559 282.81631 275.55685 267.83508 244.15211 237.46891 222.39045 208.42689 195.81440 184.27915 174.13778 162.44547 155.29597 147.57882 137.52615 131.22007 126.22198 121.05292 117.27408 114.02661 111.45105 110.00002 107.89623 106.28512 105.50115 104.35176 103.49000 103.15664 102.63147 102.42335 102.21613 102.08887 101.93805 101.84359 101.73309 101.64666 101.51900 101.43758 101.35062 101.29457 101.22228 101.19498 101.14321 101.11454 101.09467 101.08010 101.06580 101.05899 101.04700 101.03399 101.02552 101.02521
101.00438 101.00438 101.01141 101.02082 101.03047 101.03900 101.04706 101.05676 101.06831 101.08814 101.10035 101.12446 101.14682 101.18093 101.22706 101.28189 101.38679 101.45249 101.73341 101.86903 102.19059 102.61027 102.87424 103.46634 104.33711 105.00577 106.07787 107.30001 108.51600 110.23803 112.27690 113.44193 115.22422 115.93032 116.20830 118.43692 119.31520 120.34501 123.01294 124.73113 126.83200 136.57177 144.85280 155.31458 171.90677 187.00359 208.38142 224.73396 244.29492 270.18122 285.38734 295.15707 309.35788 311.34017 309.90071 303.11956 298.15353 295.74151 287.45072 284.86695 280.19702 276.14520 274.66831 270.06786 265.20513 266.54936 267.90295 274.47226 280.98263 283.90920 287.59868 285.15088 278.44512 270.07620 255.87560 245.20905 229.41671 215.67578 196.41044 188.83679 172.05285 159.69370 151.77998 142.68447 138.78060 129.65630 126.23097 123.56090 120.20294 115.95906 113.12536 110.88207 109.18683 108.14256 106.22023 105.54944 104.60614 103.82652 103.49783 102.79786 102.52831 102.19631 101.97992 101.85894 101.79761 101.68211 101.60062 101.49487 101.43063 101.31226 101.28362 101.22065 101.19244 101.14507 101.11815 101.09951 101.08433 101.06951 101.05563 101.04561 101.03640 101.02549 101.02518
101.00020 101.00020 101.01169 101.02147 101.03323 101.03874 101.04674 101.05711 101.06500 101.07979 101.09079 101.11484 101.16172 101.19823 101.23673 101.31570 101.43633 101.57971 101.77094 101.97085 102.35918 102.64493 103.33401 103.80307 104.31968 105.30196 106.51673 107.90553 108.72693 110.34226 111.90051 112.50550 113.47231 114.47583 114.91470 115.70565 116.75918 117.87012 117.66440 122.03456 125.76091 132.29072 140.04385 153.23535 170.39258 183.59186 196.13689 223.24704 237.38774 257.42200 278.60548 293.82961 301.42665 308.62022 308.55769 302.99797 299.35229 294.98369 290.47198 286.13942 282.96710 280.83137 278.54085 275.38895 276.28070 278.65162 280.20395 281.11853 284.78286 286.12844 283.32544 281.60566 269.88319 258.53048 249.81429 234.87376 213.71983 207.01780 181.67331 173.76327 162.78614 155.72028 146.78210 137.90901 133.20142 128.01732 122.77998 119.46057 117.62507 115.30367 113.03234 111.07840 109.66070 108.18334 107.10654 105.80552 104.97940 104.16070 103.61766 102.77449 102.46038 102.19537 101.94367 101.73881 101.68291 101.57654 101.52027 101.44822 101.38486 101.31541 101.26941 101.21486 101.18678 101.14373 101.11720 101.10196 101.08370 101.06814 101.05936 101.04760 101.03875 101.02629 101.02600
100.99902 101.00839 101.01480 101.02456 101.03091 101.03842 101.04983 101.06087 101.07594 101.08763 101.10382 101.13158 101.16776 101.20409 101.27017 101.36343 101.45929 101.60686 101.82130 102.00349 102.39157 102.64943 103.34491 104.01173 104.39049 105.53113 106.75727 107.53258 108.81418 109.59041 110.77087 111.23557 112.13006 112.23594 112.37854 112.88361 113.24210 114.82253 115.41578 119.10852 124.24287 132.22091 141.54423 150.30985 165.25323 180.94348 194.13377 216.07008 236.40544 258.21429 270.50876 285.26874 292.73924 293.66117 298.41720 296.13545 294.63117 291.07439 284.66835 283.95717 277.38668 275.76279 272.73379 275.41417 276.17340 278.12801 281.58760 282.63449 281.79584 282.11564 277.66518 267.68501 255.53182 247.43475 228.58462 224.07266 208.11918 195.32124 178.61977 166.28208 154.54422 146.59064 140.12776 131.77453 128.20498 124.04175 120.51919 117.24111 115.59349 113.91678 112.80400 110.93680 109.97460 108.58756 107.52430 106.57537 105.48625 104.61745 103.71024 103.12597 102.61638 102.28448 101.88039 101.75543 101.57617 101.48574 101.44707 101.38810 101.31063 101.26614 101.23033 101.20342 101.15541 101.13613 101.12275 101.09534 101.08168 101.07311 101.05893 101.05027 101.03979 101.03091 101.03075
101.00362 101.00362 101.01182 101.02285 101.02940 101.04052 101.05349 101.06449 101.07724 101.09337 101.11154 101.13820 101.17754 101.21187 101.28548 101.37095 101.47659 101.61161 101.83961 102.03431 102.35838 102.71247 103.29434 103.89281 104.54514 105.36623 106.33871 107.23216 108.06258 108.63231 109.11539 110.12614 109.90522 109.78320 110.21836 110.40852 110.88906 112.73923 115.08303 119.74608 125.87070 130.32583 139.08059 149.70651 160.93802 175.51361 198.11026 208.96490 229.84438 246.70217 257.50311 268.66508 277.35979 284.37751 282.90113 284.26134 280.77916 269.29409 272.37033 258.63832 264.72389 260.31574 263.50295 264.74455 268.17463 269.82742 272.31482 276.35088 272.10212 268.93111 261.86932 254.74351 244.97016 232.99761 220.84979 207.04863 191.35185 190.63308 172.13539 159.30549 149.59961 140.26226 131.94432 127.94842 122.52509 120.06035 117.57062 115.19111 114.04511 112.40896 111.85728 110.94126 110.12313 109.00259 108.03464 106.74326 105.59921 104.69208 104.05269 103.26850 102.78568 102.33607 101.99563 101.75321 101.55913 101.42411 101.37081 101.28746 101.26049 101.22559 101.19968 101.16067 101.15066 101.12403 101.11276 101.09590 101.08346 101.06802 101.06115 101.05122 101.04234 101.03766 101.03098
100.99913 100.99921 101.00949 101.02106 101.02851 101.04210 101.05030 101.06421 101.08050 101.09972 101.11330 101.14138 101.18543 101.23369 101.27202 101.35541 101.48765 101.59600 101.74723 101.97517 102.21175 102.74940 103.15487 103.73035 104.14153 105.27839 105.68254 105.90392 106.59593 107.30771 107.92894 107.63280 107.89567 108.45897 108.42394 109.41102 110.70502 113.22292 116.53116 119.01450 126.12020 128.59948 141.35121 150.22679 159.49165 177.43901 193.80102 206.09786 223.62639 231.82261 246.48184 251.03331 256.27078 267.19334 265.13184 269.01966 263.29843 260.68778 253.42739 248.15842 243.41222 245.25631 243.24076 249.66477 255.08182 256.63237 261.25258 260.95882 255.50178 251.23317 251.53295 241.52317 227.37629 219.84129 202.32421 198.59767 183.07521 173.77778 165.30805 151.73096 143.90382 136.44653 128.51731 123.67822 119.83103 116.63041 115.43743 112.98033 111.88827 111.35453 110.68043 110.00987 109.38496 108.83074 107.84647 107.03462 105.78061 104.92889 104.27315 103.18359 102.84300 102.41209 102.14429 101.79479 101.55096 101.44378 101.38328 101.28316 101.22657 101.19553 101.15772 101.14500 101.12070 101.11341 101.10288 101.09123 101.08154 101.07005 101.06073 101.05363 101.04248 101.03752 101.02798
100.99980 100.99980 101.01081 101.01820 101.02843 101.04361 101.05190 101.06238 101.08022 101.10114 101.11865 101.14624 101.17234 101.22334 101.26642 101.35664 101.42118 101.54826 101.68909 101.91072 102.16974 102.51828 102.87796 103.33235 103.70785 104.74621 105.01510 105.34904 105.53229 105.51610 105.88792 106.06547 106.18375 106.76190 107.44989 109.17718 111.34479 113.84044 117.69072 121.01347 125.24520 132.85983 141.86925 150.71393 159.11578 171.05422 184.65950 193.04501 208.76101 218.11235 230.79787 235.35757 240.22754 243.39768 245.14005 248.01361 247.64478 234.06249 229.04453 225.34020 221.42595 220.46257 224.50241 225.81780 234.24668 242.63697 248.38505 245.82877 241.53286 237.57535 230.39807 228.07737 212.78945 192.29091 189.63089 178.39844 171.14951 162.07556 159.04766 148.16223 141.18396 132.03938 127.03374 121.96346 117.25797 114.01118 112.21258 111.02244 110.14290 109.53470 109.44786 108.89406 108.82321 107.98638 107.18602 106.60269 105.61870 104.91275 104.18588 103.36169 102.95937 102.38495 102.17088 101.80315 101.64755 101.47262 101.39865 101.30178 101.24322 101.19691 101.16545 101.14830 101.12397 101.10599 101.09842 101.08706 101.07826 101.06855 101.05815 101.05167 101.04064 101.03326 101.02739
100.99614 100.99628 101.01027 101.01887 101.02838 101.03901 101.05064 101.05569 101.07770 101.09115 101.11396 101.12887 101.16628 101.19834 101.24584 101.28405 101.40013 101.49263 101.65771 101.81081 102.07358 102.24600 102.70178 103.01522 103.39035 103.62493 104.08580 104.35588 104.46226 104.68860 104.92713 104.87617 105.55971 106.10562 107.59719 108.78974 112.93020 114.45748 117.47469 122.02388 126.71896 132.66677 139.38666 147.99504 157.71591 164.57832 180.49574 188.41748 199.26943 207.19163 206.83555 222.43874 220.75788 226.55414 228.01634 224.42775 221.12874 218.76576 210.57317 199.20430 199.58895 196.82626 201.77020 211.18440 220.61398 225.19828 224.74410 223.14593 221.92821 218.83316 215.43259 205.07155 195.99065 189.28993 176.25339 167.65499 160.03792 154.37546 149.80273 143.37931 136.58056 130.45139 126.63097 120.20469 116.86443 113.58450 111.48891 109.55954 108.55770 108.26358 107.64519 107.85029 107.70654 106.97434 106.41506 105.83077 105.37841 104.59644 103.76949 103.35477 102.73573 102.36899 102.13212 101.87292 101.64945 101.51476 101.40343 101.32433 101.25420 101.22187 101.18069 101.15973 101.13363 101.11581 101.10336 101.08537 101.07613 101.06642 101.05992 101.04831 101.03954 101.03309 101.02355
101.00196 101.00205 101.01096 101.02021 101.02941 101.03757 101.04945 101.05778 101.07212 101.08542 101.10236 101.12420 101.14750 101.17878 101.21805 101.27104 101.32948 101.40979 101.59413 101.69979 101.87605 102.12287 102.24235 102.66054 102.83161 103.11023 103.27015 103.36646 103.45683 103.73398 103.71442 104.43884 105.17579 106.65152 107.98945 109.30167 112.32425 115.56639 117.74418 121.57894 126.29624 131.06831 138.20930 142.44102 151.48431 162.09147 171.54381 181.33309 189.73940 193.34300 197.58696 195.41843 200.83977 205.93083 210.21370 215.01861 205.51977 195.01505 187.86049 183.20599 185.25927 179.68471 182.20933 188.21575 200.78868 204.27685 207.30498 209.04529 202.55487 201.99248 196.37637 190.60076 181.50972 174.79753 166.29741 160.43616 147.86804 144.37048 142.06163 136.16685 133.70716 127.40119 124.97694 120.58927 117.48874 114.14095 111.58506 109.24299 108.18524 106.67025 106.59836 106.54550 106.42793 105.93882 105.72941 105.04433 104.81992 104.09386 103.44082 103.11159 102.66586 102.33194 102.10004 101.90019 101.64468 101.56096 101.41447 101.33752 101.26275 101.23160 101.19095 101.16219 101.13336 101.11988 101.10276 101.08732 101.07795 101.06473 101.05841 101.04701 101.03874 101.03205 101.02251
100.99830 101.00803 101.01369 101.02128 101.02633 101.03875 101.04582 101.05373 101.06547 101.07993 101.09254 101.11438 101.13872 101.16650 101.19194 101.25738 101.31371 101.37476 101.51856 101.61279 101.78523 101.90911 102.06564 102.26289 102.36911 102.52333 102.77171 102.71454 102.82045 102.92764 103.52727 104.56527 105.43375 106.68992 108.81453 110.23295 112.14248 115.30169 116.62447 119.32939 124.03565 128.81222 132.16374 140.09318 147.12922 157.42349 162.13242 171.04550 173.37578 177.46517 180.48410 181.93082 185.15437 184.42290 191.43236 191.86488 189.30274 181.03408 171.19645 164.85493 167.09772 166.56915 164.51649 173.98267 178.70266 182.23011 190.86717 190.71604 187.45120 176.81790 176.83718 174.46233 170.75614 164.71767 161.24619 147.17557 140.13281 136.77259 134.19106 133.12171 128.83878 126.58507 121.90781 119.04151 115.51594 113.52673 111.06011 109.46881 107.87782 106.30983 105.36140 105.39186 105.20297 105.25014 104.96247 104.59648 104.04635 103.52531 103.41167 102.84424 102.55682 102.19757 102.01086 101.73871 101.66593 101.49423 101.40858 101.34135 101.27212 101.23382 101.19405 101.17021 101.14202 101.12754 101.09740 101.08877 101.07170 101.06291 101.05502 101.04574 101.03544 101.02843 101.02281
100.99835 101.00808 101.01498 101.02348 101.02894 101.03703 101.04361 101.05247 101.06119 101.07450 101.08956 101.11011 101.13654 101.16530 101.19280 101.21858 101.29865 101.35090 101.46615 101.55294 101.63499 101.75006 101.89648 101.93848 102.03819 102.15957 102.18988 102.21058 102.36093 102.63372 103.60512 104.52290 105.29566 106.74795 108.62878 110.14442 112.69936 114.26107 116.45839 119.03346 120.67635 125.29009 129.32068 136.58600 142.39723 147.31403 154.26172 159.10970 165.18753 166.40060 168.76858 169.93577 168.51160 173.74703 176.02279 177.54618 171.76591 170.08655 159.70873 150.04184 152.54204 153.45516 151.76620 159.41222 165.40153 171.72035 175.90094 177.14900 174.15510 171.41004 165.67731 165.47779 153.59690 153.55661 141.17155 138.48989 136.37527 129.98319 127.95851 126.06080 124.62196 121.76748 119.81070 116.83331 115.00401 112.55105 110.54410 108.52861 107.42126 106.33169 105.06502 104.53390 104.22407 104.01095 104.17090 103.65836 103.57115 103.26000 102.91694 102.54384 102.32198 102.06824 101.84099 101.72075 101.56503 101.47156 101.37310 101.33635 101.25019 101.23129 101.18177 101.16544 101.14148 101.12574 101.10159 101.08767 101.07081 101.05876 101.05031 101.04251 101.03145 101.02157 101.01578
100.99996 101.00969 101.01659 101.02128 101.02969 101.03555 101.04331 101.05132 101.06242 101.07808 101.08799 101.11098 101.13135 101.15426 101.18805 101.22603 101.27468 101.32943 101.40642 101.48109 101.54744 101.59407 101.67543 101.73700 101.81918 101.81478 101.86059 102.05642 102.29983 102.85692 103.77944 104.00413 105.58293 106.36309 108.11476 109.84514 111.94058 113.16539 114.15267 116.88225 118.79662 123.14064 126.08309 129.29520 136.89523 139.95534 148.10556 148.86918 154.38513 154.38149 155.58419 155.53969 155.26245 163.01010 164.47561 164.31967 162.52120 154.37832 147.42954 142.71440 141.16374 141.27943 141.63143 146.48568 157.20736 162.29567 163.25590 166.65113 163.47683 155.76533 150.20325 148.51437 146.59428 144.83005 139.51617 135.97447 131.80965 126.88157 123.51294 122.36071 121.01600 119.44692 117.65520 115.26825 112.55700 111.69292 109.82314 108.62093 107.41323 105.94576 105.03683 104.00481 103.66448 103.47146 103.37087 103.20431 102.96254 102.75549 102.53449 102.30700 102.06912 101.91854 101.75287 101.60183 101.50563 101.41648 101.36885 101.29526 101.24539 101.20632 101.17594 101.15024 101.13022 101.11464 101.09612 101.08435 101.06969 101.05939 101.05285 101.04169 101.03144 101.01674 101.01674
101.00238 101.01211 101.01692 101.02218 101.03149 101.03720 101.04699 101.05824 101.06532 101.08012 101.09274 101.10693 101.12978 101.14881 101.18231 101.21672 101.25540 101.30911 101.34972 101.41378 101.44393 101.49317 101.56349 101.57646 101.59375 101.63383 101.75929 102.00475 102.38876 102.69758 103.56192 104.01454 105.35273 106.25321 107.66865 108.62837 109.67497 111.45875 112.86265 113.56318 116.19520 119.01083 121.25070 126.72725 130.61129 134.45550 138.30082 141.54703 142.79440 145.63044 145.16966 143.99358 148.44479 153.51607 151.42403 153.07198 151.03978 145.08869 137.22195 130.88762 132.81852 132.28480 135.66414 139.69263 143.48746 151.65944 152.76996 153.34703 149.60244 145.31429 142.44472 136.95929 137.38474 136.87935 132.52663 130.79438 124.68463 120.92188 118.21896 117.96214 117.29587 115.53606 114.64626 112.47007 112.14429 110.09883 108.78086 107.92912 106.60871 105.63135 104.85940 104.08389 103.08828 102.85297 102.81346 102.60242 102.57618 102.45526 102.24629 102.07734 101.92283 101.74345 101.62028 101.52757 101.45445 101.36048 101.32480 101.27304 101.23157 101.20433 101.17041 101.15296 101.12782 101.11024 101.09518 101.08408 101.07028 101.05936 101.05293 101.04051 101.03302 101.02058 101.02058
101.00423 101.01372 101.01793 101.02568 101.03406 101.04010 101.04918 101.06086 101.06937 101.07726 101.09882 101.11540 101.13197 101.15809 101.18415 101.21372 101.24838 101.28731 101.32024 101.33439 101.37280 101.40107 101.38878 101.42165 101.54215 101.68705 101.86193 102.04269 102.44173 102.73981 103.42017 104.01928 104.89019 105.73633 106.75099 107.86985 108.86120 109.49823 110.72962 112.08770 113.93331 116.31211 118.41256 121.99530 125.74726 129.23436 132.55382 133.23487 137.30118 135.61109 136.21862 137.03376 140.60750 144.77052 146.70781 146.14561 141.63747 136.08761 131.08473 125.19580 124.91640 123.92333 126.35661 132.96402 138.22819 141.86916 146.55378 146.16749 143.76169 140.53772 133.80577 130.64769 130.88667 129.58019 127.47261 127.26871 123.43042 119.27308 116.38543 113.81018 113.33960 113.64278 112.35503 111.61340 110.02265 108.73858 107.80211 107.22953 106.11519 105.21990 104.27753 103.73838 103.15319 102.66958 102.32496 102.23528 102.22272 102.08797 102.01992 101.92460 101.79904 101.66939 101.55661 101.47651 101.40884 101.33572 101.29278 101.25844 101.22456 101.19655 101.16486 101.14508 101.12292 101.10969 101.09838 101.07951 101.07042 101.05927 101.05066 101.04349 101.03445 101.02898 101.01994
101.00399 101.01366 101.01884 101.02700 101.03179 101.04010 101.05242 101.05993 101.07111 101.08361 101.09741 101.11173 101.12931 101.15475 101.17613 101.19815 101.22533 101.25458 101.27443 101.29528 101.30222 101.31245 101.39388 101.45820 101.56660 101.68023 101.86626 102.09737 102.41176 102.72286 103.21708 103.71932 104.59840 105.24384 105.97782 106.64979 107.15812 107.91146 108.52302 110.45840 111.37743 114.40288 115.60811 117.90874 122.79669 122.71919 125.85409 128.33118 129.88479 128.41433 128.92486 129.66380 133.89686 137.49878 140.39943 138.51424 135.70185 130.32706 126.16563 121.72629 118.45090 121.31517 124.97787 128.80253 133.20965 138.75852 136.20721 138.03487 136.39270 134.72805 127.27342 124.81150 123.74893 125.18238 123.58002 120.95751 119.00558 116.63137 114.61672 111.84679 110.85993 110.39183 109.18680 108.58000 108.54750 107.60441 107.10666 106.18773 105.53001 104.77174 103.71628 103.59719 103.07249 102.67341 102.26771 102.04859 101.98527 101.88448 101.81185 101.75598 101.69183 101.59719 101.49507 101.45643 101.36298 101.30597 101.25544 101.23538 101.21381 101.18493 101.15638 101.14025 101.11963 101.10724 101.09583 101.07921 101.07288 101.06134 101.05339 101.04393 101.03413 101.02731 101.01827
100.99951 101.00918 101.01701 101.02294 101.03488 101.04204 101.04968 101.06164 101.07142 101.08071 101.09348 101.10753 101.12696 101.14162 101.15967 101.18521 101.19926 101.21600 101.23368 101.24688 101.24864 101.30986 101.39208 101.48595 101.60093 101.69705 101.83949 102.02999 102.28760 102.49395 102.99808 103.37649 104.10627 104.69234 105.19264 105.72581 106.15696 106.80861 107.23009 108.33162 109.45514 111.48457 111.70968 113.12577 116.62489 120.46910 121.87855 124.65703 123.08612 124.80011 124.66240 127.50364 129.52830 133.11355 134.37106 133.95267 129.04963 125.91214 121.39402 116.27302 115.73768 117.43091 120.39767 124.10259 125.72972 129.93037 130.99393 132.18506 128.74391 127.63600 124.94058 121.94156 119.30755 119.50697 118.48695 117.66225 116.86208 114.93123 114.03438 110.55025 109.13273 108.40525 108.22173 107.17222 106.59508 105.96546 105.50850 105.03600 104.75149 104.33092 103.71448 103.32000 102.98209 102.53769 102.25679 101.97062 101.72331 101.67239 101.62792 101.60080 101.58202 101.55643 101.48178 101.40287 101.36514 101.29524 101.25817 101.21519 101.19368 101.17332 101.15551 101.13221 101.11649 101.09945 101.08784 101.07922 101.07166 101.06161 101.05416 101.04561 101.03095 101.02090 101.02090
101.00124 101.01091 101.01487 101.02066 101.03286 101.04192 101.04920 101.05960 101.06648 101.07763 101.08842 101.10374 101.11775 101.12884 101.14062 101.15819 101.17542 101.19042 101.19574 101.21519 101.25689 101.34962 101.38716 101.48299 101.55154 101.70185 101.77909 101.99935 102.17322 102.48731 102.73627 103.23570 103.58867 104.05333 104.50336 104.56440 104.92136 105.35113 106.14528 107.01715 107.84026 109.09401 110.69371 111.60750 113.72300 114.69444 116.82546 118.97773 119.42816 119.31572 118.44053 121.08389 125.97332 128.05801 128.93857 127.85885 124.95627 121.72391 118.13723 115.32843 113.42035 114.02473 117.21422 120.35869 122.26126 123.54996 126.92084 126.03760 124.63752 123.27179 120.60877 117.77070 116.31048 115.54057 115.39105 114.39109 113.67869 112.62872 111.30800 109.12116 107.70805 107.45332 106.86327 106.27758 105.50894 105.02187 104.63843 104.30056 103.91359 103.67208 103.32405 102.97499 102.68521 102.43624 102.15830 101.85333 101.75827 101.60609 101.53656 101.51423 101.49560 101.46857 101.43044 101.39309 101.35109 101.28573 101.25020 101.21955 101.19845 101.16620 101.14886 101.12885 101.11926 101.10118 101.08919 101.07653 101.06870 101.06122 101.05171 101.04403 101.03306 101.02475 101.02475
101.00485 101.00485 101.01249 101.01957 101.03087 101.04160 101.04765 101.05790 101.06296 101.06852 101.08366 101.09303 101.10813 101.11553 101.12183 101.13520 101.14177 101.17184 101.20252 101.23837 101.29164 101.34165 101.41248 101.46842 101.55548 101.64659 101.75210 101.89725 102.08182 102.32228 102.53415 102.77456 103.15583 103.29854 103.62125 103.70732 104.11276 104.56809 105.50267 105.66114 106.22150 107.43323 108.02646 108.99900 111.07221 111.79142 113.57696 114.70795 115.32228 114.56481 115.50666 118.50243 121.19700 123.52068 124.25588 122.64729 121.65799 118.70567 116.34934 113.26866 110.65149 112.89644 114.00765 116.43458 121.10639 120.65317 121.79181 121.59798 120.54298 119.70273 117.20319 114.96116 113.31558 111.72316 111.85664 112.06520 111.77505 111.06245 109.84870 108.24568 107.62712 105.88854 104.86991 104.89642 104.49103 104.30046 103.93078 103.50830 103.36853 103.15499 102.90195 102.73079 102.51420 102.29688 102.12660 101.92804 101.74591 101.62624 101.50461 101.44332 101.42383 101.41825 101.38700 101.34565 101.32994 101.28338 101.25046 101.21604 101.19470 101.17224 101.15136 101.13263 101.11832 101.10626 101.09015 101.07957 101.06815 101.06202 101.05191 101.04442 101.03367 101.02499 101.02435
100.99707 100.99710 101.01045 101.01829 101.03058 101.03767 101.04520 101.05587 101.06055 101.07024 101.07847 101.08878 101.09320 101.10697 101.11498 101.12713 101.14703 101.17409 101.20699 101.25021 101.30315 101.34634 101.40087 101.47677 101.50724 101.59809 101.68459 101.83905 102.01861 102.19658 102.33895 102.49765 102.69217 102.77414 103.11699 103.18700 103.54457 103.93344 104.44816 104.62903 105.32974 106.00572 106.82463 107.88026 109.28162 110.23640 111.04176 112.28670 113.04759 112.17145 112.98418 116.75946 118.85591 120.13603 120.84846 119.31444 117.96132 114.55691 112.59460 109.73987 109.30124 110.18733 112.79042 114.52474 116.83409 118.99288 119.41342 118.09062 116.46221 115.24274 113.98363 112.67443 111.34942 110.20798 109.42897 109.71824 109.58234 109.47245 108.44809 107.63809 106.64269 105.18112 104.50068 104.14697 103.86183 103.55992 103.50192 103.23556 102.87711 102.68443 102.53173 102.38450 102.30587 102.15497 102.01830 101.86640 101.75831 101.61808 101.51785 101.42448 101.37414 101.34732 101.35161 101.32820 101.30241 101.27143 101.23982 101.21551 101.19607 101.17275 101.15093 101.13858 101.12035 101.10778 101.09304 101.07890 101.06967 101.06247 101.05361 101.04408 101.03354 101.02437 101.02373
100.99879 100.99879 101.01034 101.01777 101.02768 101.03717 101.04467 101.05455 101.06417 101.07317 101.08088 101.09224 101.09974 101.10887 101.12919 101.15350 101.16511 101.18647 101.21397 101.26144 101.29939 101.33300 101.38041 101.43557 101.47549 101.55206 101.64547 101.76716 101.89712 101.98527 102.17046 102.25754 102.44193 102.45097 102.68536 102.87777 103.17958 103.45127 103.65874 103.91106 104.39356 105.03572 105.81323 106.33405 107.68408 108.55122 108.88211 109.47931 109.51382 109.45562 110.50700 113.32383 115.29475 116.24730 116.14724 115.18257 115.02346 112.22767 110.72861 108.94158 107.75644 108.97715 111.01210 112.06370 114.97813 115.78788 115.96143 115.56651 114.02027 113.59585 111.63122 109.91242 109.38370 107.49894 107.50167 108.34051 108.29669 107.68311 107.49666 107.05938 105.81711 105.07955 104.32252 103.42094 103.22446 103.26243 102.87740 102.83263 102.58219 102.42154 102.22839 102.11773 102.06261 101.91165 101.90568 101.78576 101.68978 101.56788 101.48471 101.42114 101.36001 101.31672 101.31347 101.30252 101.27562 101.24538 101.22645 101.20815 101.18617 101.16931 101.14885 101.13262 101.11938 101.10421 101.09347 101.08075 101.06995 101.06230 101.05181 101.04584 101.03355 101.02187 101.02124
100.99726 100.99726 101.01062 101.01834 101.02801 101.03759 101.04429 101.05475 101.06555 101.07465 101.08118 101.09403 101.10506 101.11718 101.13809 101.15213 101.17729 101.19639 101.23021 101.25711 101.29560 101.33760 101.36931 101.40573 101.44568 101.51272 101.60075 101.68751 101.84441 101.90060 101.96028 102.03943 102.05367 102.24177 102.40280 102.65118 102.85955 103.06618 103.05091 103.30625 103.72587 104.43325 104.76088 105.43876 105.89612 106.91054 107.37351 107.53296 107.98663 108.01444 109.03311 111.53226 113.09047 113.52990 113.61925 112.56265 111.69598 110.09604 108.72282 107.76415 106.63276 108.15948 110.08413 111.26554 112.62559 114.00462 114.26118 113.49390 112.09810 111.44368 108.95821 108.30785 107.60190 106.82696 105.98479 106.30567 106.68161 106.49357 106.50391 106.13553 105.66977 104.82035 104.19000 103.39357 102.72743 102.52279 102.49049 102.38217 102.20373 102.13516 101.98603 101.88480 101.80651 101.82812 101.75611 101.67858 101.60986 101.53966 101.47855 101.40893 101.36227 101.30231 101.28386 101.27870 101.23890 101.22645 101.20623 101.18841 101.17315 101.15463 101.14329 101.12382 101.11433 101.10113 101.08720 101.07928 101.06692 101.06170 101.05119 101.04524 101.03325 101.02184 101.02120
100.99546 101.00484 101.01263 101.02166 101.03065 101.03601 101.04565 101.05455 101.06197 101.07209 101.08373 101.09503 101.10770 101.12584 101.13707 101.15788 101.17942 101.20086 101.22328 101.25336 101.28337 101.31023 101.33881 101.37055 101.41903 101.48648 101.58289 101.62750 101.72909 101.78591 101.87165 101.86610 101.91620 102.05974 102.24511 102.34258 102.52136 102.68522 102.71701 102.92134 103.06176 103.40247 103.77694 104.63011 105.07827 105.77691 106.36170 106.40778 106.39122 106.91454 108.58471 109.34157 110.12501 110.62582 110.97672 110.23921 109.82529 108.61539 107.01395 105.91774 105.80929 107.03632 108.05595 109.31650 111.34991 111.75058 111.62937 111.44775 110.68958 108.99849 108.01582 107.30863 106.29832 105.70724 105.07135 105.00363 105.36898 105.52766 105.68159 105.45566 105.22047 104.62572 103.84332 103.39374 102.79693 102.44360 102.23352 102.12034 102.02218 101.93138 101.92179 101.74974 101.70701 101.65965 101.63410 101.61270 101.55865 101.50624 101.44628 101.39536 101.35379 101.30823 101.25865 101.24109 101.22104 101.20137 101.17887 101.16606 101.15325 101.14144 101.12979 101.11510 101.10340 101.09119 101.08557 101.07560 101.06735 101.06048 101.05235 101.04310 101.03181 101.02184 101.02184
101.00386 101.01324 101.01405 101.02245 101.03154 101.03973 101.04705 101.05575 101.06164 101.07059 101.07932 101.09497 101.10737 101.11657 101.12987 101.15437 101.17326 101.19577 101.21616 101.24810 101.27126 101.29744 101.32354 101.35289 101.40256 101.45498 101.53030 101.60162 101.64220 101.70629 101.73295 101.75623 101.83816 101.96613 102.06135 102.15104 102.27859 102.37564 102.34555 102.44903 102.68545 102.99946 103.38552 104.02142 104.46704 105.00278 105.10951 105.25057 105.36512 105.48071 106.61885 108.60325 108.81291 109.20625 109.08738 108.59853 107.86073 107.42304 106.17171 104.84265 105.01530 106.20026 107.00821 108.60282 109.34829 109.63103 109.98743 109.24174 108.67695 107.58702 106.87324 105.96880 105.62175 104.75785 104.37770 104.08301 104.17559 104.55269 104.72686 104.89458 104.62409 104.51124 103.85553 103.36638 102.88117 102.32108 102.07380 101.92187 101.85029 101.77189 101.62981 101.60227 101.57928 101.55888 101.55694 101.54369 101.49913 101.45872 101.41445 101.38223 101.34610 101.31054 101.27353 101.25832 101.23574 101.21166 101.18997 101.17163 101.15430 101.14311 101.13092 101.11402 101.09981 101.09223 101.08437 101.07616 101.06657 101.06025 101.05026 101.04332 101.03197 101.02243 101.02243
101.00182 101.00182 101.00926 101.02771 101.03351 101.04143 101.05048 101.05613 101.06646 101.07166 101.08033 101.09487 101.10566 101.11839 101.13214 101.15108 101.17172 101.19485 101.20738 101.22819 101.25546 101.26864 101.32444 101.35057 101.38251 101.43847 101.47205 101.53668 101.54414 101.58302 101.60558 101.66793 101.76779 101.87423 101.89517 101.97005 102.00038 102.10924 102.12744 102.20865 102.31351 102.59249 103.00512 103.59462 104.01361 104.22108 104.33380 104.28956 104.10564 104.75272 105.73013 106.35842 107.40395 107.25795 107.24362 106.69603 106.70599 105.59912 104.99805 104.43965 104.39571 105.01434 106.04805 106.96289 108.62022 108.73940 108.25578 108.12834 107.46546 106.75487 105.83483 105.31729 104.71033 104.11738 103.85392 103.57215 103.65408 104.13226 104.16663 104.20394 104.07697 103.91234 103.68609 103.23667 102.83536 102.39059 102.09109 101.88649 101.67404 101.62335 101.59826 101.54147 101.51279 101.49500 101.47667 101.46785 101.45854 101.41772 101.39746 101.36360 101.33651 101.31264 101.28461 101.26315 101.24034 101.21608 101.19890 101.18231 101.16696 101.15132 101.13766 101.12429 101.11264 101.09716 101.08882 101.07832 101.06880 101.06070 101.05053 101.04356 101.03324 101.02558 101.02344
100.99903 100.99928 101.00963 101.02475 101.03321 101.04406 101.05162 101.06118 101.07042 101.07861 101.09032 101.10154 101.11156 101.13058 101.14471 101.16110 101.17081 101.19162 101.21073 101.23206 101.24686 101.27521 101.30297 101.34234 101.35872 101.39269 101.42607 101.46481 101.49743 101.51665 101.52685 101.62545 101.69868 101.74079 101.79830 101.83178 101.84807 101.86807 101.90256 101.96685 102.15577 102.38860 102.71466 103.11483 103.41957 103.58618 103.53769 103.48199 103.80875 104.17757 104.79098 105.47631 106.27319 106.16650 106.16076 105.32155 105.11844 104.73938 104.32646 103.66814 103.82194 104.54413 105.40280 105.84577 106.57385 106.93934 107.60518 106.72901 106.08847 105.71439 104.80814 104.64856 104.26982 103.96461 103.48404 103.19111 102.99571 102.98647 103.35930 103.60183 103.70982 103.55072 103.35592 103.06474 102.66069 102.33567 102.07321 101.82880 101.68376 101.53760 101.50920 101.46550 101.43272 101.43395 101.42782 101.41818 101.41481 101.38956 101.37129 101.35292 101.33409 101.30776 101.28974 101.26550 101.24907 101.22736 101.21322 101.19093 101.17887 101.16503 101.14584 101.12908 101.11603 101.10242 101.09283 101.08266 101.07128 101.06240 101.05625 101.04137 101.03333 101.02346 101.02108
101.00452 101.00475 101.01313 101.02651 101.03269 101.04359 101.05091 101.06287 101.07255 101.08187 101.09586 101.11059 101.11875 101.13829 101.15683 101.16789 101.18303 101.19891 101.21833 101.23934 101.25665 101.26956 101.30680 101.32150 101.35457 101.37556 101.39633 101.41797 101.45095 101.45849 101.49412 101.54383 101.63203 101.66435 101.63710 101.66752 101.66079 101.70052 101.72180 101.83543 101.96724 102.39786 102.47118 102.77705 102.78952 103.12387 103.00382 102.98061 103.10858 103.54468 104.22541 104.61045 104.84929 104.97276 105.00370 104.78216 104.39399 104.06798 103.58421 103.21505 103.22373 103.97498 104.68672 105.52988 105.86075 106.00601 106.07186 105.71909 105.34107 104.51905 104.37920 104.00926 103.87006 103.53869 103.27780 103.01750 102.87406 102.66764 102.91604 103.00684 103.26077 103.18123 103.00524 102.69862 102.50215 102.29327 102.02541 101.81437 101.61508 101.49324 101.42666 101.40828 101.37818 101.37282 101.39451 101.37874 101.37476 101.36756 101.35021 101.33641 101.32030 101.30177 101.28917 101.26792 101.25052 101.23285 101.21601 101.20135 101.18411 101.16592 101.14555 101.13248 101.11876 101.10368 101.09069 101.08266 101.07515 101.06263 101.05315 101.04345 101.03206 101.02464 101.02263
