6.38746 -0.12040 542.25161 1104.95166 1533.25710 1876.01213 2298.23390 2466.85487 2719.15910 2616.95235 2740.46742 2910.11367 3149.44360 3425.01925 3419.42625 3327.05313 3509.95026 3776.89159 3902.60561 4394.42490 4733.67382 5402.95427 5775.36909 6115.32264 5998.79816 5654.11450 5263.67623 4761.83781 4211.83171 3940.19948 3855.81558 3765.24750 3580.38722 3472.36021 4061.97426 4459.63129 5008.36048 5468.09144 5823.99604 5787.26429 5534.14567 5043.45824 4656.53008 4108.76436 3837.72239 3557.14452 3211.24989 2593.97611 2325.64086 2707.04182 3136.79315 3400.84003 3367.87533 3081.75439 2608.17276 2657.95156 3182.08882 3903.13408 4308.38550 4836.51687 5056.75357 5543.14321 5651.57444 5433.95734 4889.03140 4676.33881 4635.69418 4689.43303 4622.28972 4267.32006 4275.43392 4574.49514 5411.05712 5821.53854 6269.79203 6365.86063 6697.57813 6716.90589 6528.89396 6100.63352 5567.78294 5125.86994 4698.49177 4298.01967 3829.24169 3671.65694 3514.27840 3163.37127 3071.35220 3158.45050 3237.16479 2946.67784 2905.62628 3064.36401 2966.27987 2708.09452 2617.10963 2653.03397 2319.70939 2195.50982 2074.57322 1810.98059 1403.69299 1080.07754 512.19113 314.37349 494.75398 702.46905 929.08127 809.47511 984.02540 1037.88750 1053.02552 1136.24923 1346.23097 1679.58945 1957.86822 2109.23602 2184.44801 2358.36503 2261.36794 2524.83731 2776.57147 2863.17949 3309.50140 3562.62698 3774.10485 3767.60118 4523.02457 4890.05305 5312.44035 5923.59949 6384.06008 6338.04124 6184.49398 5746.52480 5229.22532 4710.78318 4043.86375 3525.81481 3146.02042 3250.08583 3340.24203 3241.41127 3168.07924 2859.82425 2745.60844 3282.80340 3844.45530 4251.09590 4685.71124 5063.60351 5265.38610 5162.98967 4744.00007 4242.92867 4194.87406 3747.39565 3493.63730 2970.94737 2603.15385 2849.94798 3243.55005 3667.18364 4038.15148 4665.00241 4991.93318 5490.27301 5883.98611 6322.89919 6464.62385 6413.51974 6289.55403 6306.88930 6254.84429 5684.44698 5155.42652 4737.61544 4335.62112 4275.82158 3992.16639 4036.73607 3718.40542 3564.39397 3560.81344 3277.50115 2886.79861 2505.23951 2068.40781 1638.15320 1580.23822 1446.07438 1739.15499 1946.78683 1914.03526 1989.62259 1906.28247 1899.31377 1516.28522 1130.42925 496.99905 16.20967 -3.46141
1.18290 8.74297 456.54222 1001.11238 1576.80275 2084.24623 2552.08591 2841.02520 2982.72779 3077.68948 3161.01384 3310.46607 3578.08918 3704.66040 3850.51921 3873.98874 3981.42233 4269.66577 4388.55226 4604.97105 4978.87469 5467.54349 5770.62805 5983.05932 5972.22609 5860.99016 5396.76908 5010.02313 4506.42436 4387.42275 4417.88718 4290.85050 3851.61417 3591.84894 4216.53407 4435.96169 4832.14999 5314.54868 5733.69518 5544.11503 5472.06302 4854.53322 4480.91335 3902.73698 3491.02257 3305.06117 3017.24582 2680.35270 2696.63733 3057.34304 3380.60571 3754.44015 3633.38011 3162.25872 2797.14671 2851.86747 3147.21947 3731.30729 4243.06710 4455.82014 4979.55964 5494.01936 5776.79677 5759.52747 5467.68786 5221.70179 5167.77335 5188.83460 4895.74778 4432.93879 4592.12878 4644.62568 5505.15301 5962.67651 6522.69938 6727.25124 6757.48091 6724.24662 6386.43506 6117.81783 5499.24395 4974.97682 4451.82862 3937.37261 3583.23375 3292.73724 3142.08234 2972.76737 2804.06273 2919.78087 2902.29650 2658.73922 2456.43860 2674.93880 2488.48262 2181.28175 2216.89622 2177.65471 2232.74176 2059.11227 1947.26885 1660.56143 1257.41864 938.42477 540.86066 299.69264 390.06824 482.54022 603.30673 746.64129 962.34753 1288.39555 1429.62886 1688.94298 1530.28708 1780.39566 2067.00673 2389.67017 2587.62194 2631.09082 2677.07541 2634.28533 2907.10919 3049.53415 3496.86748 3975.98245 4195.84990 4194.40675 4652.70290 5080.09673 5569.14699 6126.56690 6437.53420 6408.79268 5944.30529 5300.12849 5004.05491 4598.94416 3947.05720 3512.71661 3558.20482 3769.78544 3839.76524 3777.46063 3458.62382 2993.00783 2738.26666 3097.09764 3471.45655 4018.72600 4508.17806 5065.48970 5376.83496 5358.38404 4915.24111 4713.74642 4521.16389 4053.75165 3635.94317 3069.14956 2813.60119 3016.09127 3238.69777 3507.53347 3699.38545 4354.10665 4764.04449 5278.58564 5659.91318 6193.22256 6466.49245 6796.68067 6790.11130 6645.38043 6270.02285 5674.08570 5198.74179 4575.21670 4153.23169 3799.67926 3537.37976 3314.67685 3235.43661 3250.71495 3082.28699 2999.70118 2739.40081 2387.09336 2127.57897 1794.30462 1896.09027 2193.60217 2122.85515 2417.01169 2566.12639 2515.08185 2280.52200 2003.85995 1559.63054 1197.57871 538.54542 9.98571 13.32244
1.45525 9.66031 418.44523 1042.92428 1452.73447 1867.67584 2551.64215 2709.76571 2967.20604 3053.93738 3093.00116 3253.75110 3503.85256 3757.45553 3924.09159 4001.46716 4109.88391 4307.40694 4343.11011 4529.65070 4820.46383 5209.48184 5417.07421 5552.89430 5766.04991 5848.21604 5670.95351 5395.38222 5060.49394 4937.92127 4868.87076 4676.88164 4163.24952 3835.40783 4258.07450 4573.75733 4992.78827 5476.24985 5717.66390 5533.21369 4869.85641 4325.75541 4248.39072 3602.17093 3319.13925 2993.12531 2625.72621 2633.84663 3096.75667 3342.74563 3615.62528 4067.33828 3844.24182 3525.77459 3169.97869 2852.91067 3131.91127 3446.06645 3891.61029 4291.90559 4906.70802 5442.75661 5776.10011 5864.84439 5731.32596 5702.50429 5691.88925 5429.66476 5229.48008 4759.29706 4925.82871 5112.72472 5502.37530 6170.12034 6566.83412 6811.33734 6630.37779 6229.41304 6006.78154 5864.77610 5521.58662 5104.21204 4723.56785 4247.83321 3838.23774 3237.97299 2927.49118 2660.71504 2424.41990 2347.24982 2459.82816 2166.88065 1910.20657 2134.64296 2118.52044 1669.21047 1653.22140 1672.43956 1693.48154 1624.12698 1313.71949 995.97064 1069.04904 539.29511 359.58137 276.03672 341.02008 651.86487 872.59645 1201.80843 1311.51138 1522.53549 1900.49668 2121.17123 2026.41437 1751.80919 1956.83008 2336.52837 2588.26395 2933.44543 3132.84598 3268.91269 3365.79424 3310.92742 3932.92994 4281.99052 4451.32831 4528.78810 4785.20998 5325.58799 5744.66699 6372.69999 6442.73268 6374.28136 5898.75853 5325.43969 4847.79426 4402.30501 4180.31743 3893.87498 3970.72130 4379.41530 4201.51045 3951.36542 3558.30928 3153.42448 2782.29233 3102.61469 3427.10294 3985.42118 4580.53496 4993.81168 5463.74678 5536.80911 5264.08138 5007.69848 4753.44219 4355.51399 3719.07717 3211.59224 2925.82688 3129.84598 3579.29295 3819.53643 3884.50369 4127.15668 4413.12155 4963.05920 5499.53403 5973.05916 6629.53668 6902.93755 6963.84437 6766.84378 6239.28690 5791.59200 5273.81016 4887.01596 4273.17941 4089.82822 3789.59009 3404.82428 3116.83888 2833.02681 2663.87750 2460.33833 2356.49450 2119.55291 2286.00043 2201.70445 2348.81676 2489.02225 2748.16124 2709.24794 2930.66937 2825.88434 2509.34363 1884.22912 1484.24956 977.89272 462.83768 -5.20892 12.31048
13.03757 -1.00707 524.29025 880.90470 1317.15990 1865.36492 2377.76335 2603.31244 2678.71376 2677.12255 2595.31971 2757.73586 3069.41682 3367.82256 3540.70610 3617.60464 3688.29874 3821.80936 3769.89288 4089.17417 4376.83160 4764.37307 4936.92889 5183.64723 5493.79535 5640.80447 5680.95965 5651.02359 5536.00302 5283.16731 5242.06199 4939.71238 4328.83971 4180.38494 4228.88605 5006.82820 5211.42313 5623.16367 5717.97805 5416.31386 4945.47134 4321.26162 4046.64500 3698.27441 3511.14749 3008.71574 2731.55855 2760.80426 3366.60381 3660.81096 4104.72620 4309.08887 4151.47599 3808.72498 3309.61769 2955.70228 2974.69620 3218.20728 3657.06028 4202.19174 4692.30229 5049.21811 5515.00976 5749.04110 6012.89145 6073.54310 6126.83345 5940.12969 5634.72693 5229.11578 5220.64593 5596.73242 5837.04702 6292.49814 6646.93638 6851.17619 6462.35538 5995.21433 5478.28195 5340.37798 5265.46014 4978.03787 4666.40233 4453.29702 4030.42519 3521.29632 3195.56767 2826.68703 2446.17790 2253.99118 2124.31710 2079.42289 1884.12230 1774.90404 1835.76721 1493.39381 1303.52429 1187.52666 1207.74333 1173.67258 963.58070 826.91156 833.72699 573.29343 365.06212 305.01730 510.69473 723.33809 1144.52592 1429.83867 1748.83529 2018.93147 2246.10008 2544.46004 2396.06670 2019.27059 2444.32719 2611.11999 2839.22983 2872.28851 3353.87815 3489.92600 3772.82818 3748.20750 4096.43288 4554.84557 4917.27817 5098.21172 5317.45717 5694.84679 5986.11614 6313.72831 6408.80064 6266.75246 6103.59282 5784.20423 5266.23736 4725.89307 4595.82471 4410.32968 4600.17051 4604.13015 4556.18872 4162.97593 3657.82658 3086.68075 3084.60446 3109.76058 3405.71407 3844.78785 4452.34358 4840.53604 5489.78514 5570.09253 5467.13835 5230.25599 4709.94201 4213.55009 3632.43733 3269.78805 3121.92446 3210.89407 3443.31144 3881.25916 4126.92827 4489.49800 4582.15269 4969.91831 5450.94390 5903.95407 6646.02916 6942.38792 7006.27276 6734.73570 6368.75198 5835.32315 5467.74777 5217.00873 4979.09240 4533.09158 4203.47428 3611.01288 3311.23469 3044.00094 2842.95952 2900.84922 2697.08515 2596.19790 2674.95740 2756.10290 2871.20929 2956.52590 3166.74753 3113.25340 3031.14322 2849.19574 2385.01419 2037.63083 1287.46863 1040.04791 377.49639 -9.28788 -3.11900
22.60154 10.29164 533.26166 927.01056 1382.91302 1852.01404 1989.99808 2089.43883 2203.55400 2100.99821 2004.76368 2447.89841 2721.07411 2824.80771 2924.58446 3193.83644 3232.20610 3392.79016 3300.29147 3613.05948 4086.90772 4183.21746 4618.83692 4925.97402 5025.82139 5131.50694 5446.58465 5656.38774 5812.60098 5768.97978 5361.88713 4906.19320 4515.90080 4488.58680 4746.01145 5075.22239 5409.04324 5799.57071 5756.20900 5406.23424 4811.45552 4629.13044 4269.45830 3853.95742 3435.01897 3124.80101 2819.92287 2935.76992 3471.62295 3829.58355 4262.74737 4582.90030 4325.57623 3882.26734 3620.84755 3482.67942 3358.68384 3134.98208 3633.03686 3992.89216 4482.73579 4722.78551 5051.88306 5600.93114 5867.10382 6242.24298 6446.00433 6324.28449 5873.87156 5768.47368 5711.36753 6023.59436 6217.29326 6674.15135 6850.53223 6828.97722 6356.76620 5675.84835 5173.12970 4961.73850 4858.38208 4644.92767 4508.57744 4293.92411 3804.72272 3468.33197 3101.68338 2828.15949 2486.73727 2558.92892 2618.43210 2423.40066 2158.73536 1813.08875 1741.85222 1847.58826 1847.90597 1634.88488 1427.03248 1201.39593 1069.60717 1324.69322 1110.17085 772.51539 492.52565 334.05234 575.64272 833.75608 1226.31437 1685.03008 2113.47174 2410.37931 2959.07649 2941.12706 2799.43405 2591.31526 2697.59632 2840.72291 3288.42338 3152.11495 3576.47959 3924.49962 4046.70554 4321.39282 4491.67030 4975.60839 5284.78882 5497.16968 5626.24174 5930.78426 6113.44000 6264.91858 6196.92797 6139.56295 6214.42883 6060.30465 5608.27744 5073.80257 4964.08760 5077.44384 4997.25369 4818.10362 4575.98727 3944.45733 3393.19559 3364.15900 3414.11728 3082.59129 3351.11888 3825.22840 4105.23255 4745.00226 5238.30062 5594.37030 5624.20710 5103.18762 4582.90064 4133.40626 3580.06564 3453.19834 3282.66570 3161.29556 3338.37101 3656.86510 4181.81741 4621.48757 4901.66546 5176.04444 5679.32272 6091.00593 6745.37831 6911.99435 6831.15064 6577.53476 6334.29951 6078.87857 5787.12578 5581.78164 5272.46241 4795.49087 4448.99674 3930.71465 3715.12935 3598.02909 3484.59465 3234.89272 3218.66325 3209.65362 3398.30413 3277.27359 3210.68219 3315.49375 3237.20217 3134.90126 2988.32764 2740.81414 2462.90709 2026.14598 1484.14079 1040.80040 560.86195 22.71083 5.69084
27.80268 12.11489 418.95520 865.52870 1228.82974 1545.55661 1591.39868 1795.89497 1688.28962 1613.37561 1606.43181 1884.74133 2372.61646 2603.15529 2447.77857 2643.51474 2728.67656 2662.02331 2865.25793 3126.77087 3491.25517 3797.37559 4268.24113 4520.85945 4754.32924 4770.25390 5111.13327 5462.41411 5854.94098 5952.58599 5705.08636 5077.83231 5039.16518 5062.76911 5061.41816 5374.50677 5678.91702 6079.92192 5858.65593 5347.65642 5035.57599 4655.19824 4209.23468 3820.94642 3381.78435 3345.37098 2982.92246 3337.29510 3699.40929 4207.71406 4507.75018 4809.72443 4698.24036 4253.03305 3946.04313 3879.53556 3553.16066 3204.87131 3338.70119 3702.44931 4017.12286 4408.54821 4804.32849 5154.75637 5648.74489 6201.18329 6479.13397 6626.87885 6608.19768 6336.27154 6348.80249 6370.80341 6669.24000 6896.55330 6965.19862 6833.19327 6230.62626 5619.98301 5128.76316 4675.05102 4546.92820 4149.95866 4011.22918 3901.18729 3609.08363 3351.81503 2808.39918 2718.43297 2990.43753 3074.83174 2836.66503 2453.59501 2245.09586 2316.13801 2346.09690 2241.36536 2353.25276 2053.64560 1811.48125 1511.98936 1560.32905 1537.51673 1421.34022 897.22590 528.76455 336.24624 539.30428 806.72471 1293.68370 1767.91183 2266.09845 2584.60368 3063.55086 3308.66767 3339.50765 3153.51262 3076.44949 3485.94976 3723.53399 3664.87501 3831.07051 4171.75175 4456.01357 4742.59050 4951.97458 5136.78667 5426.74363 5603.58447 5737.99461 5818.48989 5831.53774 5792.68847 5590.24811 5593.71454 5857.59761 6061.83022 5971.63157 5788.06487 5578.95082 5542.75941 5172.65246 4823.40145 4511.88535 3878.50237 3796.69278 3791.89218 3699.20224 3378.87256 3248.83208 3633.14667 4085.43984 4554.13939 5312.26157 5616.28396 5550.18980 4995.57813 4518.09892 4092.06349 3829.05391 3628.84368 3502.29127 3550.45164 3584.61252 3688.57453 3989.40912 4532.42732 5120.42784 5476.89382 6012.65431 6371.88688 6764.05754 6830.13103 6606.38890 6254.24548 6162.23207 5896.51806 5778.89012 5705.77180 5436.06566 5033.63056 4766.79515 4585.63875 4246.76599 4211.64287 4037.81360 3925.48796 3719.68114 3770.85671 3736.19707 3643.64254 3589.48159 3396.19456 3173.68101 2506.17618 2446.68094 2374.14177 2173.16249 1907.00650 1657.34838 1289.85971 458.96806 14.27933 4.64763
27.19768 -0.72657 250.80803 412.45977 618.32978 1051.79293 991.47940 1063.47252 1137.01714 1083.37581 1311.18475 1523.33803 1858.46433 2133.76865 2113.01968 2172.88835 2171.63801 2439.91040 2714.67792 2952.14461 3281.69411 3490.20342 3952.01337 3958.89508 4080.63712 4375.28811 4816.49374 5369.93600 5855.46683 6038.79366 5911.20311 5625.21885 5282.47620 5546.45232 5641.83897 5797.45002 5935.26464 6244.50500 5938.18465 5430.68189 4947.45019 4367.46838 4134.05462 3854.73247 3666.03120 3578.33366 3109.04573 3220.51546 3799.00387 4249.74189 4577.34741 5021.40708 4930.86496 4558.84056 4311.65524 4090.96677 3607.16603 3255.53851 3345.42837 3528.17875 4001.52206 4428.70680 4573.68309 4925.60929 5357.66979 6044.01443 6537.98475 6740.45663 6768.18417 6661.21266 6518.97383 6419.83789 6560.85521 6623.53212 6871.60327 6702.65926 6365.72891 5823.92537 5176.71999 4754.08258 4232.97738 3879.86786 3758.67215 3490.58947 3338.19702 3273.40165 3191.42804 3110.34738 3420.03331 3367.11351 3036.13990 2774.83854 2841.33412 2780.45813 2704.83857 2740.56833 2819.38497 2541.64272 2257.47744 1776.89424 1940.29941 1883.62798 1477.30023 927.33122 512.72453 317.82738 567.70376 970.22265 1392.76239 1718.38690 2285.64298 2803.77508 3190.27668 3510.86755 3637.64829 3720.60080 3735.78919 3978.04320 4004.68677 4281.01079 4336.72353 4636.35431 4836.04001 5024.02330 5162.20192 5224.65376 5222.75168 5385.66632 5408.60478 5467.12694 5473.53266 5446.43699 5182.42492 5323.01894 5506.90065 5843.99790 6061.93949 6187.69597 6083.16510 5765.55417 5318.67834 5062.00560 4389.96632 4039.05707 4252.33650 4268.10166 3832.03700 3530.19639 3415.90271 3572.23676 4072.99705 4692.20170 5119.03659 5637.14474 5537.90241 5334.04503 4666.01192 4411.82245 4240.36345 4090.55350 3916.64818 3776.63819 3995.64911 4123.47325 4254.77822 4410.87896 4966.00359 5581.55561 6030.33454 6524.86295 6739.05187 6533.43291 6105.23016 5739.39015 5444.92639 5527.43569 5411.95898 5478.29325 5443.89540 5329.28030 5098.86664 4862.32814 4635.10740 4423.86522 4332.30690 4197.53544 4157.53501 4122.88475 4037.30974 3850.78052 3629.53285 3346.71107 2652.60996 2261.69202 1839.46320 1938.74937 1754.53357 1624.10977 1464.03079 1074.84166 415.10142 6.88984 17.53971
3.13963 15.36498 269.18646 574.51247 450.39130 694.02118 635.81083 787.93524 966.09904 1025.30350 1263.26911 1268.42548 1471.81213 1551.09513 1674.39962 1765.70397 2014.03786 2353.96727 2582.06528 2688.09841 2806.85450 3080.01195 3457.93395 3482.45907 3818.55586 4160.16977 4572.36121 5173.06554 5676.45655 6174.70041 6160.29667 6024.14753 5745.60869 5960.41349 6184.41322 6417.73683 6487.69738 6534.38190 6158.75388 5476.42892 5036.25237 4601.07408 4453.20695 4286.07032 4076.45695 3599.57687 3240.85386 3489.99866 3985.09149 4264.60677 4780.75658 5192.25804 5198.21223 5028.43687 4473.17794 4093.16037 3545.41016 3432.38516 3496.71312 3778.77745 4183.68667 4574.51329 4846.37324 5206.02073 5606.92248 6213.18607 6726.05024 6792.93544 6754.75629 6474.22120 6233.50328 6059.52941 6145.30038 6450.85967 6512.97253 6525.92338 6221.81464 5896.12757 5411.27601 4896.32011 4632.30950 4437.63868 4178.52738 4025.54994 3700.28494 3692.24723 3640.15811 3673.16158 3866.45664 3643.16539 3272.29699 3147.62171 3209.81527 3404.04579 3257.81285 3353.82328 3228.43934 2859.93115 2676.31662 2398.50375 2333.17089 2003.09440 1392.28116 1003.97996 652.46226 333.94204 470.20086 850.69074 1215.84396 1692.53678 2104.48457 2615.73999 2988.59693 3539.98267 3749.43298 3937.82155 4036.36815 4284.11616 4422.97743 4570.44937 4565.79692 4856.05436 4923.87526 4979.66135 4899.15043 4964.89108 4836.71740 4796.40101 4771.76217 5019.79409 4948.48011 5047.09980 4873.09044 4877.16925 5282.99972 5734.79587 6053.02862 6174.02032 6333.43760 6161.15948 5550.01553 5173.36114 4630.04154 4406.29576 4633.20764 4659.76475 3955.91121 3801.65831 3647.77204 3685.78594 4119.76861 4480.84973 5123.39227 5694.92724 5820.53808 5560.86722 5145.35065 4817.34740 4588.34344 4474.94715 4191.20884 4192.06019 4235.47371 4620.76815 4652.82967 4711.71986 5056.18264 5562.92767 6198.82656 6615.74977 6626.48479 6355.17088 5765.45832 5404.18987 5277.26313 4936.64241 4908.60015 5086.26504 5032.19887 5181.75225 5103.61697 4901.44646 4599.02952 4450.86006 4274.31804 4148.59078 4094.54054 4171.99334 4097.58668 3749.03381 3437.88155 2704.73031 2336.45954 1962.16293 1539.28973 1224.99419 1103.92430 1011.73008 1017.14060 960.01826 462.73097 20.89312 4.15091
3.07070 19.33522 435.89551 783.20086 924.63340 935.29981 1013.31090 1215.45836 1361.22254 1334.67926 1593.43349 1865.42384 1721.84469 1844.34589 1946.52375 1934.93933 2030.03493 2175.64318 2327.90058 2639.85038 2678.18110 2901.49931 3266.56537 3596.01947 3932.04853 4402.13819 4740.93248 5300.33486 5694.15354 6121.57751 6317.20933 6409.02784 6261.00033 6417.91694 6764.78130 6725.58422 6735.00827 6733.03796 6208.47038 5669.39447 5184.02983 5022.33993 4727.83001 4427.74367 4171.60579 3645.00109 3461.70237 3618.06315 4031.38052 4477.18293 5000.57556 5418.56073 5447.31051 5118.88739 4510.73548 4080.65777 3714.52700 3810.68999 3765.69040 3818.38214 4111.19209 4439.36601 4943.59045 5309.11805 5836.81887 6377.03761 6661.50345 6712.51081 6366.83497 6122.04023 5830.14639 5541.81332 5578.54549 5939.42443 6152.79250 6277.33982 6221.05685 6014.59055 5759.67296 5227.30274 5257.78011 4780.07294 4598.27323 4229.29749 3994.84307 4169.31560 4123.72950 4187.54200 4231.70124 4001.96410 3645.19952 3657.21579 3878.95335 3913.92964 3850.52517 3813.65710 3607.92799 3342.79761 3084.25601 2716.81646 2401.57908 2003.24772 1428.37560 1043.09510 545.72711 352.20159 478.53020 838.25518 1153.01294 1668.99234 2057.41810 2464.45002 2970.61298 3406.92809 3699.31078 3871.97996 3959.68399 4237.91058 4357.06926 4536.58815 4553.00055 4627.87360 4499.24065 4482.99659 4420.90649 4416.50961 4246.55335 4199.59589 4385.74313 4544.18753 4507.94585 4583.73042 4400.34954 4483.64764 4929.88594 5064.00645 5950.44894 6302.15396 6547.30710 6366.12214 5902.45309 5256.70878 4817.70708 4880.73078 4855.07188 4641.23051 4349.76506 4037.64945 3822.54816 3893.08459 4276.17061 4561.81328 5113.50328 5743.55492 6045.31688 5803.78618 5504.30173 5166.88189 5066.73501 4736.59178 4566.87098 4630.73619 4495.10509 4714.20126 5035.49251 5039.13322 5492.01365 5878.59035 6415.55842 6626.71341 6450.26377 6032.52247 5743.77950 5176.34301 4751.29939 4538.70192 4550.95959 4720.01019 4689.14895 4670.97034 4717.38024 4600.72127 4298.40815 3937.04053 3902.41368 3765.16995 3822.13811 3648.56724 3763.06516 3612.38650 3231.56367 2901.47282 2443.19484 2076.38729 1713.52990 1294.54389 889.52107 700.14423 630.91111 451.72104 286.58442 21.44923 6.59251
1.31231 -5.60012 354.13920 849.85384 1094.34932 1360.90185 1428.91667 1653.07728 1708.21815 1937.83185 2015.55438 2327.83216 2286.97288 2147.04929 2242.36512 2241.25882 2392.21376 2478.75609 2802.49158 3070.24409 3091.15959 3323.21110 3640.42853 3980.29718 4356.60259 4792.90042 5125.32268 5481.47323 5841.82393 6031.01270 6235.39927 6463.20079 6514.98319 6818.41349 7140.93585 7220.42944 7164.95183 6779.92268 6450.69846 5823.31155 5493.72544 5370.45652 4904.86318 4595.30236 3979.60883 3821.15395 3829.59315 4058.61792 4084.17059 4514.89531 5336.65281 5503.45598 5547.39247 5250.22444 4581.67042 4031.39835 3941.85515 4266.83890 4145.40627 4092.90277 4352.95077 4729.30343 4915.08958 5371.86444 6078.87330 6452.93889 6693.90980 6563.73836 5985.17001 5610.54850 5335.71019 5112.83323 5042.65314 5366.76117 5719.99590 5783.60794 5820.72666 5879.30090 5793.83537 5717.29462 5581.39045 5277.64789 4955.21227 4568.04317 4442.59476 4667.07378 4556.97589 4629.83535 4602.27895 4459.28262 4342.30573 4282.29731 4241.70232 4291.28048 4314.73678 4160.82680 3872.92845 3624.67809 3093.29412 2640.44142 2223.22239 1801.61984 1302.84797 936.81881 577.49698 362.03730 545.66585 1003.37110 1276.66682 1721.34506 2020.00647 2402.23857 2742.58330 3164.42823 3225.16947 3378.42607 3513.62393 3728.31982 3972.18167 3981.38412 4239.47754 4260.23793 4093.03555 3865.78988 3778.68037 3888.07555 3963.20604 3798.06701 4102.36470 4057.53926 4142.87229 4163.98990 4081.07527 4328.30313 4622.90005 5098.18013 5701.52319 6191.80237 6660.87874 6584.67037 6143.59957 5572.51736 5294.51237 5252.52586 5400.27504 5041.39269 4792.45225 4409.12582 4108.62366 4173.41933 4503.57772 4953.88113 5220.95791 5786.42969 6242.02079 6206.74873 6041.94647 5697.98786 5428.33397 5205.80370 5081.51045 4931.67048 4823.94418 5080.43752 5398.13176 5480.05179 6005.76205 6184.23882 6645.52205 6534.21004 6249.50496 5767.88586 5442.17981 5045.87992 4677.98919 4286.34209 4084.07175 4077.18316 4283.25702 4212.29215 4190.20924 4336.32840 4024.73112 3786.73470 3269.79352 3066.40393 3072.39306 3207.10267 3354.73364 3262.92780 3018.55390 2751.56371 2436.69786 1895.46379 1506.76950 1155.35121 862.80211 481.93445 505.41802 515.86670 319.91243 29.07324 0.50477
24.82562 12.29495 319.70134 628.55849 982.59790 1304.87336 1679.92478 2000.35079 2245.79690 2371.20366 2530.95140 2713.86415 2805.12726 2771.83202 2767.91345 2784.07397 2773.50119 3060.42203 3228.55032 3497.47374 3674.16717 3790.62479 3994.21221 4233.00569 4724.58527 5061.27924 5350.81211 5545.45947 5608.64544 5674.69568 5990.94493 6226.52113 6676.10309 6767.14673 7264.95767 7326.79330 7287.21468 7025.65884 6627.58773 6243.41206 5891.28732 5599.83178 4933.14505 4526.70016 3957.70722 3916.14479 4283.02929 4470.08640 4505.11597 4836.63165 5316.89334 5573.15906 5572.70401 5222.93446 4540.11240 4121.85573 4230.03130 4581.43014 4473.16944 4475.84278 4645.98752 5022.13391 5426.66568 5676.20676 6236.93592 6548.96151 6561.31364 6382.36443 5771.76846 5470.33737 5140.51204 4749.01870 4793.58042 5095.18200 5007.91442 5181.11117 5385.61685 5454.65355 5637.62999 5727.23323 5720.07313 5601.88927 5409.46016 5213.20549 5037.14767 5109.58053 5312.90894 5211.65492 5190.20107 4850.68986 4729.32776 4669.59687 4512.69517 4413.22919 4332.81665 4241.02796 3928.13953 3461.27078 3075.65247 2493.85485 1936.93418 1604.68286 1217.98947 921.64621 512.30113 390.67772 495.87474 844.07151 1315.82973 1642.00166 2104.24677 2389.76266 2679.94485 2889.75926 2789.01045 2757.16838 3001.91500 3315.61703 3506.96013 3840.97189 3854.93555 3827.96772 3495.95867 3373.31732 3155.89533 3273.26512 3394.20208 3561.49442 3418.01608 3599.72064 3728.89090 3689.10985 3814.99349 4336.98121 4813.51548 5446.70667 5951.75675 6355.52610 6622.47315 6655.83535 6324.12603 5881.47501 5665.66671 5830.85881 5812.72131 5444.32537 5242.34316 4694.80373 4301.46650 4323.16156 4625.55670 5099.89022 5511.64968 5834.93200 6384.81300 6540.57155 6350.46376 6100.41413 5837.02709 5564.61437 5389.98774 5431.87355 5285.63881 5549.07882 5832.12235 6057.63926 6159.94113 6527.53611 6698.58309 6495.51170 6059.61147 5673.53908 5059.65327 4734.41087 4499.93821 4151.23290 3902.27899 3782.73616 3611.09262 3599.12490 3662.70398 3691.58226 3803.38639 3492.84291 3092.71880 2789.91385 2671.25441 2818.34019 2989.59029 2914.89137 2632.04696 2297.56021 2050.32254 1616.46522 1125.06027 900.08085 743.20595 799.99858 1001.82681 855.20896 447.94310 2.55640 5.99115
-7.92102 15.38676 463.33897 756.58868 1160.00709 1530.17181 1780.14349 1973.64664 2220.75715 2674.51687 2807.01324 3158.49399 3269.32994 3176.45999 3218.85794 3336.15259 3162.64222 3425.28239 3883.11496 3935.37977 4077.60176 4373.99181 4451.22670 4749.68859 5096.54632 5190.01117 5362.22592 5322.43709 5220.41899 5050.04009 5390.39482 5880.02331 6399.26727 6736.95109 6899.58217 7116.63158 7256.24439 7174.90503 7007.14080 6474.72810 6048.00801 5596.52502 5059.66729 4461.29424 4217.50098 4427.45103 4683.74625 4917.08445 4751.78353 4982.68994 5602.46552 5754.57364 5542.46691 5175.78326 4493.21182 4239.35883 4534.44695 4991.50374 5139.50371 4949.87566 5087.29111 5458.79460 5739.19571 6091.62748 6465.09511 6663.00339 6495.23757 6142.25134 5610.10004 5080.47623 4658.63657 4417.00766 4374.86351 4506.03421 4881.81904 4810.74315 4925.45165 5023.16344 5062.38738 5335.88559 5523.06158 5665.83633 5640.11679 5422.33712 5466.49528 5476.75233 5567.94641 5622.12813 5605.87577 5338.88744 4972.70312 4545.06698 4429.73494 4154.60262 3931.54367 3939.11231 3799.74633 3404.76814 2931.91000 2564.15651 1936.55691 1608.38270 1189.82933 989.00279 581.88712 406.94633 544.48767 978.14379 1281.06157 1478.82680 1876.59337 2248.71714 2362.90143 2516.41305 2309.11387 2388.25913 2550.95214 2873.67416 3306.01075 3437.50525 3212.45119 3271.66030 2997.63274 2799.31657 2847.53770 2971.14812 3016.73117 3234.05743 3159.41065 3202.54114 3289.87736 3576.37934 4072.37412 4427.28301 5001.75052 5227.94946 5903.40794 6149.40895 6436.80267 6607.32331 6623.68733 6421.84922 6326.56437 6256.44609 6236.37040 5911.24618 5521.91030 5013.61903 4633.03941 4494.58756 4749.32946 5180.68547 5514.38952 5907.89355 6570.48564 6799.78779 6931.47828 6722.50225 6208.30136 5994.51910 5956.02121 5927.36864 5924.35304 5905.98327 6166.69550 6299.26506 6678.03261 6844.80177 6845.68401 6533.69325 6206.34559 5763.34744 5348.33739 5077.05558 4719.83799 4571.18269 4292.29763 4005.40053 3757.02934 3359.12733 3220.92283 3297.07108 3313.18480 3213.64112 2948.93839 2480.79907 2275.51609 2278.14307 2391.07579 2452.34525 2208.05994 1813.37207 1656.28503 1261.34168 967.14422 1210.26454 1220.08555 1305.79048 1365.03834 933.51857 626.68071 6.48890 22.64306
2.97545 -8.59599 551.10469 1046.89431 1378.07841 1850.00767 2091.15528 2335.77550 2632.76120 2798.41467 3246.60194 3634.30504 3665.96867 3708.28461 3904.13078 3763.93304 3491.71436 3829.16444 4241.23167 4535.51049 4792.19990 4809.38579 5031.50655 5212.47865 5264.34733 5212.49453 4934.93138 4729.05214 4669.48189 4709.71129 4923.20775 5743.43842 6033.18836 6335.55103 6471.80181 6665.13288 6970.09055 7182.48295 7102.79527 6680.86744 6098.30786 5686.94791 5149.64678 4718.66033 4738.22380 4596.09790 4884.20549 5243.49595 5140.33521 5368.89171 5797.46960 5814.64460 5491.56739 4793.94319 4599.57257 4715.77339 4944.66167 5302.53437 5451.61080 5318.15005 5544.11307 6075.62871 6039.86522 6457.97832 6653.55696 6660.88999 6366.18490 5982.65413 5327.44092 5104.12169 4430.09881 4171.29062 4059.50766 4138.65348 4219.41541 4467.31141 4315.05320 4489.31279 4561.39176 4935.72877 5147.99275 5348.96164 5378.92142 5311.08068 5335.44084 5412.18924 5626.38655 5629.85566 5596.33323 5244.27408 4977.03212 4471.94260 4040.87350 3744.73850 3449.14556 3502.33575 3503.05672 3273.63692 2775.38579 2567.13797 2152.66965 1680.48013 1272.04384 832.66554 577.33705 422.14998 518.05817 835.47876 1052.55841 1148.87533 1552.79247 1762.36637 1897.01305 2062.80161 1851.46395 2213.46439 2499.30636 2641.90294 2853.60556 2801.22126 2867.07151 2846.29101 2629.64758 2529.37205 2418.06074 2622.92082 2636.07350 2718.59376 2913.97137 3167.73539 3518.16375 4008.02084 4309.70416 4663.60208 4956.59979 5290.44562 5585.39527 5705.51879 5938.57332 6284.62304 6566.42773 6740.47982 6710.56376 6742.98720 6566.20909 6287.65776 5740.28495 5283.10661 5001.53450 4691.61525 4917.74175 5121.39852 5779.32567 6208.71305 6698.76666 7078.64313 7055.94518 6973.38484 6733.47839 6565.60034 6431.21433 6318.96744 6280.82300 6279.92595 6422.89193 6586.35325 6773.63170 6793.24366 6705.57787 6414.93223 6134.34006 5845.37764 5566.78420 5420.37865 5053.50939 4994.56494 4843.11628 4437.40514 3985.04700 3603.17312 3185.09232 3018.12802 2903.87048 2863.48606 2661.90669 2163.79033 2066.54314 1964.57456 1903.50144 1938.05048 1787.27815 1592.08374 1331.87167 1230.78658 1398.21400 1537.80277 1595.59219 1664.48500 1517.44042 1004.35698 495.83258 -5.18418 14.87957
10.70509 -1.99338 503.32317 1037.75935 1339.10488 1690.27322 2201.64472 2620.25199 2967.45137 3161.08826 3354.84416 3870.12171 4167.90300 4405.99174 4341.84157 4341.03162 4318.43935 4231.25435 4382.28722 4899.71137 5008.54635 5077.88332 5125.23854 5038.50474 5015.03657 4690.58083 4517.58831 4302.08322 4213.66595 4359.23998 4823.97687 5365.88340 5787.19313 5913.46661 6079.37680 6426.03152 6447.66538 7145.13128 7115.41047 6704.06619 6341.11259 5708.30430 5288.55892 5042.54719 5089.76764 5158.39950 5214.69418 5673.86520 5842.51709 5677.00519 5996.38311 5930.51944 5437.58472 5086.62337 4898.71270 5015.86412 5339.49595 5716.58434 5951.49789 5999.10556 6009.93803 6284.81080 6608.70105 6689.51961 6629.79965 6507.23062 6226.36482 5824.80259 5511.79204 5159.68284 4720.50523 4399.87486 3930.59840 3860.69152 4101.86512 4080.26261 3971.03453 4072.15754 4172.69825 4182.57109 4759.10471 4764.96390 4985.76597 4943.08934 4906.15346 4950.62241 5340.59631 5400.87857 5292.61041 5115.97093 4785.19440 4214.89396 3752.48182 3367.25913 3130.90767 3013.86545 3128.68101 2921.09625 2536.76260 2239.62197 2092.22223 1718.36386 1320.22929 886.72268 517.52749 385.51729 475.18907 611.40766 776.67861 866.38926 1084.58946 1316.75879 1488.55873 1665.21129 1437.07597 1953.37012 2161.91843 2319.34772 2421.17348 2355.99135 2364.28629 2450.18193 2193.34881 2160.63673 2217.00845 2340.78308 2661.53292 2820.69614 3160.12439 3369.74302 3742.42356 4109.66595 4391.76136 4475.73072 4776.07408 4723.63861 5079.03449 5265.58991 5541.45752 5969.52055 6409.32616 6836.08107 6994.26370 7065.66954 6937.63414 6746.26206 6157.40698 5617.89315 5241.45004 4969.63393 5231.13653 5458.52118 5757.64321 6218.77926 6838.64554 7179.88368 7291.14735 7238.01237 6893.20108 6741.59243 6600.08312 6377.78912 6202.75329 5937.00197 5854.37777 6278.10718 6386.79260 6387.54828 6153.53836 5845.74752 5844.69788 5747.63704 5648.53213 5652.66635 5472.80488 5306.71023 4921.94187 4763.98070 4414.73708 3952.13273 3618.42937 3234.34173 2943.42743 2803.87353 2439.40708 2508.33830 2333.93319 2155.41914 1951.21457 1775.36722 1465.56925 1356.13510 1553.16533 1644.21127 1923.49594 2217.03708 2157.96530 2025.50158 1597.41881 991.02491 569.95224 20.43555 12.05566
-1.91085 -0.80980 406.74114 797.43786 1230.25500 1582.48335 2053.80690 2725.40417 3030.58416 3559.64199 3750.94357 4109.32585 4457.02279 4672.48040 4710.41586 4600.47289 4593.54760 4651.95813 4801.02162 4987.22822 5076.44932 4999.67940 4865.45394 4735.50953 4409.50424 4112.25941 4018.15328 3689.83592 3868.08858 4267.44611 4756.79994 4883.88249 5256.48247 5425.81720 5323.68320 5833.51778 6355.27376 6938.15716 7155.64581 6854.11981 6479.99517 5916.78048 5687.91537 5629.28788 5705.38189 5530.90680 5629.33337 6072.31378 6177.71993 6162.18373 6303.50695 6111.61922 5861.78538 5326.74266 5384.05945 5337.72725 5653.51232 6001.32724 6322.26500 6464.29766 6711.20257 6636.16722 6690.08754 6573.25274 6343.21332 6025.60000 6037.06499 5812.26309 5672.48068 5411.55566 5052.64090 4668.48886 4099.44624 3634.19474 3479.90684 3603.95447 3470.03853 3583.51610 3758.75458 3993.06110 4461.62129 4337.81285 4295.46898 4507.71832 4307.65386 4624.97969 4630.62720 4850.24566 4783.57624 4892.92069 4701.66977 4330.24656 3848.59978 3462.86593 2911.74794 2575.86402 2552.89991 2487.45647 2334.56292 1822.53456 1685.28501 1459.54884 1142.90985 787.63606 477.42072 424.17049 515.95300 989.68405 1122.86471 1097.07683 899.07740 1099.52351 1101.11102 1186.98094 1255.38747 1410.01791 1808.86180 1828.11951 2039.63115 1915.50975 1969.70052 1934.74735 1929.09194 1957.52827 2021.12692 2292.77590 2596.22262 2868.81154 3160.45391 3545.86787 3750.40386 3930.69242 4006.92871 4198.82681 4145.08750 4335.50719 4502.70772 4818.79515 5297.50126 5798.40550 6119.39969 6485.80096 6971.59952 7253.14204 7095.33705 6888.40599 6326.16394 5868.14272 5626.22644 5466.59063 5608.49338 5706.01130 6098.45191 6286.28551 6933.06714 7265.80741 7354.64143 7094.08532 6725.79482 6609.70845 6239.73255 6044.80982 5777.15755 5578.71266 5414.51192 5640.75684 5942.50399 5957.41175 5804.13858 5376.99111 5305.81434 5225.95089 5386.48729 5506.02841 5451.55731 5145.43752 5065.17646 4920.21207 4696.81111 4368.06240 4113.34196 3654.87359 3238.20027 3090.57169 2926.38932 2836.49040 2879.63796 2435.58888 2279.73926 2078.35231 1806.77766 2053.22042 2002.61742 2196.32832 2525.39910 2493.14787 2374.59317 2017.56263 1555.35266 946.21570 564.22657 23.61500 12.19015
8.43053 5.03315 419.99067 788.01217 1193.04002 1635.74956 2241.08751 2642.87646 3163.76125 3584.65735 3953.84530 4169.67480 4481.67120 4600.47161 4625.38490 4545.67841 4613.66804 4626.80606 4783.04063 4850.28960 4745.46259 4504.37838 4346.46692 4250.50682 3941.25371 3737.04289 3647.67745 3443.43244 3887.04204 4234.79408 4526.70870 4732.31247 4642.92822 4909.95737 5396.50885 5787.46154 6363.47342 6915.22632 7127.10588 6985.29798 6742.08526 6354.36779 6152.28082 5944.72087 6049.30071 6110.60335 6080.74677 6444.97783 6607.15402 6660.32989 6732.00098 6460.21120 6068.63405 5690.20513 5551.40233 5678.64508 6138.88347 6486.84283 6769.31892 6832.43024 6759.05195 6716.40311 6497.43489 6173.76853 6013.98507 5687.58019 5403.31042 5340.58318 5413.87266 5404.89896 5165.87004 4771.34417 4283.27939 3827.72770 3393.40481 3244.68130 3263.38555 3028.33479 3362.17194 3737.42935 3836.78947 3702.92521 3776.22594 3777.41977 3757.84657 4247.03818 4338.35434 4426.27312 4431.69255 4528.14092 4576.57537 4478.37434 3883.61054 3575.70796 3047.94384 2546.00420 2298.48299 2088.03652 1920.59207 1631.71543 1634.82234 1101.94495 875.59124 890.08266 624.33406 568.04986 887.38071 1239.55418 1552.36050 1492.97849 1479.79761 1295.85916 1537.59416 1503.58235 1460.89783 1407.47134 1390.63091 1461.90906 1642.66001 1761.61846 1846.43829 1924.07972 2073.31909 2399.70962 2518.01036 2358.56205 2376.78384 2627.99013 2828.88188 3149.96835 3431.43829 3587.97501 3621.99038 3849.62199 3997.84939 4270.25513 4628.14094 4822.17376 4919.65262 5354.13466 5800.28438 6448.27691 6843.28074 7218.84054 7335.42108 7112.17944 6634.42321 6401.33584 6038.76018 5968.44905 5935.04657 6145.77362 6481.49665 6924.46308 7213.24608 7415.60059 7381.07560 7028.85037 6507.07689 6101.83341 5686.53504 5680.68511 5386.77696 4997.67970 4950.03368 5164.33702 5380.87863 5371.26798 5388.84575 4967.72984 4687.80462 4776.45137 5054.63846 5004.99670 4915.93925 4806.14417 4828.58091 4622.23838 4605.91891 4517.55729 4281.55786 3981.00786 3649.62678 3515.24270 3525.84129 3325.93879 3283.67383 3163.14340 2858.89175 2690.55261 2377.24142 2318.92272 2439.46768 2661.08860 2767.78136 2560.47817 2210.64571 1687.39933 1350.75379 865.42018 494.16297 -6.67707 15.18826
5.05598 15.31475 519.07852 1047.81055 1415.96208 1826.97064 2319.80947 2825.17002 3063.97191 3244.13114 3599.59627 3868.42471 4243.33312 4292.80468 4280.32093 4239.11339 3948.97857 4171.57548 4331.06928 4269.27541 4467.26444 4093.95141 3887.44111 3678.13648 3562.07658 3360.72829 3206.14195 3460.51367 3809.48853 4000.69409 4183.78652 4209.30179 4544.76869 4905.91437 5422.53643 5889.22342 6400.48958 6807.98910 7014.02619 6945.96115 6773.50275 6673.89475 6592.65321 6469.14717 6616.84337 6607.26216 6578.83928 6783.21593 7085.25431 7102.41808 7075.20636 6751.80634 6249.18684 6046.41288 6094.57835 6298.99590 6492.29437 6811.56146 7087.37767 6978.38566 6655.33486 6227.10077 6018.90045 5821.00626 5574.65101 5127.46239 4859.03549 4957.33718 5074.33736 5137.98664 5007.52521 4694.23849 4457.85728 4022.63778 3536.15322 3456.99100 2967.20479 2836.91527 2913.16081 3473.19548 3559.86609 3518.39138 3426.73156 3422.31875 3506.65481 3685.39854 4137.60152 3782.16252 3776.85942 4086.17600 4198.50543 4273.88691 4046.77708 3734.48082 3359.10414 3039.15898 2569.81420 2395.82243 2226.12553 2185.37062 1900.41478 1704.29238 1415.01939 1246.24409 843.66344 667.29518 864.26589 1309.37802 1759.27187 1955.29021 1932.09274 2114.83586 1951.97754 1935.99684 1897.60882 1904.70080 1847.36763 1782.29058 2128.27003 2200.49836 2179.81230 2258.13972 2399.26737 2674.16254 2920.20621 2729.70699 2587.58340 2716.01829 2922.24375 3131.30727 3173.86816 3418.37570 3944.31526 4175.47195 4522.74586 4647.85852 4857.93757 5148.73355 5363.19359 5629.11955 5944.20919 6727.38623 7036.55657 7233.88386 7369.31154 7320.85475 7097.67047 6749.82718 6516.30507 6551.18633 6547.59257 6677.86603 6918.56624 7135.81895 7369.84278 7359.83741 6971.27947 6541.00701 6355.74952 5825.42249 5292.35851 5120.15718 4933.81217 4570.71825 4564.67002 4683.27693 5006.33134 5115.54811 4960.52123 4776.81154 4377.44408 4043.16430 4220.06477 4625.17908 4569.64074 4275.61552 4110.78221 4138.22479 4350.67201 4443.52208 4380.92479 4387.27996 4175.59651 3988.20801 3885.83972 3873.89672 3710.99223 3567.36177 3278.05275 3141.47769 2983.50961 2941.55314 2974.55688 3080.05349 2970.59722 2739.44660 2289.95611 1756.20133 1422.29367 871.41550 350.38173 15.30272 16.84455
14.39390 1.53862 723.56645 1092.19980 1548.43887 2043.83172 2401.10092 2532.85372 2662.08979 2827.98274 3157.06562 3513.18971 3729.73195 3996.38268 3985.62814 3617.62014 3502.72632 3574.58024 3903.15067 4022.95395 4027.23789 3751.03339 3383.70693 3247.41483 3204.31412 2996.90842 2888.83309 3368.04268 3574.23399 3604.15707 3932.11692 4275.61459 4791.88254 5164.45611 5555.58244 6064.84811 6457.29853 6603.52405 6590.50050 6500.92175 6480.92621 6525.92202 6695.99441 6828.96422 6907.90590 6868.97671 7061.40191 7123.07360 7375.76612 7483.99410 7345.45709 7166.98190 6759.34265 6536.92978 6534.65831 6784.86616 6812.98665 7111.57876 7155.02937 6720.64032 6317.50692 6034.50852 5600.79314 5384.85863 5235.39283 4988.49491 4566.13509 4399.11341 4542.64167 4637.26145 4487.66505 4396.44008 4343.31681 4024.07955 3803.63922 3546.01306 3267.98312 2744.61913 2827.52109 3069.04841 3204.31269 2914.06475 3151.78942 3059.34085 3073.03728 3177.37050 3351.34130 3344.14680 3218.78461 3576.66440 3627.67441 3802.18543 3777.44866 3766.32536 3539.69671 3318.83451 3012.09980 2902.00118 2610.17261 2498.36562 2220.58735 2058.96144 1659.36636 1229.84459 1000.88669 734.61193 811.77326 1332.50537 1900.39814 2130.09000 2499.39992 2525.71272 2558.55778 2517.39594 2481.89371 2389.99774 2192.67728 2315.33565 2598.20599 2624.56683 2479.28119 2605.05819 2826.59770 2935.18446 3266.18017 3230.39907 3052.32336 3159.48255 3216.66444 3457.58835 3557.50248 3502.31495 4022.04831 4604.17387 4949.80723 5041.76371 5408.05076 5475.08430 5713.05432 5867.69085 6342.05109 6697.57794 7057.50333 7037.70880 7172.89570 7325.93393 7200.23292 7081.12244 7003.56830 6941.61796 7069.21671 7115.24306 7291.63810 7407.58514 7417.80064 7219.60371 6620.58423 6360.42534 6061.58815 5657.76868 5399.37233 5062.78131 4511.92602 4334.83725 4047.75438 4216.56809 4538.42829 4488.18627 4636.05410 4623.95167 4122.25566 3847.58139 3709.66829 4001.96403 3940.64190 4001.64755 3525.08874 3522.21555 3795.95438 4036.16049 4322.93631 4306.76585 4336.01281 4311.28586 4320.11317 4239.95516 4217.02589 3959.75350 3650.81421 3500.26388 3186.65639 3139.01344 3034.59000 3079.39784 3023.46872 2738.14179 2340.57838 1932.24129 1531.26496 985.88738 444.00469 20.31592 20.72423
24.11057 -6.58232 509.05179 1124.39246 1630.24476 2061.73901 2217.24224 2240.35016 2243.58084 2372.71858 2670.14227 2886.73380 3390.31828 3587.62738 3542.40474 3183.26421 2956.82379 3153.96609 3345.80326 3459.00442 3521.33198 3529.83550 3060.23281 2781.78114 2892.47914 2721.19008 2789.73207 3098.53728 3269.02717 3765.95176 4267.26683 4753.32765 5089.10396 5537.76140 5734.26050 6100.59911 6324.94222 6246.21410 6114.19985 5916.97616 6218.64420 6223.89234 6358.27925 6707.10137 6826.69347 6927.33685 6987.29119 7093.42755 7292.31709 7348.53739 7471.19923 7444.11077 7222.66983 7091.41743 7042.24427 7124.75596 7245.03736 7263.66974 7051.67731 6692.54767 6232.19757 5741.62021 5269.28395 4930.98756 4768.74536 4699.71904 4317.71003 4134.67965 4091.85361 4182.32489 4014.56306 3929.26760 4007.43235 3803.09086 3592.61119 3378.17129 3218.46829 2876.55015 2607.73095 2604.96017 2793.79799 2583.27663 2806.19947 2928.32012 2693.83139 2919.67635 3147.42458 3021.04945 2815.30331 3060.71748 3247.55165 3410.94815 3519.81850 3371.54819 3342.26700 3252.75149 3236.35366 3112.42318 2920.64742 2752.91122 2532.96931 2161.75227 1625.23713 1233.85821 962.67051 706.19382 845.43969 1169.39408 1437.37938 2083.37654 2624.29136 2688.83599 2906.48827 2988.81853 3000.99134 2966.56936 2663.00158 2658.11692 2917.80967 3054.23018 3063.67563 2945.51545 3142.49748 3233.03931 3639.53132 3704.36640 3417.61617 3624.67235 3723.92763 3865.17121 4082.03735 3957.41061 4103.17768 4840.08682 5244.69719 5615.70393 5749.79376 6071.06422 6246.92959 6334.73798 6600.10009 6855.40794 6945.71121 6809.32733 6620.49595 6812.00355 6980.28812 6833.86250 6823.45887 6917.36281 7071.02382 7336.87869 7444.58829 7561.35668 7369.15161 6848.03822 6216.14491 5768.87580 5553.21435 5292.54702 5079.77072 4864.55434 4492.55262 4054.41805 3864.96404 3937.53450 4227.57435 4025.86869 4065.27876 4165.13359 3934.08015 3517.82642 3334.82978 3282.53967 3496.95513 3536.03052 3219.80933 3133.16724 3357.84841 3764.81750 3885.75353 4107.18638 4042.58360 4008.95841 4050.56661 4192.83926 4204.65810 4056.31255 3766.01211 3487.76886 3207.69800 2938.98683 2760.19185 2909.52067 2655.76630 2603.07182 2370.67397 1940.82129 1566.22988 959.77570 574.54707 16.83389 12.43765
4.16686 25.56895 440.91274 1147.92391 1512.91700 1731.98432 1711.49672 1528.42719 1757.06724 1917.03293 2208.27000 2632.44506 2921.59338 3265.68436 3304.53287 2932.84436 2501.86294 2580.59236 2654.32751 2983.93107 3166.55162 3001.57509 2654.33757 2548.62836 2607.96964 2651.32894 2894.31090 3136.35203 3790.32439 3938.30312 4478.54213 5012.91874 5310.15930 5628.25300 5736.10428 5947.15408 5966.01564 5810.02235 5529.96449 5583.50753 5292.89117 5782.80507 6066.59316 6242.53154 6468.84649 6476.28539 6551.01006 6609.19117 6770.03077 7073.23344 7186.81968 7473.20942 7661.58800 7546.67461 7549.25529 7540.34557 7362.95857 7093.38434 6783.63346 6425.89444 6114.84425 5689.19651 5037.45808 4855.93278 4455.38986 4174.56053 3869.37277 3788.84870 3651.46170 3842.81066 3643.04236 3346.51611 3214.22400 3210.12994 2949.27985 2957.83573 2955.75316 2839.77471 2524.08947 2268.96547 2222.38629 2329.52985 2448.29263 2548.85455 2478.99668 2634.78266 2859.80885 2657.79428 2329.41341 2478.11990 2581.01040 2973.82600 3102.57115 2923.77043 2910.12287 2883.70969 2843.11267 3005.18019 2768.00221 2590.73479 2458.34840 1936.43462 1561.01074 1118.48958 732.26737 646.82706 660.73128 1032.22321 1524.27550 2105.63654 2572.29030 2956.30519 3182.53645 3421.05031 3480.59359 3469.66920 3333.38765 3430.48759 3556.88566 3414.31689 3254.68989 3425.41271 3711.17700 4001.86058 3931.90560 4039.80964 3943.59669 4142.05400 4278.56386 4283.35696 4511.48241 4419.65455 4639.77569 5113.29925 5515.30341 5986.37945 6231.53589 6485.74870 6556.57559 6648.51752 6767.31195 6801.24055 6642.87992 6271.53882 5989.55568 6187.52379 6403.25977 6416.22849 6358.90567 6457.43534 6749.18568 7118.38843 7378.09986 7544.49162 7149.15171 6746.93972 6327.18584 5669.29510 5166.07428 5014.53202 4773.75849 4578.11946 4331.08670 4027.70058 3699.71368 3575.70060 3746.67770 3738.39076 3608.03441 3668.27207 3656.40881 3358.59626 3184.61483 2945.82453 2880.09412 3059.05639 2879.87005 2731.08978 3188.95403 3450.99512 3467.27204 3627.22907 3531.74794 3462.32208 3633.10540 3727.18436 3939.31028 3769.72249 3563.84657 2980.15043 2702.78344 2464.35171 2366.00224 2422.92572 2309.86758 2106.36846 1796.81263 1765.95226 1378.91092 902.49012 516.63873 -12.86472 9.63167
21.31515 25.37800 538.97865 1055.68720 1206.59659 1349.20358 1245.47317 1187.55638 1358.17240 1609.50407 1942.68214 2433.98898 2729.12888 2971.05620 3028.02690 2752.82232 2464.30183 2138.02558 2427.14531 2650.03769 2782.33961 2555.25244 2214.79289 2166.11190 2559.68718 3023.90943 3257.91947 3556.91318 3914.90494 4421.37367 4875.87525 5109.25558 5194.07339 5200.79697 5333.30095 5466.35176 5475.78612 5370.14710 4924.76104 4932.72968 5017.63997 5409.21465 5713.04933 5980.44949 5847.86847 5939.42221 6092.98342 6153.28978 6249.44313 6606.16968 6911.43878 7343.62883 7713.31576 7767.61339 7648.10310 7405.61189 6947.26334 6444.07078 6201.11135 6005.39158 5644.43178 5261.75438 5040.56285 4745.19254 4505.36507 4201.22374 3719.95778 3588.56423 3442.48944 3439.65795 3276.48992 3159.80303 2985.68005 2932.11663 2816.89121 2612.96771 2689.86261 2552.66430 2268.96191 2224.53905 2030.53474 2025.85184 2051.27647 2170.15253 2037.58699 2320.33177 2481.73658 2295.96108 1998.08958 2053.09577 2222.30004 2289.80399 2418.59987 2277.53725 2076.37477 2302.57051 2516.02584 2521.62665 2303.09665 2071.29636 2064.91401 1917.44838 1574.43058 1016.50658 730.34828 513.36450 698.15692 1271.35249 1726.79268 2034.92228 2273.92316 2629.46321 3054.25058 3354.59173 3689.10789 3795.74099 3949.21822 3879.89959 4009.59501 4006.39446 4007.71797 3841.09876 4076.84960 4293.42032 4454.74729 4494.67838 4496.62790 4609.80057 4703.85718 4736.71033 5132.93696 5084.96086 5097.71979 5266.14661 5806.29082 6175.25623 6379.42497 6512.45985 6590.42579 6575.87381 6586.58234 6453.74303 6323.07230 5813.06152 5702.71137 5771.65564 5851.62494 5773.30201 5798.85044 5989.77758 6532.96317 6688.45466 7149.62086 7442.26893 7164.75047 6687.66313 6055.21411 5445.25335 5105.03552 4710.91634 4426.94020 4275.48462 4073.25148 3975.41578 3592.55284 3361.00412 3324.83364 3298.96435 3211.99130 3250.66775 3308.92366 2919.34989 2917.24501 2679.73845 2518.73080 2552.85239 2535.58576 2424.43928 2731.70412 2899.83299 2989.03457 3159.04059 3097.64201 3029.99685 2936.80639 3328.47640 3518.91986 3659.64241 3380.95671 2865.41881 2318.18400 1896.34711 1941.15783 1923.24332 1900.54014 1487.66213 1277.80728 1347.02280 1138.61267 799.25399 395.75818 17.64726 19.56506
5.72892 8.50301 445.82633 738.61939 867.81789 794.22386 719.27397 780.14628 1088.60743 1475.38675 1839.56109 2169.13162 2392.73506 2639.93206 2663.71070 2260.44858 2033.01485 1931.73940 2413.63390 2572.65738 2458.76939 2047.48701 2012.97235 2487.53823 2918.41214 3333.29365 3551.66306 3902.31534 4104.27557 4549.59326 4845.72752 4929.70898 4925.70211 4659.56438 4751.37441 5148.18061 5211.44901 5101.15149 4665.61326 4427.40590 4718.70085 4816.18598 5310.13314 5357.62509 5440.20345 5344.33497 5335.27551 5534.26197 5772.93704 6118.51806 6500.20917 7002.20408 7571.62060 7732.61697 7525.06946 6985.33636 6674.43924 6346.35651 5563.23730 5252.35508 5249.22956 4959.99376 4663.06928 4357.99528 4299.66718 4015.62051 3818.95843 3894.35300 3748.89569 3646.95274 3620.07877 3722.99047 3352.98704 3343.77892 3135.59899 2877.33093 2610.72659 2403.70152 2280.21144 2250.41528 2373.25066 2313.95478 2186.93060 1956.65646 1840.06437 1872.55721 2023.85319 1952.29824 1777.27633 1529.31362 1794.82922 1853.01702 1919.93650 2027.26339 1819.81020 1803.95551 2051.72921 2134.06097 1903.17570 1584.60639 1581.90257 1511.12121 1234.64476 1051.53210 590.16494 481.33913 568.27465 1210.38692 1433.94956 1625.29127 1828.82048 2279.98875 2623.91930 3076.74855 3357.03385 3526.04505 4137.40205 4264.88536 4410.50046 4438.24681 4344.43212 4331.97713 4613.01956 4612.11181 4827.73749 4806.98944 4950.19429 4966.40466 5058.93300 5093.52840 5349.36831 5448.31174 5571.35404 5798.50505 6013.87701 6111.05190 6055.73967 6206.02104 6374.30493 6296.99225 5984.90633 5776.24035 5731.15991 5480.38936 5101.80598 5276.17725 5338.76161 5302.95297 5317.72194 5647.82894 5995.21206 6498.56352 6965.84715 7324.41642 7069.39035 6651.80414 6167.40860 5637.79347 5484.37680 5123.92431 4866.83970 4820.33516 4414.85695 4020.33054 3721.68517 3406.01769 3280.76020 3190.42299 3052.12918 2895.30439 2770.26728 2729.57464 2509.81247 2369.91532 2188.69901 2098.64872 2016.58552 2116.51785 2373.70099 2568.01675 2726.94927 2722.94167 2611.92149 2479.19883 2641.50073 2784.05526 3204.49887 3232.40428 2893.80497 2573.86792 2218.60122 1793.80561 1449.38710 1286.70155 1242.90212 1079.39775 860.21085 814.45311 701.26544 538.80029 228.44177 6.31342 19.05527
9.65650 30.92367 233.87279 437.76971 421.17333 367.47124 384.88913 741.10726 1202.71792 1498.37013 1588.32570 1765.59954 1957.26664 2251.76884 2301.48421 2098.63998 1873.55119 1921.30278 2135.97021 2257.11434 2242.55604 1925.17333 2318.96822 2805.17890 3100.60305 3435.02064 3633.44460 3827.66952 3784.07371 4366.68149 4527.93372 4516.25961 4343.94122 4244.10398 4196.17319 4606.20930 4617.35797 4621.59646 4348.16946 4131.28358 4258.51446 4516.01471 4877.84205 5106.95777 4970.81307 4844.50434 5022.48410 5134.99846 5627.14158 6100.34281 6714.15971 7120.19185 7597.98182 7683.82655 7388.49459 6892.87727 6373.43162 5915.83145 5557.40315 5129.55614 4818.39767 4641.50860 4454.83704 4206.78691 4284.20064 4241.98188 4372.85424 4299.61542 4367.40537 4230.94698 4287.33173 4064.34827 3835.11412 3685.00917 3460.90155 3093.41566 2722.05441 2412.39560 2612.35598 2769.21048 2717.61296 2509.30899 2492.77540 2075.12553 1958.35924 1935.18814 1644.72667 1650.28432 1552.97701 1451.28055 1392.10211 1458.69839 1412.21216 1528.10761 1142.57620 1384.26581 1564.92240 1565.57444 1456.24452 1196.64417 1123.73354 922.78617 925.66923 723.46890 517.19587 407.88528 476.32430 789.80180 1022.71240 1302.87502 1595.79741 2125.61170 2349.77482 2647.30939 2982.34625 3419.35057 3876.59266 4336.79146 4446.54134 4477.86473 4513.02185 4527.27774 4596.87041 4559.05012 4764.76154 4765.42011 4922.78340 4851.29999 4821.93135 5088.61111 5279.97544 5398.74339 5711.79426 5892.34048 5860.21329 5794.01781 5556.36283 5594.36691 5815.40675 5774.27451 5624.14435 5181.45307 5345.17369 5030.04135 4818.90892 4964.80381 4874.31797 4884.32102 5055.04305 5359.88277 5658.59068 6343.80790 6692.91172 7305.78811 7193.65331 7014.05064 6685.63620 6120.19701 5849.80061 5387.16053 5169.23662 4786.68201 4348.55889 4188.82687 3860.00702 3919.00320 3798.09180 3618.80115 3465.08375 3075.04052 2867.99388 2868.94558 2732.30668 2398.39134 2317.90943 2066.76132 1942.79389 1915.66454 1853.39424 1964.35650 2420.33287 2468.52221 2173.47673 2252.54490 2364.32853 2515.76263 2915.98352 2875.13279 2574.82296 2176.74984 1833.27749 1379.97195 1072.36097 1027.19297 903.05607 661.96597 516.19929 397.91516 427.99206 463.40482 270.93152 3.52879 2.40846
5.74467 5.98466 223.79311 527.64675 696.35344 705.24185 456.80638 535.31202 993.84931 1252.99412 1292.97003 1222.60751 1587.07108 1865.71894 1938.08470 1909.65231 1552.28936 1550.17235 1849.46313 1874.70796 1749.37974 1754.56171 2414.77867 2837.17993 3104.83633 3145.25610 3245.43848 3274.36291 3781.56014 3987.39720 4123.50644 4014.46627 3880.99024 3701.54291 3934.94957 4140.28897 4099.75447 4241.92357 4027.24372 3733.26065 4050.92109 4486.83562 4676.90804 4643.89088 4542.24100 4743.05916 4876.29443 5155.18005 5658.11698 6082.02592 6559.23598 7104.85746 7457.20859 7657.27063 7347.22319 6997.48505 6543.90442 5953.80219 5602.21880 5253.11935 4968.59793 4782.60932 4610.89067 4425.76279 4533.03283 4721.64088 4789.31706 4939.51483 4810.59093 4747.25868 4595.42789 4271.16046 3974.89875 3675.94894 3217.07372 2867.29453 2657.69528 2680.13050 2957.00233 3273.41133 3247.68089 3115.60844 2874.84601 2543.52712 2354.63028 2344.76483 2353.82337 2151.49235 2107.05576 1822.91627 1623.68528 1373.20468 1313.06469 1211.16481 1027.00118 1109.69626 1307.25140 1146.43361 1045.58515 847.24011 748.39321 767.29212 589.86981 551.35242 432.80206 406.21122 531.49943 993.26852 1193.49792 1579.66352 2038.32208 2129.35741 2277.23234 2595.09623 2933.99112 3411.82592 3771.47537 4091.78728 4325.13816 4247.76771 4344.46781 4168.89655 4292.22718 4299.68031 4354.09132 4463.26406 4548.24920 4398.80618 4390.71576 4834.48710 4827.21196 5093.64802 5403.24675 5442.84275 5487.58336 5332.69520 5128.39059 5235.67191 5256.63136 5268.25104 5124.02259 4807.98766 4856.75646 4595.04638 4334.44008 4459.46080 4462.61765 4590.24371 4930.34606 5172.09549 5834.45975 6437.56284 6746.44026 7282.98911 7284.50481 7225.73198 6801.09866 6341.76011 6007.22839 5420.28475 5075.87061 4914.13504 4860.27453 4648.95724 4451.74206 4272.34806 4117.74003 4067.24417 3688.21071 3455.80238 3286.60211 3053.23957 2750.69513 2443.00236 2227.47020 2116.04182 2399.21541 2246.07574 2054.60197 1888.29884 1906.89670 1929.93780 1773.76594 1876.77809 1857.06799 2008.52670 2369.29655 2340.09588 2024.04258 1778.77143 1493.35213 1284.50732 965.24334 769.92161 538.46896 790.01509 717.55527 834.34029 936.06777 728.27985 510.27138 14.87367 7.77507
9.22603 13.04549 420.88276 852.40366 1133.99374 1160.26118 881.76387 578.83294 738.89100 901.45778 783.66406 914.40943 1208.48460 1259.47501 1428.22062 1545.01709 1236.58099 1290.05541 1476.75928 1420.29236 1671.88849 2020.60330 2469.30937 2764.14157 2684.20086 2600.17467 2671.02199 2932.66944 3328.20157 3419.13800 3489.87917 3581.74056 3412.86292 3347.07734 3449.91868 3693.22190 3805.17889 3747.44367 3518.79774 3537.71765 4030.07216 4386.72947 4478.46641 4418.82819 4256.00717 4820.48229 5130.47460 5466.66407 5710.73254 5967.26531 6249.12862 7027.61311 7187.53249 7631.48450 7530.64966 7113.34074 6562.12192 6033.29572 5693.08262 5423.97857 5490.32279 5346.73155 5162.39868 4664.39273 4855.79937 5095.62463 5421.41153 5518.44232 5294.62185 5039.93468 4725.69558 4334.46414 3849.09777 3351.25823 2937.97534 2914.42142 2764.23349 2985.61969 3356.14546 3566.08580 3771.63532 3514.69718 3203.28435 2986.57301 2770.94015 2813.15589 2757.84065 2509.28212 2333.21215 2139.00470 1839.85553 1682.13253 1484.44728 1215.07595 1154.59667 1142.18747 952.44419 989.23233 1149.82974 1195.15642 1146.50468 1137.73780 1191.48100 844.75792 511.16237 374.46895 553.35221 1020.85496 1419.49294 1952.24378 2346.73345 2628.62314 2726.88382 3018.95439 3420.87057 3595.23041 3801.08146 3829.98619 3815.33867 3633.74742 3802.71256 3668.24743 3531.93517 3603.71006 3693.07953 3975.54824 4049.46423 3941.49933 3773.89872 3800.64347 4202.09621 4457.13179 4937.71406 5112.49537 4976.10564 4661.78988 4506.28876 4703.66147 4868.82578 5008.48153 4704.10151 4418.30187 4501.42357 4284.75942 4045.46159 4209.38770 4279.46388 4569.49109 4865.15014 5165.55133 5850.08596 6265.47485 6732.87905 7240.68275 7415.73175 7410.54001 6982.31834 6445.38147 6161.40262 5936.64693 5673.33094 5465.28267 5123.97695 5005.97400 4820.75575 4569.28171 4317.90647 4049.28815 3806.12671 3414.37448 3208.93048 3091.81753 2611.54946 2447.51828 2645.93025 2739.13487 2777.47889 2667.96553 2358.00858 1921.29043 1629.94817 1597.28291 1442.25958 1499.78252 1545.77771 1621.08495 1878.63804 1764.07957 1671.29329 1524.17726 1069.26546 928.71932 799.99906 869.50666 1179.90032 1203.21272 1370.52891 1323.92671 1346.88547 1006.71526 627.20205 23.22676 23.50785
-7.35890 21.66638 495.26504 914.70735 1448.24440 1504.99601 1258.27615 1032.32900 729.46027 620.60057 736.05911 782.17561 843.70761 804.52362 1093.84884 1088.83750 1028.73794 1099.05415 1221.97072 1532.22907 1911.93003 2205.03923 2362.16828 2430.48299 2148.46314 2135.69786 2208.08615 2688.81506 2939.06684 2979.34602 3019.54689 3162.45201 2935.70132 2959.33059 3009.36505 3209.79159 3276.83686 3375.32245 3178.34078 3495.26954 3868.53530 4029.75484 4018.85882 3945.67328 4287.42200 4703.35083 5158.29292 5325.20359 5460.47343 5662.33008 5935.06596 6542.10565 7205.43953 7424.45435 7579.26968 7246.56630 6891.84842 6267.76380 6092.06706 6017.09980 5838.69862 5577.53742 5386.48809 5029.15134 4962.13461 5247.97058 5729.54294 5729.64740 5613.17028 5405.45062 4931.19993 4526.84455 3745.98084 3587.71218 3016.17717 3266.46310 3216.04884 3534.15303 3948.41764 4091.38556 4185.50451 4027.59942 3730.61621 3463.88545 3379.36683 3173.32080 2950.05452 2666.15295 2392.79526 2161.70788 1806.37443 1512.62900 1456.66939 1490.98754 1498.62233 1424.20497 1348.46127 1415.42654 1554.73509 1539.53326 1722.70410 1729.94302 1447.95650 1059.62486 587.92817 374.83054 455.99570 967.32787 1280.55141 2144.93992 2505.56580 2867.62148 3054.87993 3173.32585 3423.24799 3529.62417 3665.39289 3600.74914 3298.24363 3115.40516 3241.51645 3171.38264 2936.94615 3040.69831 3277.80078 3525.09015 3687.26684 3446.74133 3472.53936 3608.02396 3843.01193 4389.68252 4599.08117 4578.71733 4360.53980 4299.56805 4103.04489 4366.21811 4555.86484 4455.02812 4218.24367 4013.20236 4023.02762 3917.58172 3808.10403 4019.40329 4428.24815 4756.08730 5195.42132 5364.93739 5718.87612 6140.97634 6504.43737 7158.69647 7517.92475 7497.53012 7202.03112 6746.08477 6470.01943 6187.08380 5867.88573 5690.46423 5452.94258 5113.81002 4791.99752 4531.49421 4110.63150 3943.75255 3603.04488 3259.45209 3099.82258 2848.54486 2827.52932 3066.79337 3049.34250 3133.62996 3097.04639 2883.74843 2419.51037 1957.60206 1806.25253 1818.86592 1790.35865 1634.35540 1412.86425 1251.22040 1422.00990 1396.05572 1333.66422 996.43105 832.30064 870.42607 897.24558 1270.30816 1499.06438 1681.95043 1898.57501 1734.74759 1541.09907 976.26040 579.22407 20.65459 9.98986
17.77382 0.94862 513.77609 965.23703 1590.72733 1860.74116 1860.05862 1629.71562 1235.42662 1188.84344 1185.96575 1029.31720 1114.28985 1254.94237 1373.63717 1107.38727 978.41658 1211.38396 1433.92332 1619.34744 1799.11523 1973.70928 1946.27015 1810.37853 1728.33395 1792.62212 1962.30041 2363.31096 2556.54810 2403.61831 2554.28031 2570.46198 2576.13242 2723.92185 2777.66802 2789.79911 2987.79531 3101.21942 3068.03751 3313.33120 3632.14037 3533.03478 3557.94108 3819.60750 4164.87248 4709.99961 4851.83013 4831.55625 5233.82796 5295.48475 5781.23710 6334.69048 6818.47653 7400.39079 7726.24554 7570.44156 7276.93369 6798.07429 6664.21712 6403.86414 6250.56383 5853.73899 5562.46366 5470.85912 5537.80682 6014.96224 6040.44605 5828.79065 5682.72048 5316.69836 4920.44952 4498.53918 4000.25417 3443.36525 3183.75228 3470.96088 3589.01675 3815.01549 4264.05347 4525.18871 4587.59879 4293.41374 4079.06970 3648.45791 3457.09994 3163.50112 2831.09167 2627.67484 2302.14496 1915.33339 1722.58509 1611.98219 1769.70928 1942.01835 1881.87156 1742.97531 1752.57950 1877.38613 2024.12453 2124.13876 2108.87465 1857.61090 1384.47232 1067.11429 539.25184 364.66824 448.50119 910.71012 1497.74461 1902.95325 2392.06507 2810.47515 2886.88636 3055.53856 3027.94616 3309.58007 3268.46565 3006.14362 2715.93291 2554.92883 2796.32475 2667.37904 2547.81353 2612.83848 2905.30273 3055.40086 2991.71770 2988.56637 2998.53492 3414.01735 3753.50071 4187.74910 4294.85852 4290.75302 3945.40677 3842.25386 3833.81154 4008.87783 4038.52577 3987.48782 3819.57824 3759.97777 3675.82504 3670.37492 3925.77592 4223.83127 4424.25784 4818.95302 5230.63391 5738.74591 6091.74230 6324.07420 6625.39873 7400.54746 7606.76865 7479.95426 7106.28144 6702.69375 6353.78871 6106.88597 5831.68262 5587.39969 5366.84384 4952.94913 4436.24036 4214.47893 3901.62698 4015.29681 3735.39356 3701.33384 3587.16706 3473.58299 3323.94449 3446.62809 3535.36553 3425.97732 3256.33917 2818.07558 2371.99319 1998.49784 2018.27865 2269.04045 2413.38686 2198.26223 1789.17760 1475.86641 1207.04492 1072.34440 1040.17375 978.34384 1179.18905 1193.32923 1350.43614 1564.21546 2000.79349 2111.09724 2189.68018 1894.05973 1480.88698 1039.83403 437.17314 22.36558 -7.07359
-10.04668 11.24696 470.54330 1121.27112 1597.93568 1972.22765 2140.10751 1990.15948 1831.03546 1590.88515 1863.27449 1742.38640 1500.37396 1610.67589 1883.25582 1723.41558 1194.68255 1228.79138 1367.57228 1384.98401 1529.24328 1558.05521 1594.51603 1711.29512 2011.06894 1984.85694 2067.11506 2096.55196 2047.41716 2172.46862 2352.56503 2482.40452 2613.72411 2579.01576 2659.85701 2957.90394 3405.15020 3523.59842 3442.50208 3284.52622 3351.04744 3594.27782 3669.05452 3776.48489 4202.23585 4421.81477 4484.75541 4811.48696 4970.98954 5223.43188 5639.69675 6233.02263 6953.22055 7420.17158 7811.57683 7967.14390 7775.59664 7547.50444 7240.62063 7041.10962 6522.89376 6279.50049 5962.21809 5743.81792 5844.60740 6102.64623 6101.08978 5865.29692 5398.02469 4867.89603 4592.10699 3957.96470 3727.03325 3436.13598 3626.22802 3762.23255 4099.79579 4271.29614 4674.61217 4919.90087 4884.81887 4330.48958 4088.97477 3599.17713 3217.42513 2789.06669 2548.99561 2431.20804 2566.72933 2369.53299 2174.73684 2015.36341 2173.73304 2201.76314 2454.86464 2316.36088 2266.55019 2357.52980 2495.88906 2506.18357 2351.11014 2006.05674 1402.06472 1037.21650 676.69621 352.07653 461.70592 782.08424 1433.60641 2014.23011 2321.62063 2559.94938 2538.88296 2365.58186 2410.47308 2700.45497 2572.63686 2466.95700 2135.43470 1962.13709 2150.79208 2008.63363 1990.01252 2297.56430 2536.61244 2442.29335 2523.79501 2535.56863 3016.07754 3322.16901 3714.95258 3783.32300 3812.43468 3766.61791 3377.22746 3318.80977 3571.35641 3709.76378 3650.07194 3444.98776 3428.46287 3551.97948 3743.12122 3834.74287 4069.55558 4376.97567 4703.20377 4946.35475 5463.92410 5801.64919 6288.65495 6778.36349 6970.93132 7532.71058 7809.45174 7660.22460 7174.29199 6717.46776 6333.51378 5775.17459 5614.76380 5275.91274 4949.50697 4768.76964 4307.98016 4217.10019 4305.19932 4258.93172 4347.32691 4238.01386 4093.90538 3962.93041 3883.17822 3873.08117 3745.11593 3505.19544 3129.16665 2603.18175 2228.97554 2386.27399 2499.93598 2661.57244 2779.61728 2485.19295 2017.48202 1606.50560 1375.87835 1469.83318 1352.93194 1426.16670 1344.07550 1573.12306 1886.28966 2003.65170 2432.70430 2515.26944 2420.28764 1815.46441 1380.30618 914.68282 366.94038 7.45200 18.82196
-2.43981 20.55256 397.53173 989.39757 1396.78788 1892.02385 2280.69279 2471.92341 2317.33716 1953.49689 2282.53668 2265.49798 2089.24800 2168.44552 2175.20979 2115.81067 1667.84272 1557.86175 1479.19467 1427.56856 1564.36454 1473.73151 1603.94038 2041.13110 2320.59832 2480.44427 2470.99405 2538.58469 2341.95785 2499.06728 2499.78766 2622.30281 3002.56479 3163.02814 3130.83405 3464.88562 3654.11298 3851.18240 3818.06683 3717.60026 3472.30040 3918.79783 3931.27051 3986.71501 4264.17506 4309.95070 4698.89546 5142.19561 5302.16590 5529.20165 5823.95549 6193.26832 6940.97129 7260.87655 7967.39656 8082.54151 8021.80798 7848.42710 7610.20614 7300.24872 7144.76988 6708.61510 6576.25157 6303.20652 6274.05389 6356.58642 6072.63682 5599.81620 5206.63368 4633.88156 4160.86485 3822.63049 3697.22420 3882.70672 4101.40693 4239.47181 4654.33884 4785.33171 5122.76243 5167.06005 4976.71107 4550.61626 4004.90728 3585.12062 3023.46840 3130.22148 3029.20231 2979.58219 2887.18629 2885.21335 2701.14429 2246.42945 2602.56518 2794.46422 2847.67630 2811.22528 2837.16630 2854.92101 2823.34874 2754.64231 2427.73492 2025.21357 1332.60526 874.97009 609.57657 343.59936 470.32503 1076.73144 1509.63333 1916.98841 2213.41727 2131.08666 2111.41176 1834.06240 1963.82366 2043.01239 1880.91643 1967.24407 1672.31312 1768.73516 1609.97176 1579.94416 1907.34715 2129.62333 2239.73153 2058.53735 2181.91245 2574.76667 2879.31686 2887.98214 3152.43045 3276.55535 3363.63723 3325.44270 3069.13110 3019.08660 3106.27860 3025.03616 3068.74114 3124.88788 3289.95221 4004.36508 4092.72598 4401.55774 4573.29771 4554.49342 4960.91372 5205.46776 5609.42048 5949.44622 6392.29561 6841.89865 7433.33538 7778.88167 8028.55021 7897.45731 7282.55621 6813.50626 6425.52492 5779.00399 5380.22718 5194.94328 4849.19275 4652.85098 4589.91976 4675.84579 4952.58386 4969.66127 4832.61382 4664.21377 4247.92172 4148.85237 3925.89408 3763.15614 3487.76526 3173.01820 2879.16409 2463.29724 2506.49028 2716.47840 2876.27991 3205.18288 3079.68110 2743.61797 2171.99825 2024.46635 1822.76765 1847.74881 1778.34414 1713.73284 1582.29054 1875.23748 2220.86191 2483.87863 2757.03708 2662.58480 2359.25291 2034.31646 1284.89998 812.85382 473.08171 17.78223 11.77952
11.15548 16.04795 500.05963 868.14900 1431.32901 1821.30852 2336.32346 2650.56752 2636.51651 2677.88865 2504.24694 2856.89502 2633.09911 2487.94819 2745.02331 2394.72395 2248.55815 2163.58479 1688.02242 1728.90174 1888.70628 1824.24145 1633.60460 2196.80857 2506.45656 2805.90211 2960.27396 2987.40189 2823.51614 2566.91579 2704.26018 2867.70195 3330.25584 3549.55728 3768.06306 3634.24400 3876.39233 4215.35182 4236.02911 3809.89513 3659.21442 4194.47208 4369.43593 4450.13090 4714.70918 4994.61192 5054.39597 5569.21579 5752.76877 5892.13888 6122.68539 6586.79245 7109.11888 7392.03354 7846.02192 8089.72071 8090.48368 8040.45443 7966.93062 7667.62483 7452.04544 7153.34392 6971.85996 6850.69373 6680.50850 6455.69817 6002.84654 5470.24735 4820.50012 4365.04766 4064.17298 4046.03281 4322.86472 4370.24932 4545.38189 4658.22659 5058.21728 5098.74125 5207.30009 5293.29828 5011.37960 4546.96126 4166.40284 3396.51023 3253.92492 3374.06779 3501.29778 3714.46078 3594.92978 3337.03003 2866.21019 2894.85358 2990.28136 3286.47033 3303.54690 3273.26674 3203.24582 3285.14590 3101.38890 2795.86057 2252.21446 1765.35156 1190.95343 757.26386 426.56820 319.40052 538.14212 997.20398 1397.36310 1735.18784 1864.77189 1694.28239 1489.20491 1348.52855 1494.25894 1560.37527 1446.47963 1384.84892 1343.82569 1273.55516 1322.86258 1369.64261 1637.57754 1641.59948 1750.09699 1761.81975 2105.82205 2388.15962 2338.05193 2367.56045 2684.79340 2744.33166 2938.84344 2967.41450 2696.08865 2810.23068 2866.95833 3030.63625 3152.96068 3296.86901 3662.23273 4080.46820 4539.37293 4716.09959 4884.91736 5032.50282 5140.38207 5628.69221 5937.48244 6218.01872 6655.40262 7058.63291 7573.42358 8026.52869 8151.27421 7979.65689 7605.69836 7061.74672 6286.68959 6057.70891 5677.36599 5419.23302 5108.16610 5001.82058 5085.00135 5327.31737 5362.35494 5370.47801 5091.92052 4763.00936 4232.07776 3874.29862 3447.94017 3222.59973 3181.58363 2898.49352 2604.36020 2626.87270 2925.96473 3050.96568 3366.10668 3479.78059 3285.73419 2860.22946 2369.33906 1944.62429 2247.95512 2328.59107 2350.69113 2234.73692 2118.84439 2124.97543 2652.37907 2819.02623 3021.31927 2909.84187 2599.85935 1966.14958 1426.41110 1077.50766 533.00451 15.37016 5.32929
-1.05119 28.06037 632.49037 988.80304 1487.75823 1997.72187 2397.49460 2773.09063 2970.55035 3036.28578 3135.80345 3213.68658 3167.80921 3069.93448 3075.34808 3053.52662 2834.13080 2633.49554 2134.24740 2090.67212 2346.04601 2187.14278 1764.87456 1997.12983 2553.24072 2850.48175 3191.12213 3291.88333 3185.15683 2966.78054 2871.05236 2963.54181 3532.43798 3849.76322 4109.33362 4127.93402 4390.30723 4558.94982 4585.94613 4112.95418 3944.51020 4120.39199 4667.28220 4808.57499 5108.71777 5361.10656 5462.05723 5747.64889 6114.64251 6278.55113 6746.96310 6911.39166 7328.28668 7603.35802 7671.37591 7753.24135 7814.56170 7928.39043 7989.70814 7944.47567 7739.54283 7631.68145 7452.05453 7295.39602 6875.08231 6311.50123 5785.26932 5350.40451 4691.98233 4310.13542 4175.72627 4466.40439 4585.46202 4769.34070 5022.79833 5125.98750 5319.45102 5642.12190 5572.40474 5205.81122 4906.35145 4366.91448 4094.18868 3394.96962 3563.86286 3827.28679 4052.48609 4173.10487 3978.13721 3714.87860 3583.66236 3362.59646 3438.63854 3698.33053 3981.61975 3874.76935 3740.31748 3495.41408 3143.38145 2690.61404 2201.51713 1638.37578 1364.90958 978.84137 503.09429 323.70111 465.50139 830.67144 1126.82802 1303.24227 1374.46176 1241.18176 1085.85646 937.15048 952.15226 944.60959 1003.86872 1204.51519 1566.22470 1520.55571 1664.82989 1785.25694 1829.44259 1890.63863 1736.06916 1776.84475 1833.79120 2114.42749 2025.63385 2079.25525 2202.10370 2279.58829 2429.89416 2568.72352 2808.27202 2951.07347 3270.47702 3423.58006 3466.64955 3327.38035 3648.96973 4084.40915 4596.60417 4858.21145 5176.11040 5372.62599 5755.89105 6008.64323 6236.42579 6494.60164 6908.68162 7256.56122 7796.84921 8068.53886 8086.43881 7889.19783 7629.13708 7063.97322 6607.20808 6488.03475 6126.30415 5937.42128 5585.87636 5571.58949 5535.68189 5823.75749 5791.64109 5618.00737 5031.42854 4657.08248 4194.32684 3941.25724 3714.48358 3352.43787 3041.36394 3010.24276 2942.50689 3038.13298 3340.60655 3659.54871 3735.09110 3510.72775 3157.13840 2772.79927 2321.27201 2285.03710 2700.26320 2845.73092 2732.04272 2467.69306 2502.47093 2868.92669 3003.80916 3305.88844 3280.31919 2983.49315 2492.33760 2078.24910 1536.02618 977.18850 446.82890 4.08259 9.10880
18.41655 7.83566 607.70593 979.17937 1539.94226 1984.49085 2273.02505 2885.15092 3185.07438 3396.05341 3548.89613 3655.26341 3656.23727 3625.21117 3444.51037 3434.62502 3203.88616 2831.11374 2629.86062 2796.70965 2708.49000 2466.33715 2083.47735 2011.58862 2281.82016 2834.02285 3215.40226 3523.62402 3615.93801 3329.51254 2957.58581 3220.12277 3532.14254 3823.61545 4381.45493 4671.80701 4861.40568 4974.97620 4927.92788 4733.80213 4308.84150 4533.86575 4647.53037 5004.48469 5487.02019 5770.80391 6154.52628 6483.87646 6648.17802 6882.01200 6969.68256 7269.70706 7438.44477 7449.51971 7252.90707 7172.93838 7286.48573 7425.75647 7690.67013 7836.73371 7743.62701 7690.66685 7557.92760 7315.43167 6928.07659 6315.03649 5665.00628 5275.97709 4947.92629 4505.66139 4457.02585 4835.31198 4994.82473 5267.85827 5457.61200 5624.22701 5932.74263 5779.05063 5525.28742 4996.22585 4520.54264 4080.74400 3957.72540 3869.56873 4271.23216 4328.73496 4350.54243 4517.43432 4542.84900 4254.80920 3947.48859 3889.61321 3988.89473 4311.40866 4217.11986 4147.64498 3906.57455 3463.27951 2959.95303 2563.27931 2229.89503 1874.99039 1290.72028 842.77277 427.53953 278.94776 401.24126 461.20471 665.80200 922.72095 985.34350 737.97667 817.11031 1037.65722 1197.75844 1275.67109 1247.95772 1252.61815 1789.51783 1876.86693 2138.94731 2321.29116 2463.63217 2327.78618 2229.03461 2271.05756 1942.81290 1926.49458 2211.35643 2424.30055 2438.39216 2588.22463 2610.67467 2625.61136 3006.49415 3261.32137 3698.65252 3879.41304 3879.67013 3568.91996 3805.79693 3841.71429 4315.72441 4784.81461 5142.68622 5311.32880 5826.44432 6246.07547 6733.80206 6959.51517 6948.66799 7557.69445 7781.90337 7772.60639 7633.71685 7613.49476 7473.44822 7315.18511 6974.74370 6859.51716 6469.66967 6007.06776 5914.10358 5953.79329 6121.72343 6056.74365 5904.22700 5599.79075 4983.67572 4359.33094 4256.11348 4270.75325 3973.93398 3607.75089 3412.96376 3509.06124 3286.26166 3370.75219 3832.97970 4096.19075 3972.89528 3745.03391 3270.79063 2885.47157 2634.55808 2839.24073 3143.50686 3276.96166 3143.32453 2934.47186 3138.00288 3198.51795 3436.60144 3482.01314 3298.38854 3050.66283 2327.79675 1957.23805 1273.28948 886.73562 409.99472 10.32930 7.92221
31.02568 18.15748 553.00531 929.26897 1353.54055 1774.44196 2358.99847 2819.15809 3114.40444 3478.23094 3520.72514 3675.08928 3741.06303 3807.59695 3847.19756 3700.34388 3573.80081 3331.08489 3213.36757 3240.46275 3064.25549 2669.17195 2356.71983 2281.09831 2304.49553 2608.84267 3271.72068 3602.00140 3794.39159 3830.13059 3463.21144 3553.26160 3748.76126 4000.91381 4370.15418 4846.15776 5248.39184 5457.85014 5281.74689 4945.65705 4726.46784 4932.66772 4997.93217 5457.43490 5908.35397 6279.63755 6413.21584 6774.40946 6918.44403 7072.54135 7146.31631 7282.11772 7342.76053 7122.41487 7066.51753 6631.98856 6781.35527 7112.76043 7357.03210 7313.28059 7290.26396 7374.78183 7311.48266 7100.86756 6847.92541 6468.43777 6052.46295 5514.55565 5147.64817 4897.43557 4857.47129 5067.97838 5196.24332 5661.45069 5983.16167 6284.89209 6183.10363 5956.26747 5596.38717 4923.95198 4592.50349 4391.34511 4547.30105 4614.48951 4680.98397 4864.21209 5045.07178 5045.45230 4780.52629 4554.10649 4237.20510 4249.65465 4323.63145 4403.85387 4445.76664 4225.98593 3765.47136 3143.47857 2646.98507 2198.72397 2004.41052 1560.09577 1366.39942 916.69482 451.52203 297.56719 427.14527 664.28197 811.85780 738.89581 714.75491 754.88387 1030.72580 1422.98830 1561.87281 1600.52630 1829.86310 1598.72943 1799.15386 2198.74719 2428.40612 2569.32421 2766.01418 2895.20104 2675.93161 2528.84114 2247.99011 2010.73853 2168.10754 2326.58126 2614.43469 2827.47261 2931.60783 3046.53867 3325.14610 3703.42201 4008.12148 4224.33262 4211.73526 4079.77189 3959.01492 4165.18155 4211.78629 4532.39160 4892.22829 5270.77448 5890.96004 6389.83497 6909.06080 7179.97855 7476.63416 7659.99858 7724.45650 7368.93980 7218.40942 7109.69091 7224.56192 7286.62936 7242.83589 7205.27425 6915.85035 6667.16402 6394.85461 6309.68481 6559.36300 6406.09011 5911.28899 5367.31312 4882.71837 4544.75088 4606.80399 4506.91422 4033.46122 3713.75841 3862.13083 3921.06454 3665.03369 3904.85638 4289.31896 4552.52297 4363.96635 4016.49732 3360.91914 3096.63423 3107.38871 3273.10316 3449.95989 3793.19046 3828.68891 3570.01827 3435.46171 3645.84460 3729.21613 3535.58691 3303.91922 2842.62256 2277.26929 1937.93509 1351.74336 935.52779 426.70942 3.30816 2.83293
30.64516 16.01630 582.17328 941.08412 1184.36032 1931.68853 2160.33814 2631.82850 2691.77558 2781.13804 3150.20402 3319.18505 3406.05529 3596.12041 3853.92588 3935.86544 4087.45322 3928.78375 4107.64414 3657.14251 3323.46314 2859.70536 2748.54084 2728.60388 2688.38700 2689.01049 3207.44420 3703.89233 4023.09110 4046.48021 3788.04920 3588.48629 3859.82734 4211.03982 4719.48459 4882.45355 5293.93354 5760.07683 5671.00836 5627.37707 5308.64128 5457.60350 5721.52908 5705.84243 6320.11007 6647.01139 6840.75170 6845.90283 6688.41041 6713.52732 6758.90029 6934.21112 6980.12751 6663.66403 6321.97824 6091.55431 6330.29586 6792.13376 7037.35975 6934.97946 6922.18731 6952.82308 6925.25368 6778.87389 6791.08321 6656.43122 6388.88359 6048.05138 5399.34922 5153.73217 5124.06940 5469.27959 5679.72822 6027.40189 6375.09802 6624.91247 6333.27867 6073.16136 5610.97181 5132.94268 4858.78409 4747.64866 4865.23386 5034.20552 5012.52264 5269.56206 5291.63026 5071.88002 4840.99519 4592.73829 4353.44328 4209.20866 4141.52765 4184.24079 4234.25848 4124.14399 3831.55987 3228.83326 2561.88332 2018.86957 1654.01807 1257.48434 1087.92513 830.70303 314.87301 289.90144 450.88784 875.28846 1018.53787 1356.09354 1457.41582 1340.79071 1394.81213 1561.36628 1890.73146 2035.76850 2151.94262 1979.38182 2047.40833 2512.70608 2813.00379 3230.21416 3285.61238 3349.26449 3016.08181 2894.00007 2590.62198 2238.67431 2407.40580 2640.39695 2669.46924 2743.04833 2979.81432 3268.64060 3670.80333 3897.14368 4576.38029 4718.51971 4610.98922 4428.35299 4497.93312 4501.29906 4830.60663 4980.19500 5001.23149 5500.13006 6049.20290 6654.90425 6822.21346 7460.96530 7655.28851 7524.69887 7359.62124 6999.58539 6689.47726 6594.26344 6791.72604 7112.43162 7221.10290 7421.57196 7286.29199 7031.61295 6841.65110 6851.48490 6791.55249 6390.22221 5845.07144 5341.16518 5184.92883 4917.54840 4989.33603 4738.54017 4408.63439 4161.35831 4429.19976 4400.45665 4205.67759 4296.64962 4602.32469 4772.97986 4498.23184 4192.68890 3851.37107 3685.41904 3715.01548 3840.50044 3904.62754 4182.40685 4162.83087 4098.20161 3966.62140 3840.12427 3578.44960 3282.94481 2947.79063 2729.71719 2298.55911 2043.38370 1432.77123 918.86307 530.25555 22.19566 11.32500
14.92156 13.00511 546.91814 1167.80353 1406.85696 1880.19940 2082.34825 2108.29845 2324.65593 2492.02323 2598.28835 2970.37214 2996.44075 3156.53143 3788.63737 3904.42801 4123.00620 4251.34036 4194.61602 4179.07344 3562.31670 3356.57688 3077.87877 3227.28800 3184.34211 3028.93279 3120.67176 3694.80784 4151.08752 4303.42813 4271.33232 3991.57704 3968.73489 4441.11404 4781.94113 5182.18000 5472.21255 6138.34996 6252.36943 6146.14948 5924.84432 5960.81432 5966.77564 6411.62675 6750.85890 6913.65475 6773.52470 6580.49267 6254.62492 6141.05640 6387.55292 6483.82018 6582.95774 6293.82527 5988.27265 5852.43504 6218.47746 6515.79840 6641.04483 6391.90340 6310.42984 6448.74433 6408.62948 6287.10513 6319.23434 6519.93451 6508.61664 6336.04968 5985.20338 5726.45198 5660.25307 5795.70031 6192.29985 6405.88537 6808.22915 6979.11252 6753.73088 6295.06519 5935.18934 5535.40920 5262.65528 5437.43574 5410.10958 5449.04294 5446.36029 5333.17067 5215.03774 4803.91225 4553.29690 4084.83072 3832.71524 3718.23917 3799.19120 3756.96754 4017.31205 3934.29417 3482.31259 2978.63412 2338.79717 2018.07154 1575.08676 1225.15627 1019.57402 700.57712 397.88309 288.30553 484.30164 915.17007 1366.83398 1766.19132 1834.47296 1815.12439 1893.17571 1977.18286 2123.50516 2608.29696 2624.45171 2454.20713 2461.54760 2773.77314 3374.26709 3663.15081 3736.83191 3680.83475 3519.51208 3367.10978 2978.03079 2735.77280 2660.59454 3131.71515 3233.57519 3176.09715 2905.36486 3073.34244 3461.32108 4076.15191 4522.43175 4797.26787 5116.65386 4943.43535 4818.67231 4795.95862 5036.95865 5173.11639 5527.51862 5919.86286 6254.08935 6905.06916 7297.54432 7364.56101 7341.30303 7262.15586 6892.53458 6632.65880 6260.94311 6100.77716 6317.17164 6541.99857 7073.88192 7499.59026 7535.99399 7457.80727 7272.15912 7061.87193 6959.01386 6484.30302 5990.95489 5911.06871 5708.82363 5589.55121 5395.45465 4934.50718 4538.57251 4541.67066 4716.84714 4818.68825 4722.42772 4770.47891 5037.83561 5099.85014 4759.55544 4570.87762 4345.43910 4237.69361 4290.52780 4303.14934 4325.95367 4468.41584 4504.38577 4387.31174 4224.59039 3841.01003 3460.47012 2889.10715 2642.87574 2207.51131 2039.42457 1655.53208 1305.34415 913.43876 425.46519 10.42924 16.99233
5.63348 -0.40055 684.95558 1149.07189 1406.14559 1662.61796 1711.62284 1723.38456 1681.65368 2104.25613 2358.15917 2401.89138 2477.91413 2744.57871 3204.33789 3707.26732 3914.67822 4261.76714 4476.07508 4324.36537 4212.53179 3753.05992 3482.34477 3606.63350 3473.66872 3363.60068 3260.46918 3784.14530 4274.15245 4656.19609 4708.59436 4485.76477 4424.56314 4496.84516 4878.92673 5377.30911 5869.48933 6248.39136 6589.49701 6559.56013 6575.24730 6360.70945 6680.28816 6828.30364 6971.79667 6987.73476 6650.70982 6216.60042 5644.10132 5578.11147 5664.59095 5965.51527 6250.04814 5976.08083 5843.40726 5487.39661 5932.69080 6139.42759 6182.71054 5937.87149 6079.22647 6046.63203 5895.47768 5811.81522 5956.25770 6246.64275 6542.79376 6580.04851 6353.28855 6118.04051 6198.66362 6400.10462 6661.18460 7072.56657 7150.42078 7170.43190 6915.12708 6574.96694 6161.27918 5946.58205 5864.36701 5764.91785 5673.78056 5530.56663 5369.02057 5209.86132 4793.37554 4463.62229 4161.59359 3782.15125 3374.01831 3154.05658 3159.97016 3291.98726 3439.94613 3659.07865 3471.66791 2957.18302 2553.59443 2080.21634 1981.58518 1701.57781 1323.00848 943.42120 424.28919 286.58957 483.05986 989.88439 1501.95850 1898.08399 2223.99758 2414.96542 2551.76959 2557.26033 2585.34393 2855.70734 3090.86962 2982.07463 2943.34750 3343.62020 3625.25789 4037.17201 4211.47273 4094.06460 3914.79332 3685.70502 3329.05962 3102.59240 3194.75681 3631.33553 3671.85724 3550.51441 3201.62870 3247.56790 3483.43523 4013.58715 4440.90372 4881.58885 5187.59508 5332.60099 5231.02986 5267.03359 5415.12747 5666.86049 5849.15763 6410.28930 6711.33739 6949.29683 7095.33149 7073.76346 6894.39800 6868.36018 6609.70791 6114.50538 5763.80252 5695.20935 5914.09104 6325.48739 7046.16595 7297.33322 7378.56236 7188.71086 7229.78923 7212.75971 7068.65262 6790.79310 6639.49339 6325.02990 6379.93229 6117.24924 5709.62265 5444.37161 5148.78896 5067.70025 5160.82904 5075.22725 5295.66042 5238.80186 5446.22090 5392.45521 5187.91571 4979.10745 4748.02113 4649.10639 4554.78024 4273.41319 4253.29237 4336.52386 4418.10928 4336.16304 4091.88764 3823.71587 3159.58791 2649.46103 2234.86832 1751.04074 1551.87600 1529.28972 1188.01817 823.32994 473.64168 4.65902 -1.03319
8.20506 22.91141 459.38043 976.42994 952.46098 1116.41216 1278.54540 1138.67841 1354.58790 1596.46672 1906.83096 2009.69482 2194.13198 2554.05285 2876.29068 3214.00530 3579.72033 3901.28512 4371.85326 4596.98527 4566.53440 4235.92849 3984.24425 4121.05314 4041.40048 3863.66508 3429.35600 3626.81084 4328.69352 4680.83048 4942.37769 5011.26184 4588.77601 4844.03477 5131.75040 5584.17824 5972.73969 6455.43559 6898.08338 6939.71140 6865.02655 6621.02017 6681.45506 6834.18980 6993.79185 6829.04053 6627.92343 5975.47514 5507.77217 5065.33597 5246.82208 5512.20416 5718.59329 5686.64451 5384.89393 5194.71165 5739.32161 5936.05299 5760.45639 5446.04110 5689.15676 5767.30136 5385.82121 5225.82027 5305.25640 5688.69073 6253.01755 6611.19478 6754.53044 6704.47444 6635.50048 6851.62357 7141.69497 7308.67866 7330.31517 7141.93005 6864.05210 6506.34765 6236.07803 5946.52958 5765.44499 5440.37446 5384.67152 5299.76472 5009.81557 4925.77492 4613.89622 4147.22328 3655.55859 3333.32896 3124.36792 2711.61627 2460.67770 2707.76179 2950.75444 3253.23791 3296.05331 3056.29867 2798.64391 2539.31303 2231.94499 1870.56307 1300.26272 982.72902 583.62498 273.20328 472.27468 760.53278 1502.38504 1823.43377 2356.48941 2609.48484 2926.56784 3079.33794 3307.59535 3466.78968 3534.07925 3631.34956 3537.01516 3751.96252 4191.35245 4282.08721 4495.34236 4535.69688 4391.02633 4102.80331 3903.18829 3671.87768 3729.58870 3937.86550 4003.17242 3916.80653 3708.84078 3480.49158 3803.31293 3992.91634 4145.10783 4821.63797 5069.02124 5487.10808 5648.39871 5876.67707 5865.36235 6162.57588 6476.55646 6650.71275 6993.26323 7074.76201 6834.93545 6490.81547 6468.61305 6407.30631 6257.74186 5859.40628 5431.02609 5405.31784 5901.18427 6332.06280 6766.32662 6986.28048 7011.76854 6901.12623 6955.25229 6957.93257 7060.96865 6985.63937 6893.99815 6768.88891 6697.00892 6526.97703 6040.96828 5808.15716 5773.13004 5651.92063 5726.93788 5820.59673 5733.41749 5520.86760 5505.89295 5376.09884 5185.19960 5077.78793 4950.11565 4779.36512 4263.83910 3930.46227 3854.09563 3976.74987 4087.03828 4041.76523 3859.48091 3498.77392 3209.21687 2525.20368 2259.12820 1763.77610 1441.55389 1227.48341 912.06637 644.46786 372.77574 14.68234 20.40220
26.45813 11.33975 320.92284 563.73697 801.65252 937.47106 902.60899 1178.31971 1352.08033 1480.17216 1604.39768 1966.69533 2088.36047 2251.65549 2580.13862 3022.31798 3181.41664 3777.29063 4464.49725 4768.66793 4844.43522 4670.94038 4477.79702 4658.64342 4527.18502 4079.26390 3799.95923 3847.56665 4182.14285 4672.49872 5213.60834 5417.53865 5209.32112 5326.55484 5428.50664 5951.59569 6396.47652 6755.10207 6987.78260 6977.81218 6763.15166 6398.46664 6313.36043 6622.57069 6587.60402 6570.18475 6365.46974 5808.54403 5458.86113 4837.96551 5078.98439 5067.90759 5255.28397 5276.23645 4941.13926 5153.34487 5487.72266 5734.35581 5330.62452 5038.85361 5415.86541 5369.86724 5287.89030 4824.51658 5089.38485 5657.81478 6129.51350 6637.68114 6838.07182 7008.41908 7008.10119 7092.58956 7322.57675 7415.53964 7349.44069 7025.17238 6361.07474 6015.67627 5926.11199 5716.44768 5215.15154 5021.84458 4773.32360 4464.94603 4420.59241 4440.07118 4408.97555 4108.86482 3763.59241 3181.62101 2805.01424 2345.55726 2227.44562 2386.07695 2606.29558 2849.72589 2946.15888 2820.93954 2692.84062 2579.93699 2271.74483 1966.75700 1342.54712 863.30996 403.22939 249.46145 353.15870 997.86326 1340.70708 1846.95760 2225.68060 2562.69078 3063.05943 3433.44257 3532.29517 3660.30656 3844.48874 4026.08949 4115.78056 4184.40990 4301.56571 4479.58084 4689.69236 4703.41443 4666.50019 4645.78813 4286.78305 4112.96922 4322.45914 4552.99374 4614.17647 4305.50912 3909.48837 3834.57008 4091.61945 4385.18995 4536.49388 4900.14301 5259.93085 5653.17229 5888.04261 6202.80446 6315.61237 6619.58387 6951.57140 7129.34523 7080.49162 6909.00699 6466.80239 6166.91522 5939.82084 6002.25959 6011.11213 5667.09901 5377.82569 5445.25860 5832.06988 6234.11377 6553.76583 6540.89771 6368.17598 6318.97503 6431.49179 6659.47181 6609.90799 6474.20896 6724.16143 6831.16224 6795.53614 6783.28701 6521.13764 6390.75777 6232.52500 6148.14447 6004.57773 5899.38434 5676.31535 5327.74469 5142.53268 4892.59241 4708.92860 4828.99217 4668.55921 4426.64161 3955.42103 3463.77297 3313.81307 3252.31142 3523.86667 3523.89964 3319.21550 3312.81021 3256.04496 2995.75744 2700.06615 1946.73413 1802.03315 1372.13635 879.62257 691.31432 345.60981 8.18945 12.93453
5.76037 19.38258 252.10970 511.72711 603.53356 925.95863 1123.50149 1514.32776 1750.30877 1756.17387 2030.97906 2360.05798 2714.60693 2599.07088 2599.49189 2865.45637 3203.07590 3689.09542 4341.52511 4781.58595 5073.20833 5090.04843 5007.91842 5062.90298 4786.15281 4623.53505 4374.61300 4326.98409 4459.43908 4918.74679 5347.92186 5667.62260 5744.30304 5631.63045 5829.29940 6252.65389 6777.11381 6986.86543 6886.34713 6637.93205 6426.18004 6296.32142 6092.69191 6052.19809 6275.16527 6134.30530 5815.27457 5521.01776 5242.27147 4369.77466 4453.32106 4725.39105 4727.86981 4703.88122 4516.02169 4941.28381 5330.12815 5598.86031 4996.41686 4633.26862 4939.29463 4919.83200 4703.45084 4509.98333 4957.80882 5353.95715 6016.28963 6383.51206 6769.96224 6901.09027 6823.55625 6827.46834 7081.55650 7198.96548 7120.14462 6838.04422 6280.96874 5671.85534 5282.81036 5199.56939 4782.40218 4611.67926 4397.22148 4031.33457 3936.57974 4058.69643 3981.57875 3946.50276 3667.53932 3365.44148 2865.00355 2419.75872 2042.66164 1982.67025 2199.22200 2321.20430 2457.19513 2267.16585 2257.00316 2236.44139 2128.40922 1819.10000 1311.39752 806.68306 443.71181 293.98500 448.67548 849.83997 1399.35857 1579.38875 1954.07960 2516.17607 2894.81969 3507.71777 3708.42383 3765.10432 3994.86342 4085.63603 4125.31830 4094.64586 4165.49968 4259.28331 4221.14026 4388.73665 4573.07356 4677.72088 4784.05176 4724.58245 4714.18953 4944.16637 5047.54113 4772.81631 4277.39417 4256.68780 4533.83928 4828.72648 4907.68508 5154.74811 5639.98701 5893.04478 6349.25781 6566.56278 6882.23444 7121.01608 7182.40978 7102.88653 7063.79942 6504.05479 6236.21995 5838.09260 5441.24528 5591.24300 5653.05725 5108.52056 4881.98334 5163.38989 5708.51997 6143.02843 6359.89453 6283.09128 5912.36890 5676.52086 5954.99759 6078.41373 6084.34394 6117.00989 6384.32399 6466.32243 6714.94319 6895.40667 6808.86919 6644.26367 6463.71915 6093.52699 5839.13638 5575.56968 5290.72553 4999.11742 4623.52492 4446.64656 4218.72904 4309.77733 4377.82952 4122.07053 3640.30608 3098.88715 2916.40724 2686.17871 3041.58580 3113.53222 2845.50806 2895.07183 3079.51578 3046.09864 2727.39372 2443.88921 1922.21495 1594.30654 1128.92732 915.76399 465.85215 -8.14864 10.07577
15.70459 16.74648 449.56147 816.98927 1051.15526 1144.68918 1495.82620 1960.75776 2093.23337 2194.38621 2362.65206 2875.99768 3146.09963 3106.33693 3216.61563 3330.85858 3482.60555 3805.39272 4315.53202 4850.99503 5244.74479 5382.92364 5351.09213 5310.88369 5324.57701 5028.54805 4841.59939 4717.43878 4742.85374 5023.33111 5443.01332 5891.32024 6213.21534 6236.84479 6348.96924 6698.39425 6788.60469 6918.40910 6726.00648 6236.38150 5858.33888 5247.65972 5439.22098 5661.27495 5703.39083 5717.15030 5676.70358 5422.59559 4738.23914 4317.64277 4134.09490 4387.98842 4379.86130 4244.76254 4328.11406 4954.92948 5244.28628 5339.80866 4949.42185 4421.44636 4582.85372 4587.76353 4326.84607 4599.43593 4951.84999 5472.13134 5885.68264 6325.37164 6409.00244 6373.25545 6297.57763 6340.60648 6620.34243 6789.83809 6986.88083 6664.81422 6291.44162 5510.42802 4938.59878 4569.91305 4351.54954 4108.06513 4017.05163 3734.86514 3369.65892 3521.54813 3686.15327 3591.17473 3425.93583 3298.90280 2938.11035 2474.74354 2045.67281 1692.45205 1818.86609 1983.32865 2000.14840 1698.82587 1646.19070 1755.50293 1880.15314 1851.32571 1381.52372 859.37036 485.47038 266.24768 419.97386 769.51448 1113.77890 1391.13314 1858.87868 2611.23436 2934.51573 3235.07723 3425.07048 3513.73725 3543.21758 3741.57254 3630.87791 3651.61212 3550.27512 3726.96409 3887.19029 4058.58230 4013.95770 4691.40243 4769.09277 5001.21330 5222.92128 5338.16570 5496.43939 5070.89683 4670.21009 4613.46507 4863.55507 5379.37301 5470.72089 5671.69538 5892.82490 6293.06458 6522.61427 6668.79012 6893.48903 7159.97940 7215.10430 7017.82331 6729.92757 6194.03771 5832.56473 5431.09621 5178.54647 5343.16149 5007.44627 4829.43486 4664.94574 5089.23238 5518.16366 5974.70397 6093.17958 5830.93823 5462.75373 5320.93666 5494.01765 5526.99757 5533.84937 5567.07770 5667.26956 5923.63520 6360.71829 6751.38425 6763.39181 6543.80250 6196.37054 5685.27317 5610.90247 5210.45021 4945.53043 4520.25767 3956.22750 3918.40150 3716.99424 3713.32146 3909.13144 3684.12071 3323.85192 2867.52415 2461.32143 2487.28877 2717.30829 2655.28014 2339.95708 2403.92818 2637.45795 2797.59317 2704.13819 2487.63422 1942.46025 1688.44458 1142.88833 956.09023 429.86338 3.37880 7.10407
5.18298 3.24285 648.19455 1068.55156 1464.55046 1605.07168 1970.27034 2273.48035 2656.27498 2637.85671 2768.54750 3221.33669 3284.84920 3630.90577 3665.46018 3742.79941 3916.64494 4123.07699 4593.32062 4872.24289 5089.08881 5312.35723 5385.82538 5413.81746 5424.94318 5382.75713 5208.35866 5221.41777 5097.01646 5410.10856 5825.50095 6188.61712 6395.08597 6561.83989 6585.39932 6540.23165 6759.91885 6706.81249 6574.32878 6146.87657 5554.00360 5039.38587 4934.50999 5299.12836 5174.52652 5263.78481 5364.46269 5218.82866 4613.08911 4170.32006 3848.53935 4061.80127 4039.63201 3911.09813 4273.30374 4846.08083 5374.06357 5272.81208 4890.69531 4538.99340 3951.89753 4098.88724 3982.46252 4538.55068 5058.86756 5640.85323 5890.05748 6121.02164 5958.48773 5783.44523 5765.13067 5669.51556 6012.27665 6293.74940 6624.10683 6567.04645 6243.96312 5554.68430 4899.71122 4396.13920 4011.15892 3740.51294 3532.66008 3395.29205 3014.14873 3176.00776 3107.84271 3077.85215 2916.10156 2889.08873 2811.21071 2349.69256 1883.43578 1593.63892 1321.12477 1388.65508 1433.93676 1359.36049 1263.12885 1415.66058 1518.54294 1672.58895 1516.43402 918.89537 381.95780 214.05887 391.39151 773.02329 1082.30606 1535.52071 2051.59937 2244.37175 2690.25824 2857.75752 2886.05120 2793.44695 2971.41079 3053.92101 3273.94144 3252.94612 3128.45232 3143.93327 3344.76836 3519.92512 3739.25418 4098.76088 4722.15065 5057.54376 5445.25545 5744.90041 5801.39271 5504.41014 5226.86121 5425.22306 5381.31098 5817.37548 5994.47903 6117.70227 6270.66548 6348.06504 6507.40717 6567.50547 6615.67177 6758.58757 6837.67246 6790.42687 6446.42927 6182.29330 5762.13312 5216.28789 4661.40227 4900.76722 4896.82297 4491.28469 4469.67320 5071.22899 5401.24029 5891.92703 5952.12576 5696.36612 5251.56454 4971.21256 5205.64240 5207.11535 5102.51531 5047.29448 5242.84422 5607.34335 6179.05375 6475.46276 6591.11918 6299.45266 5694.87007 5391.94146 5092.70620 4780.07848 4543.37606 4247.92949 3781.71028 3483.54280 3304.03620 3441.14591 3349.50364 3256.15812 3132.41706 2766.35675 2263.15276 2068.22284 2150.37653 2098.27725 2045.99366 1856.71185 2219.78514 2453.38035 2414.96975 2355.79217 1880.34111 1504.01570 1202.01067 703.76671 428.61076 8.83993 20.88392
23.35923 8.26279 459.43452 1117.72369 1583.60691 2026.77357 2353.15950 2574.46449 3009.47794 3135.77013 3251.02985 3725.06440 3901.62452 4127.95544 4091.34962 4234.89124 4327.06584 4352.61490 4568.56617 4540.81910 4684.58368 4880.27893 4914.31793 4996.86656 5041.74951 5293.81963 5342.37942 5471.81691 5547.49969 5858.25579 6134.35856 6381.99466 6317.57943 6275.64135 6186.74755 6172.35665 6154.13786 6452.40735 6007.27400 5823.60293 5521.56292 4942.52793 4543.88104 4469.19288 4714.87071 4940.20396 5189.75569 4997.04343 4474.37166 4029.91414 3630.85467 3702.30560 3593.36184 3723.58709 4472.17411 5008.45065 5352.57400 5254.89994 4829.13875 4329.86996 3900.60111 3650.76686 4107.14499 4555.93231 5186.94895 5611.53065 5797.28106 5787.70739 5561.91990 5205.64384 5149.56300 5251.86383 5575.75254 5879.70700 6476.80683 6578.24685 6202.89791 5666.15720 5162.00783 4590.86598 3946.06778 3660.05851 3277.61272 2996.75262 2883.49903 2599.32191 2656.20784 2501.21304 2484.84335 2350.64890 2126.43465 2164.56276 1904.40528 1552.27841 1392.89853 1417.61233 1228.89407 1160.11371 998.29840 887.69841 1174.96078 1371.40885 1247.55908 968.66214 321.73406 245.37845 310.51936 868.53159 1151.00437 1669.24041 1959.79980 2144.82036 2294.92930 2284.00567 2304.42147 2450.04844 2551.10906 2589.88249 2687.27117 2719.79093 2686.46913 2829.88720 2946.38487 3293.99166 3562.27463 3968.08810 4523.64166 4955.78694 5514.44303 5785.19764 6088.34622 6043.38103 5982.72897 5826.05526 5729.39912 6032.43571 6130.95769 6159.94805 6083.88244 6095.56581 6009.18351 6120.85207 6148.06211 6197.02559 6436.42818 6619.52902 6219.02016 5809.02700 5463.26372 5181.38358 4694.87578 4429.05041 4546.23195 4248.84160 4453.87110 4782.90675 5175.53349 5729.20626 5740.04745 5352.21894 4778.15992 4581.09550 4776.46089 4914.18319 4789.86585 4636.71589 4867.72283 5492.55002 5890.99401 6386.90042 6545.87646 6253.92426 5617.04705 5211.85093 4825.40140 4505.62464 4189.02118 3866.54781 3548.56401 3666.47344 3388.76082 2930.00312 2691.79509 2934.47952 2858.95163 2653.52292 2273.72443 1824.28297 1746.75907 1763.13877 1558.98766 1378.34602 1685.60714 1968.46122 2091.29777 1944.14612 1709.52058 1478.17738 1201.57709 832.61737 403.20546 1.71425 20.01306
-5.55387 8.93743 465.79319 1023.32316 1428.37752 1948.98699 2278.61435 2754.65149 3021.65033 3378.28357 3601.16904 3836.73057 4207.15435 4327.41973 4383.08908 4424.89158 4278.53493 4187.25074 4235.38349 4204.86971 4427.05248 4388.24605 4522.08260 4592.41313 4745.75513 4827.74806 4899.29519 5261.21762 5489.23123 5907.45489 6298.05981 6408.30880 6118.97941 5708.96131 5665.66304 5562.39073 5782.68818 5743.35605 5627.31442 5342.55565 5265.83083 4893.65088 4515.05506 4157.52825 4440.23464 4949.47048 4975.92178 4783.52281 4369.79717 3947.95255 3470.55990 3324.57891 3604.59204 4012.23276 4472.55743 5046.96658 5272.56115 5096.50912 4679.63232 4328.78527 3769.32995 3582.59572 4111.20361 4567.61001 5019.14021 5411.05015 5464.70330 5378.68405 5024.65742 4757.75390 4649.47820 4971.42372 5334.66079 5814.87963 6303.80697 6578.61328 6316.22398 5612.72800 5032.33392 4563.03642 4000.71886 3726.93992 3337.51941 3117.96644 2913.53559 2598.76513 2436.91255 2387.38269 2230.60897 2081.80728 1915.57510 1831.54984 1668.55366 1751.17685 1726.12657 1736.41021 1715.48558 1593.75703 1192.95798 1007.08180 912.55275 897.17174 851.09624 635.43848 281.59285 201.63278 311.36566 697.66731 1182.21740 1552.76525 1601.17423 1708.56860 1783.88269 1799.57227 1714.04409 1915.36958 1957.82086 2018.12028 2084.57145 2129.38974 2450.05861 2558.40385 3135.49495 3570.68406 3673.92312 4022.57808 4243.38745 4790.41303 5280.53671 5966.59057 6234.03891 6373.63488 6314.70825 6288.16293 6189.36797 6106.34723 5985.04643 5788.91206 5828.85761 5592.41176 5353.00093 5468.79954 5566.83518 5804.05780 6230.10619 6250.11545 6137.88175 5691.25002 5179.33744 5035.05142 4500.71278 4124.36712 4262.80172 4108.03205 4194.20139 4621.16335 5244.69449 5612.51639 5510.39386 5204.63307 4568.62398 4280.23479 4290.72489 4449.57494 4386.28658 4284.13840 4799.35948 5319.51503 5708.66921 6278.07137 6452.09664 6360.79822 5808.06895 5618.25657 5252.74196 5034.56003 4416.17238 4110.16990 4002.88276 3922.96789 3542.21991 3149.73727 2797.75619 2487.92723 2544.26898 2492.08875 2080.53045 1679.71879 1647.65140 1612.58949 1574.45980 1322.24586 1238.39460 1402.19579 1544.56837 1404.63584 1168.48179 978.03992 815.47899 606.62801 242.19424 -0.57753 10.12006
