10.34119 16.94080 95.91041 219.10988 303.98147 387.86343 512.64950 545.90318 593.38475 612.44211 614.01417 642.72871 690.74215 747.81259 788.17870 797.44942 823.90999 883.78672 914.16561 962.57935 1021.25363 1095.91443 1158.31267 1166.00418 1167.16613 1148.63462 1127.34614 1102.95420 1039.87354 987.23567 947.70334 905.51391 811.08823 744.97105 836.08527 902.33394 968.65307 994.69317 953.79767 968.62163 997.29021 1060.53077 1100.38637 1213.13763 1186.18064 1067.84824 969.30199 903.88306 850.69937 778.20053 715.42952 650.08112 566.59369 495.86591 446.08477 396.60752 474.44172 549.33346 630.71617 687.33491 792.49474 881.80797 940.90880 984.26438 1045.38388 1061.21044 1085.91230 1100.52024 1127.31065 1207.78218 1292.34483 1385.80162 1414.64742 1362.78400 1313.28502 1221.26835 1169.05321 1096.03675 1074.54094 1105.31806 1049.11957 978.42016 911.54573 818.45875 740.38306 625.95823 560.51185 511.78348 466.65226 447.86624 463.16899 405.97778 368.08704 411.03961 403.66205 317.05491 301.37588 332.30252 334.92700 334.60417 271.10185 198.67365 209.73557 107.92618 78.61853 65.05641 75.19973 142.67492 185.25443 261.91844 273.02991 296.65949 348.60443 355.11406 400.40166 443.35707 492.21033 508.34421 520.95957 596.11766 632.94554 668.66757 702.66802 704.48135 832.93136 904.12701 942.16043 981.37733 1021.41555 1131.32854 1205.16044 1319.67805 1325.41867 1297.76374 1192.78348 1063.12913 976.44962 883.14555 851.52437 787.50815 817.74944 897.13692 856.46052 785.57943 700.28040 638.72276 591.15647 660.41839 733.75833 851.66682 984.67391 1057.98993 1125.76119 1117.40009 1044.85037 1001.08071 953.10741 882.30787 765.46913 665.72982 599.64222 619.13641 690.70744 728.78393 731.62592 756.69827 804.73877 895.28103 984.13370 1063.85501 1192.44208 1260.10120 1311.50883 1269.59516 1139.13434 1033.70074 956.55812 919.86017 858.16163 838.09719 753.12852 651.32399 592.27022 554.75664 517.62864 476.72509 458.41533 408.38775 453.48509 434.20350 463.15445 499.86964 547.15075 543.01337 586.36286 566.19496 507.10232 385.22440 303.18218 200.67969 100.86438 12.06989 11.93957
5.08594 11.68604 118.27528 195.68111 271.68052 377.55723 483.87006 530.43691 532.39356 531.94191 516.83374 548.23431 588.72971 664.71824 705.40758 717.95684 728.96932 795.91839 809.30437 886.27471 946.19172 1049.26519 1096.10845 1126.12597 1145.04375 1133.39619 1143.94461 1145.93052 1115.60240 1046.88214 1023.92059 956.57811 848.25120 805.60937 819.78820 948.09979 980.37731 1042.69337 1052.83402 1067.55308 1081.46809 1110.53614 1166.43458 1204.59983 1186.88330 1092.75210 1032.48895 959.98140 862.71253 835.25686 737.53388 675.35804 560.07981 503.00068 446.89630 394.68356 413.14294 457.37914 525.92405 637.84053 739.41125 805.64223 886.68246 949.13395 1049.95669 1085.44677 1124.69374 1140.42786 1180.91678 1221.63130 1323.10394 1388.76491 1418.06964 1326.72372 1261.00496 1158.06344 1083.04725 1016.22894 951.07531 966.08307 991.55171 954.40605 890.03115 850.30018 760.26457 679.79099 611.70120 543.97641 469.46081 429.74801 407.96997 404.77075 354.99699 338.47399 347.71071 284.22524 257.41272 228.94636 236.60978 240.90028 196.15818 169.43389 180.55295 119.40823 76.85231 69.69656 112.36448 159.56391 237.42807 313.01239 358.56363 378.09411 431.81706 450.78109 471.61299 540.25529 604.62166 588.73528 568.51090 579.68871 672.76478 712.79941 783.09279 797.57644 879.54490 962.37068 1048.77008 1081.78380 1118.70874 1195.45325 1241.72011 1283.76807 1300.76843 1264.49026 1232.77034 1170.17052 1060.27866 949.06578 923.45251 898.27803 929.94323 941.38915 913.58526 804.36913 703.12224 656.57318 667.70863 662.95960 707.17509 806.93042 940.82002 1023.13683 1126.68082 1127.22136 1095.15856 1054.77671 944.98863 845.53743 732.21044 655.37364 617.49261 630.69830 680.34867 754.02716 792.84805 835.07065 834.46841 891.57748 965.24019 1040.73973 1187.02329 1266.88344 1333.85248 1291.54626 1202.86279 1100.37022 1078.49489 1048.85964 977.60163 893.42552 811.70063 683.22571 628.69013 599.37632 550.46854 564.17720 524.06225 507.65010 523.47464 549.19775 566.04059 592.50935 631.35054 624.78595 611.73822 574.64602 482.03331 411.73641 262.48198 223.31918 82.66291 13.11108 13.00123
17.03560 10.08262 121.87444 206.13204 287.76533 377.13450 407.01300 428.65228 444.92964 425.92955 393.31976 468.51002 515.49475 564.97520 609.40879 640.30680 628.95857 706.75421 719.10809 809.21099 908.51752 952.54919 1022.32406 1035.13568 1024.39376 1047.44277 1109.50482 1145.77493 1167.06140 1134.84169 1059.59844 965.61366 891.27679 883.33863 913.67212 945.77182 992.97037 1090.67739 1162.15412 1184.63230 1193.41452 1223.23260 1215.07623 1190.01822 1126.85848 1066.09279 1027.82024 967.71323 880.95772 807.03077 714.00895 623.34446 500.58934 444.13616 447.15586 472.28882 468.83734 426.47698 517.95031 600.73208 697.79831 755.14683 814.72518 919.20004 966.99146 1020.05166 1035.73283 1049.52263 1128.14123 1195.55770 1275.54883 1359.17720 1382.67649 1309.95551 1223.65691 1130.06317 1036.97260 961.22387 893.79875 886.08118 890.02225 887.55969 853.15042 809.84649 719.32307 657.27935 588.40706 535.08172 474.71054 498.10295 504.55040 467.37660 420.71446 348.43299 337.78312 359.73518 360.24752 321.95018 276.34674 249.48732 219.63355 262.87993 220.65352 154.31593 93.70986 75.67300 132.19412 180.15140 279.64280 365.02881 445.98592 477.41016 575.97868 547.38389 573.17946 640.12248 690.49624 684.35443 663.84381 624.13133 714.02659 796.16285 828.12527 911.18445 970.83711 1057.66390 1090.25096 1119.31832 1150.06431 1189.21811 1230.02985 1258.02121 1244.79884 1233.91529 1249.88880 1222.10042 1129.31198 1022.99605 1003.62104 1028.96702 1029.11778 1003.15769 931.41918 830.09957 735.67189 741.34090 733.42779 664.44386 711.83706 795.20850 869.05869 1004.26721 1099.38315 1150.30536 1144.86480 1025.59433 914.91950 825.70739 721.04047 689.66053 658.17216 630.87825 676.68327 744.41027 836.67243 894.74818 935.95830 935.21528 1008.54288 1085.20216 1219.27131 1335.32871 1367.49493 1374.47782 1284.87700 1241.46655 1155.07283 1111.68054 1041.28836 921.07725 833.80883 744.86808 750.18574 718.16105 696.48123 644.22992 640.22569 638.37536 677.24012 651.41231 630.82873 665.45124 656.94034 628.34437 604.90334 557.29521 508.29426 414.29410 309.93883 205.86978 114.49018 11.80093 12.53166
15.61720 14.49000 86.31160 156.75537 236.45577 317.43227 324.78258 366.29275 343.57213 319.17189 314.15602 369.38971 467.63864 542.04860 522.91659 511.11276 502.84045 596.75080 674.48027 726.01871 800.45297 840.77725 900.00887 914.80415 960.53246 972.21076 1041.79367 1100.71255 1180.03202 1191.10150 1126.04399 1011.25505 997.07149 1000.33035 993.07463 1029.52251 1059.66214 1162.74274 1257.61875 1270.12513 1262.11924 1244.73144 1198.08502 1093.45594 1017.30176 999.83966 959.95735 843.47998 810.00375 713.63985 676.90320 563.14232 489.94441 517.70628 523.37623 549.75748 513.05609 429.11894 458.29607 541.29053 627.97228 717.88747 791.81923 824.67438 905.73598 956.87727 951.58994 953.53285 993.11508 1122.48569 1190.18496 1282.81245 1349.41432 1323.61772 1217.38587 1163.58090 1073.88406 989.71871 905.57958 828.12849 821.18210 773.73700 742.03040 727.04523 681.81195 630.10089 526.47598 512.93826 583.99121 598.10391 538.74787 477.70316 429.35076 466.37525 454.74135 443.34610 464.26001 407.55667 365.32278 301.82278 317.47616 305.30328 286.38664 187.01315 115.59710 76.43531 107.31474 165.48015 270.59325 371.33744 479.02204 527.87273 605.06407 651.96394 710.70180 732.18509 756.45972 792.75143 765.32172 737.57294 764.51338 845.64993 900.01933 974.73726 1028.12723 1063.11115 1075.01897 1047.64015 1064.87718 1108.73973 1139.03635 1158.79929 1127.25957 1122.73345 1179.33804 1205.52578 1189.54162 1154.81971 1145.04883 1149.70273 1103.94981 1031.08471 976.05380 864.63786 821.34100 808.86178 790.51167 711.24451 683.35758 780.64799 884.83112 975.44750 1117.33747 1165.77456 1129.02206 1010.39497 911.41413 819.73852 769.57419 712.58808 688.04697 695.82200 720.34387 752.74865 826.76894 924.06371 1011.13167 1042.50650 1094.59889 1173.14466 1257.79745 1363.24979 1394.10707 1373.17031 1326.63861 1277.57530 1205.35293 1170.24307 1059.13777 960.03029 907.48806 883.09623 867.20468 839.75322 812.57270 784.12978 742.52984 754.62399 744.70031 731.87549 717.95540 682.41669 644.02921 516.02390 496.74880 478.46784 444.88528 391.71439 337.25379 264.11107 99.01537 8.12717 14.36344
9.17955 13.77957 51.44393 93.93609 131.45725 216.96107 204.92221 220.61754 234.62628 219.27822 265.95756 311.97855 384.16200 439.40405 456.62887 412.57503 483.49576 559.81915 610.47862 627.56632 711.25953 738.11189 808.26894 803.78473 819.74878 887.36615 966.38659 1094.10520 1177.31293 1207.54144 1185.01867 1112.95874 1044.28277 1086.65163 1095.71127 1114.15644 1109.89340 1215.45245 1308.36430 1320.31048 1283.56982 1198.90737 1134.27259 1046.70092 968.11366 932.78593 830.37689 810.47906 726.81107 670.44387 622.29621 554.22507 554.01344 602.25778 622.18802 611.26400 517.85654 440.10678 443.03287 485.46435 597.60699 681.30631 720.88633 762.04453 814.43516 852.37118 831.10152 866.13661 958.13196 1015.50258 1142.14550 1269.88325 1360.19932 1365.31986 1286.89985 1188.34306 1138.35258 1041.17669 920.72688 852.43106 753.26378 699.90768 694.06896 643.38690 620.33884 610.18351 579.69469 569.08169 657.15148 647.28274 590.81761 532.05922 538.31906 548.66326 532.59537 532.72419 556.12310 513.25389 445.03346 352.56377 384.17157 367.14683 289.22044 192.73742 111.79059 67.39733 124.03908 198.08054 287.19077 359.39019 476.87285 572.27390 646.19816 710.01643 763.76426 825.73051 860.65029 879.82536 852.94083 861.48200 865.16121 923.70508 968.37563 1002.02247 1030.43029 1020.40504 994.67122 978.06120 963.30525 1027.50552 1100.58397 1091.05568 1040.79297 1062.92254 1111.78037 1171.53531 1221.22377 1243.86845 1261.72438 1224.08815 1150.37590 1107.75469 995.86860 897.53062 913.80403 898.99424 808.25352 744.90227 722.10812 761.67395 875.61274 991.13245 1073.93288 1160.11070 1122.16444 1065.79099 924.66970 870.69937 838.95641 807.04659 764.37688 732.35747 793.91177 834.57927 888.65977 940.92229 1053.03300 1101.66263 1139.66249 1251.37774 1349.83070 1378.18247 1354.79757 1300.47604 1255.30461 1237.25847 1165.64532 1173.03387 1098.02822 1040.56872 1004.95221 969.63693 937.03949 911.65394 878.78193 854.53736 850.50473 840.93624 819.18009 772.13453 723.05009 682.03705 537.53843 460.93907 373.86124 398.96676 355.81168 343.28520 300.28879 224.41878 93.81113 5.05581 5.00756
10.65286 8.18697 62.54474 117.56373 97.13678 139.90922 138.82054 161.32741 198.60521 205.79225 259.74941 266.89706 296.40063 319.50966 357.56154 380.53707 462.07764 516.84525 545.44894 563.75756 590.81346 626.74534 698.25304 705.01080 770.08513 847.64223 925.09771 1045.29750 1141.11745 1237.27779 1231.33270 1200.03138 1151.32075 1183.58832 1222.91648 1256.81337 1264.73121 1302.49074 1359.56191 1343.22102 1298.91582 1186.97488 1083.52066 984.80698 911.56883 818.76953 761.40973 699.57015 643.65488 641.59747 630.35000 600.88693 669.10366 682.78355 660.81681 616.81491 497.92877 497.03885 491.23559 496.35797 577.79126 617.93381 654.71318 703.10598 736.91968 742.81972 775.14744 861.44920 929.03912 1054.63219 1123.01405 1268.00922 1344.18838 1388.28941 1363.23341 1251.69101 1149.70609 1066.58865 960.13507 863.33359 836.54347 805.26550 765.38068 758.81686 706.40116 679.43274 657.66066 678.58763 744.33257 702.69714 634.31788 598.48759 607.76574 668.50959 642.18480 659.96844 635.27903 576.18407 531.36370 479.44695 463.07157 403.71727 298.97227 211.06008 140.68690 75.32622 102.15391 170.72788 251.15640 353.24844 436.80583 530.59697 611.40820 722.14948 752.39727 819.90733 844.01243 901.93208 907.79204 918.01489 914.62502 958.36785 962.01605 972.36302 945.83997 958.29578 905.70501 875.71937 874.66668 966.29880 1003.90330 1021.79682 973.75219 976.27461 1065.19543 1147.95142 1212.49716 1243.91585 1317.49927 1306.53660 1207.94959 1140.49856 1030.11470 970.01548 998.16974 975.16340 823.91491 798.24406 773.15829 784.65662 864.70939 949.42464 1073.40702 1175.67132 1171.52125 1108.19223 1016.80427 943.34480 899.02819 871.03230 816.17847 819.13470 825.00481 932.32240 951.57630 989.86421 1094.92945 1158.79327 1249.15114 1319.59167 1391.19827 1387.80917 1305.75506 1241.63567 1208.36830 1128.20483 1092.46636 1109.15032 1051.65048 1056.83443 1040.23742 1016.94280 963.23839 925.52331 884.69296 844.69351 850.94945 860.02465 836.63688 772.52930 697.77713 556.75662 471.49546 400.05230 324.11409 253.96439 231.68226 218.10468 215.96657 194.33809 95.36929 10.32426 8.10255
12.94485 8.48646 90.86841 163.47487 190.74190 194.59250 213.13651 250.52403 275.82566 269.31595 324.61016 366.52593 346.67204 377.30244 395.04229 402.31871 429.11512 449.82866 485.65659 549.92221 555.58522 604.13259 672.67097 730.01525 801.03686 893.21006 960.75941 1071.21743 1132.68771 1226.54935 1251.75470 1280.51287 1264.20840 1273.79828 1337.05084 1316.22721 1341.44162 1389.33830 1383.87814 1335.00423 1234.06306 1159.59174 1065.53887 995.79903 917.41742 811.06367 740.88258 700.82740 743.21092 771.27610 702.17522 730.57080 743.78909 735.67843 660.52183 593.72619 515.78063 555.83950 577.68967 533.32125 502.04307 543.93219 594.17834 595.40447 658.78362 694.76996 750.16777 841.03894 926.80514 990.33570 1078.92272 1212.92836 1338.04068 1408.66949 1379.19004 1278.76049 1181.09325 1078.35347 1035.99657 951.21497 963.82025 877.59131 859.37061 803.77300 767.42427 747.30046 740.15936 785.79940 796.92140 776.79788 704.77239 692.65894 753.24547 772.49053 764.03184 762.31025 722.05163 668.00383 612.21613 547.12931 485.14168 410.00130 302.00468 217.50235 118.73349 76.10414 100.05095 173.99410 245.74170 347.41171 422.95858 507.51868 607.99225 691.17940 725.07293 762.46864 789.37409 865.26732 883.75831 924.28035 925.85647 927.61799 886.29163 863.72801 849.06136 840.03573 788.93751 777.85515 833.56414 922.89657 950.52756 938.89325 892.31930 898.48122 992.58274 1017.15058 1187.59232 1268.86830 1323.92258 1336.01833 1278.77919 1162.07206 1079.64087 1084.37422 1041.87724 950.78514 898.64028 858.94814 815.28378 833.10278 902.27572 972.90643 1068.60833 1188.09826 1216.85388 1160.31746 1083.54455 1009.78025 997.13419 917.80250 883.20797 896.15830 872.89391 936.00320 1025.34319 1052.14175 1153.66586 1234.59671 1303.21733 1370.49231 1388.70663 1339.99352 1284.53987 1159.13233 1084.09905 1031.55514 1021.18384 1037.11712 1007.25000 989.24258 989.73683 979.73918 912.52022 835.59169 811.26149 787.21150 791.56752 761.35830 778.92796 739.81606 658.84500 596.97185 496.60955 425.86175 357.51524 272.68653 198.41562 150.95127 139.02743 103.08898 68.46707 20.01136 5.65144
10.16273 13.14307 80.23408 187.27384 239.56088 291.59842 299.25646 333.76391 340.82460 365.93391 387.29777 465.33636 451.93862 436.39337 452.39638 460.12528 495.91433 519.32578 579.55542 631.69769 632.29816 696.35706 758.74800 819.61352 884.62298 966.61166 1027.70590 1092.98467 1155.61311 1193.85554 1227.16282 1272.55610 1276.15258 1352.07916 1398.91876 1427.28411 1443.59443 1431.34176 1421.63898 1309.01146 1207.04173 1123.38896 1001.02396 953.52918 863.99900 825.97708 756.52463 791.66286 818.30246 851.92113 817.08266 804.46333 816.01601 779.84833 669.85546 558.21670 553.28369 636.37670 644.13128 592.91184 546.62926 579.07562 583.07342 608.58952 637.21083 663.97427 735.56685 801.89812 911.13841 1022.39926 1118.20746 1241.12309 1325.60234 1392.59551 1403.26707 1323.24771 1239.49026 1212.73203 1135.08950 1075.62587 1038.54562 998.20482 957.71887 890.21585 844.74765 838.95168 818.20975 873.28195 875.04517 854.37091 825.44974 817.39462 820.33904 857.54266 877.02431 834.45033 785.36968 728.79108 607.81565 525.22884 446.93948 351.61598 257.32474 186.73741 127.01990 77.61407 117.64580 206.36065 267.86580 361.77250 419.02369 505.03837 572.94352 627.17748 625.99464 663.06242 694.97074 743.20586 801.62963 805.48315 858.25079 855.58470 804.48036 750.09404 730.02655 739.63562 742.12072 727.13320 803.76785 835.52899 857.27755 840.20603 822.00268 872.61126 928.36823 1025.54849 1128.36668 1219.02230 1340.11525 1356.99273 1313.47336 1238.46338 1211.61797 1179.17493 1131.01560 1023.38768 980.79186 930.75181 878.24787 887.21869 935.36930 1043.51389 1103.58141 1199.32669 1272.98700 1245.39750 1196.80948 1094.73877 1049.33496 1002.98391 974.59897 950.47833 924.17979 986.28217 1081.95083 1130.83766 1236.13347 1261.22493 1328.42067 1365.03958 1356.56126 1292.91902 1223.62127 1131.46282 1052.54251 974.45446 930.27236 912.34561 937.54533 900.48550 902.01039 923.71335 854.69731 808.82867 697.13763 645.39653 652.73262 679.40266 702.10936 671.96361 626.16665 572.95813 508.78720 394.39175 319.11140 246.57974 183.26595 104.43019 105.03922 115.07689 82.96128 11.02182 9.82026
6.56162 8.93036 83.81415 146.23190 226.83298 301.45524 374.53364 424.56864 448.74852 457.55106 485.97239 525.77531 556.23333 555.34079 560.80227 578.14029 566.88723 625.21333 664.27365 722.02945 750.21022 781.13066 829.19002 897.56563 991.76250 1047.34943 1080.77701 1100.41898 1089.02979 1115.56670 1165.02439 1206.87395 1286.36116 1321.50914 1402.16895 1427.95457 1457.15633 1475.20890 1442.36614 1318.55576 1212.89734 1141.13761 1013.08619 935.01563 837.27174 803.35665 853.14278 881.48891 936.25188 932.21489 921.12178 862.22024 829.67915 774.04875 645.04310 572.14361 605.53274 690.41321 698.89948 668.15453 588.13461 648.05582 695.63715 698.37059 708.95340 689.30137 768.68406 827.14647 959.96442 1040.35232 1138.87064 1263.21936 1318.81435 1371.57263 1344.03147 1283.10506 1258.19552 1248.98970 1209.69016 1184.32964 1132.81798 1089.69866 1061.27801 1019.17875 949.98129 938.58140 970.08858 983.10344 985.18533 926.25364 906.46779 904.57573 898.78268 884.57536 865.13206 864.16101 798.72670 702.23426 611.98976 491.14323 383.30127 318.81699 242.27667 176.61435 105.22388 75.02560 111.14329 181.72333 264.42482 342.32130 429.02928 488.14742 549.04351 574.26829 535.42719 542.93368 591.54244 654.29897 702.06476 776.94399 784.01156 765.21931 686.58541 647.68874 601.12033 619.99398 646.48889 693.34590 677.63807 742.96692 756.80997 730.61399 766.99189 866.63048 969.23173 1076.73444 1183.96165 1252.73415 1305.00530 1340.80226 1353.09956 1320.41050 1289.52342 1280.25477 1206.70790 1106.91441 1074.15520 998.16621 933.21049 943.79447 979.74172 1089.08116 1181.39461 1240.53217 1330.21710 1316.88022 1256.52782 1171.28782 1119.73132 1057.05190 1021.35734 1041.32001 1010.88800 1069.80337 1150.32912 1215.73615 1255.15950 1293.17178 1309.03572 1284.41988 1257.24424 1244.77080 1189.82072 1124.49530 1045.18031 955.41334 891.03307 850.61297 801.17621 787.46431 798.47453 799.04054 806.49221 753.40111 659.22525 603.55172 573.32616 595.61902 627.56658 603.05005 549.08332 481.44972 430.60872 340.72366 246.07518 195.44166 166.25100 168.08889 210.66875 178.52869 106.59109 9.72975 13.06939
10.71543 8.70313 106.71160 168.15049 271.54329 338.36730 400.08138 450.31801 503.75715 539.03669 558.33107 604.72590 646.09803 638.03679 647.56468 680.20607 643.52059 695.24014 790.06454 804.29189 834.84663 897.09869 910.99139 971.77912 1039.90923 1055.45753 1066.34414 1039.11120 1005.70990 973.50812 1046.66856 1128.47336 1226.84326 1284.25667 1311.33504 1362.44131 1405.95956 1451.46853 1459.78870 1349.20218 1248.22993 1150.09117 1049.99493 937.13384 893.00974 934.19457 961.12556 996.86505 1018.15168 1003.70269 948.61116 888.69894 813.59145 752.89110 610.91610 585.25014 673.39219 786.05555 809.96122 736.51091 662.96382 706.40063 768.82003 804.52238 787.40096 775.87508 794.51585 886.08061 979.65645 1088.05665 1188.09954 1275.04326 1279.62523 1275.20642 1287.59925 1238.61483 1230.79206 1215.40319 1214.86152 1205.25788 1205.56705 1159.21650 1128.63996 1083.29548 1068.07964 1037.73396 1047.35965 1076.96763 1090.44551 1050.65698 981.52100 912.42581 903.21950 847.18009 802.99726 799.02622 766.20504 687.80764 583.91235 508.51819 381.26496 317.68989 237.59712 175.80992 102.75409 80.63903 114.07050 207.72270 262.75547 286.11924 368.53606 460.81095 486.67326 502.28537 455.83953 480.92111 509.06637 578.42022 664.79035 685.34402 655.51974 663.54343 585.82054 548.52764 547.53342 569.28919 581.12841 631.89644 627.49565 649.10307 655.05538 712.87178 824.49339 890.58763 1011.65066 1050.21051 1155.74918 1189.53692 1237.54043 1285.72938 1333.60654 1350.45300 1374.71826 1353.00584 1298.56032 1199.10152 1148.51133 1070.91457 998.05546 975.22506 1040.52649 1123.11754 1202.05431 1274.55000 1384.01365 1390.50016 1360.40210 1291.54687 1172.28984 1126.10631 1121.05168 1127.27095 1129.92181 1134.40362 1205.90313 1251.27445 1317.09802 1279.40586 1212.40024 1178.82758 1185.12669 1140.44659 1155.51955 1129.07143 1087.94881 1045.57161 962.97978 896.70332 838.10464 749.33129 713.76297 717.16986 718.00230 690.72404 634.05498 538.97949 490.74932 499.82233 507.48965 522.60210 464.29047 382.12249 355.04671 273.64801 212.52281 252.84920 257.62181 275.53115 278.55727 193.80418 126.81851 10.47253 10.40384
8.18364 11.93140 122.99086 221.74507 286.56767 384.96957 442.79868 514.02180 570.93078 604.13687 662.04796 719.34664 727.46789 749.01972 785.80692 764.84546 707.82609 778.50568 862.50601 923.74349 974.24067 975.55861 1016.97763 1037.32501 1040.11281 1028.91117 965.40388 916.31465 905.96199 906.25628 950.77794 1109.95363 1157.70019 1215.51125 1232.60406 1283.04315 1373.77156 1428.16320 1461.19672 1385.95258 1272.44607 1185.69037 1065.06633 995.26731 1002.85685 997.34450 1045.05705 1085.59404 1066.57905 1044.42795 925.59080 853.95828 756.78963 657.85999 618.03127 672.34115 741.91283 817.91499 848.11704 774.17845 760.33325 788.47042 809.06567 873.86539 871.96782 808.91301 795.07149 853.11723 977.60495 1045.42595 1195.79244 1268.05872 1247.34662 1173.62873 1116.44832 1158.61638 1113.24389 1121.03174 1126.75450 1169.55051 1185.57654 1185.27948 1168.03140 1139.09598 1115.69906 1085.62864 1104.94738 1116.08675 1113.22090 1071.89637 1025.31475 934.81159 834.79879 772.02012 705.86852 714.71186 708.72791 657.96088 567.88100 507.69928 432.40586 348.03535 277.53319 182.12035 111.42743 85.55858 102.18073 175.97869 205.42044 229.75542 314.68162 380.59580 392.37670 414.28950 368.85385 437.99474 498.34557 533.16389 574.70149 567.18249 580.75025 560.18890 517.71772 492.50077 469.20400 508.53496 519.31224 539.31236 573.94865 627.15058 707.11388 803.11519 854.39210 934.56937 993.21954 1043.10352 1080.21310 1087.86268 1123.36055 1181.44984 1213.89954 1299.08164 1376.07449 1415.90744 1364.04943 1296.75277 1242.41855 1141.70190 1095.06283 1026.10712 1074.43655 1119.76385 1262.09251 1338.75954 1419.77951 1453.84863 1382.51385 1330.61447 1265.29370 1253.02867 1246.02865 1219.82385 1229.08986 1250.57908 1272.19405 1318.41295 1317.24351 1273.22656 1149.22832 1056.42788 1028.51530 1044.15635 1122.44504 1124.17812 1138.61234 1103.27566 1076.59837 986.46145 883.48840 788.87865 702.26297 664.67753 638.63140 625.18855 579.71170 476.27402 454.05387 422.83593 408.27689 411.40319 376.38102 337.61441 291.61866 276.66864 292.69741 317.59023 336.56239 339.13531 307.62929 214.94162 105.99114 7.47426 6.78848
10.26301 6.52745 109.03807 208.44389 261.04748 343.60238 434.25231 524.47429 595.00623 653.07889 722.84205 794.48819 832.64697 884.09248 880.49254 882.28261 873.78904 857.16332 887.92023 987.55436 1012.47315 1031.51235 1033.26434 1010.20418 979.58876 915.84298 876.98611 840.72683 810.72893 841.80276 934.59578 1038.94058 1113.29684 1133.78895 1157.71680 1252.34066 1272.93069 1419.16721 1441.76908 1381.42352 1322.53405 1197.21030 1124.18543 1062.49443 1076.23078 1139.71464 1151.26368 1144.87593 1096.09326 1026.63879 903.64228 805.06420 706.42183 688.37708 646.50336 694.96767 779.48048 877.17064 913.55377 897.24547 794.25880 798.31751 922.69779 941.58902 958.89675 921.39604 861.04643 910.73736 1006.42550 1087.78837 1178.66834 1242.33387 1168.51930 1115.72119 1076.17141 1064.04615 1024.33817 1032.79421 1041.15002 1029.82612 1117.25679 1092.22853 1123.85099 1129.57101 1074.53145 1022.46568 1076.14693 1089.00854 1097.85219 1058.80434 1000.86538 888.22472 785.77695 697.40780 655.20694 616.46849 636.66460 600.74630 515.86353 459.90748 425.81396 352.04832 283.62081 196.39480 120.31241 83.79842 105.22209 130.71420 164.27348 180.29136 226.31974 274.07848 301.00722 335.78790 283.83677 380.33663 432.79238 461.96471 493.35597 471.69472 471.88485 479.93234 431.65189 425.58018 428.12135 464.04243 523.49839 560.78892 628.68957 674.87378 739.82007 811.11264 865.57363 881.66615 941.37842 925.70650 969.75673 993.41214 1034.52866 1096.07955 1184.15225 1287.41321 1351.48849 1433.34289 1434.37488 1424.24163 1336.98115 1219.90071 1145.41118 1086.72386 1145.95448 1196.88050 1267.55809 1375.56869 1492.46542 1516.48122 1430.48577 1377.59035 1319.55058 1320.65218 1298.08853 1294.98061 1283.14412 1265.89148 1257.81054 1272.24196 1265.81923 1171.48399 1083.79182 971.81475 944.93181 938.78747 967.05554 1050.68841 1097.14787 1110.53563 1079.80006 1041.26411 962.20508 856.72738 796.44807 702.54250 640.76164 607.94756 529.00669 543.18521 501.09987 461.14944 414.42171 381.26132 310.03493 303.90879 329.43015 351.95953 399.98568 455.67304 447.03309 418.40408 320.96817 212.48224 121.29955 8.69150 12.62059
19.02249 11.96262 81.55130 146.28911 220.05066 265.27447 373.30422 490.04962 554.00388 682.35848 737.57357 807.49258 896.11645 947.80721 956.99164 938.97645 935.85048 952.95151 981.52429 1013.57520 1026.44579 1009.36677 987.09231 944.18594 861.51461 799.63078 773.60456 716.76741 752.65296 829.87529 926.03000 950.10380 1017.42411 1052.08686 1024.46457 1143.07850 1269.86361 1372.55245 1452.39963 1402.77345 1345.11973 1255.60672 1229.42949 1204.76804 1215.84639 1214.98748 1202.43444 1146.48634 1067.74259 972.23994 868.83114 789.94420 768.49540 710.62108 698.33963 718.69638 828.99740 902.89976 968.11740 951.37431 899.12480 840.50205 948.28089 1012.71043 1049.90843 988.02684 922.25420 944.62966 1034.60355 1132.62286 1230.82743 1238.09933 1159.29620 1041.00598 962.98009 952.28491 908.21443 922.86804 952.50476 990.10636 1047.82645 1021.31569 997.11942 1053.96065 986.49759 940.56681 902.65040 975.82787 1016.41142 1030.99835 986.09479 899.89380 796.79793 721.33855 610.58048 529.91950 519.40484 511.03090 474.56134 367.17159 341.48435 296.36933 234.89821 165.97347 95.13532 87.59469 109.49801 202.75496 233.42783 241.02365 184.46638 224.03794 207.62861 241.94449 256.60729 283.99849 362.36239 367.07438 413.38156 382.85299 391.97797 380.96374 377.04692 391.78151 404.24446 446.09301 512.69500 561.98507 629.21975 700.97156 736.83813 771.19974 781.87251 821.06684 807.73673 841.54634 865.18860 912.67629 995.13741 1078.01969 1145.93559 1223.81233 1325.10452 1432.19917 1446.55095 1459.70249 1368.00943 1295.81294 1242.05494 1201.36086 1243.21342 1257.11264 1338.71545 1384.65818 1504.79391 1524.17062 1490.81854 1423.97562 1366.41722 1339.04446 1277.27918 1265.71994 1252.36502 1222.29733 1197.47359 1190.71610 1192.06779 1126.44814 1033.97091 940.28030 872.73282 825.89044 901.01819 988.01338 1025.09025 1054.65320 1052.88307 1049.61791 997.14866 931.56504 882.18606 777.94114 693.45923 672.09608 630.29042 611.97632 609.93814 520.64242 485.44643 440.07516 394.01622 436.50848 415.35844 463.02434 523.53613 515.01238 486.65859 406.53574 326.33266 196.40103 122.51988 14.82312 5.51378
5.59729 6.52394 91.56340 153.95628 217.68735 294.01506 341.41171 400.62490 515.39070 626.82074 718.45743 797.69026 882.43327 911.49207 924.68746 935.37992 938.04971 954.72094 973.32230 984.87692 960.48083 909.13048 875.30092 854.14938 769.19037 723.06001 712.44253 670.76084 756.93741 835.62957 881.15965 918.20950 901.54648 929.82482 1032.97406 1114.53385 1238.71137 1349.02555 1411.91724 1399.42003 1370.13449 1334.50518 1322.28006 1277.63399 1293.40459 1297.87819 1259.50725 1138.63000 1065.44927 958.88782 906.15648 854.44417 807.36071 740.24088 712.18519 742.14142 839.38471 906.66922 990.65749 997.94006 941.63691 901.96568 993.14026 1098.09078 1119.59926 1060.19884 1013.78286 1029.57824 1097.77610 1200.30741 1273.80575 1257.21901 1148.36230 1037.23301 915.97570 878.33664 854.45895 805.24426 857.50767 928.68963 918.88562 877.02863 900.27412 933.54058 918.42735 860.11765 818.00029 903.23769 950.45409 970.61163 957.99039 920.39876 782.92747 743.09043 617.88257 509.38124 458.11992 422.16345 376.46065 331.74548 332.42365 227.71076 177.08028 180.97878 128.33916 126.00361 178.79078 249.71972 319.35828 324.29695 273.90620 234.14195 291.75485 312.83607 306.33082 267.01916 285.69338 303.91435 328.51621 359.14582 374.61869 378.08333 406.48763 479.31887 502.78518 472.50152 462.58633 511.36080 557.32559 611.11962 662.97356 696.41388 702.98151 735.62759 767.90194 814.34864 900.17853 941.52432 927.09402 1007.84671 1088.07591 1205.72665 1284.35940 1394.17027 1492.95604 1501.04061 1449.71377 1397.02452 1338.72760 1334.14505 1314.05731 1346.35398 1408.38445 1488.91553 1542.09734 1529.12316 1496.12288 1414.57985 1328.18269 1253.85298 1181.89882 1188.46311 1164.51373 1101.77114 1089.74352 1109.96407 1086.07802 1041.55966 1007.04230 909.99045 783.06009 752.71026 831.05972 859.82836 914.22009 957.40632 993.08277 962.62454 973.31750 962.71712 900.89536 841.36863 771.06495 750.99058 744.07766 701.17372 686.83225 671.64367 603.87660 563.21547 502.81661 489.98648 511.64060 550.49417 571.24397 525.76361 453.83845 345.74595 278.60575 189.09949 105.72621 8.70891 7.54293
6.25123 6.56566 100.55993 208.71735 269.48998 346.44431 380.78045 452.98561 512.81516 578.08650 708.37684 792.73117 828.56199 835.46582 862.32916 867.27879 817.95499 858.13650 892.52201 868.88625 907.38320 822.03319 781.93997 744.82419 704.08755 648.13603 628.10007 667.44398 747.39516 782.68624 816.01120 815.65486 882.39493 947.13540 1034.37147 1091.71791 1212.25726 1322.41991 1378.49039 1362.23557 1320.35290 1322.46859 1328.68342 1347.83399 1367.60609 1351.12918 1256.86134 1181.72128 1090.58328 1007.75083 967.03659 904.12884 826.92264 791.64848 746.78810 784.64552 837.30836 913.03524 1005.16978 1026.34713 1015.85553 990.75129 1070.70031 1142.03027 1179.08568 1156.58894 1127.07410 1105.88914 1169.44943 1256.21326 1290.59317 1266.49491 1177.97238 1050.14146 916.77959 899.85233 787.71135 749.00810 751.94567 853.66789 863.68491 846.68403 818.82824 879.28293 862.09325 789.40957 780.87797 792.99556 817.68664 889.88330 910.36756 893.96349 805.64448 721.87436 640.39265 587.57710 517.25137 485.38404 453.30309 440.30549 387.15149 340.88966 284.82068 255.18626 171.34691 116.70672 172.84244 263.31726 364.80893 404.34223 359.68501 373.44334 359.15132 378.75936 362.85598 326.53848 376.80604 388.16294 431.33126 443.26725 435.16111 452.31288 483.58405 527.78510 579.09537 545.56187 497.90238 531.45391 582.38329 615.55885 616.81899 671.22891 760.27050 808.77698 872.50129 895.03117 949.72941 1024.51932 1029.73534 1057.97705 1113.89784 1261.63290 1322.91743 1393.47450 1498.47088 1523.82281 1501.42942 1449.22642 1426.90354 1431.05690 1436.09648 1448.25902 1479.63253 1524.41728 1529.39678 1476.06521 1390.89782 1317.40298 1284.92624 1195.17964 1083.19759 1059.32483 1041.46913 985.34773 992.01191 987.47120 1002.04215 1001.51842 962.79119 883.54875 788.44017 702.69027 725.67211 817.02354 855.88176 837.28464 838.59726 864.94157 918.79550 942.96456 910.84298 908.48427 869.06095 839.31899 818.23816 810.98127 774.08085 732.82130 680.05708 646.57875 616.76576 608.82767 618.54789 634.43555 618.93701 549.42696 472.57309 363.10144 290.45498 195.56948 96.97226 16.50073 14.50005
8.62356 15.61753 146.47440 219.96972 313.89441 413.07761 490.42374 535.17167 588.53856 680.84468 709.08529 733.85819 718.60188 777.46195 802.71130 760.11969 731.21053 743.68785 802.70032 814.52660 815.83307 761.61262 683.84077 656.65786 640.00567 585.09106 561.55518 663.76636 699.87223 698.77134 766.32961 834.64794 942.39009 995.46946 1076.26367 1176.75124 1248.78784 1300.09195 1303.69179 1248.63454 1211.50680 1223.80689 1299.66997 1325.49098 1344.43998 1358.15373 1297.53952 1235.76208 1153.82873 1083.09812 1008.90275 987.01563 912.26213 803.11189 795.86331 829.28275 864.49084 962.95449 1027.76440 1108.00703 1128.49335 1092.84535 1093.55146 1210.47471 1259.17205 1242.74014 1213.62999 1248.76110 1280.00707 1297.54425 1316.79611 1267.04292 1178.59158 1071.50432 1007.71151 927.83700 851.90161 733.59468 738.78663 766.89773 781.00120 715.82536 759.89266 776.87512 808.47518 765.17971 680.75728 666.99450 704.04452 793.39221 799.93210 836.67276 774.66737 747.21355 691.40327 664.92899 610.98435 597.43800 534.92252 513.61365 458.34590 419.53046 344.71394 254.28190 204.25982 149.28138 165.37343 280.97070 397.02692 440.46969 487.94897 459.48365 468.41636 472.17914 462.83996 424.08632 419.61565 503.42319 541.65656 527.98254 499.56805 523.68789 565.05037 592.65609 643.47868 651.62000 604.62063 626.57483 625.52195 679.08662 690.20470 670.71043 774.77325 880.57830 948.59012 979.82562 1045.73343 1071.92393 1109.49814 1127.93018 1201.27783 1272.84752 1359.46634 1418.18652 1450.79321 1495.20722 1446.03516 1419.03300 1424.63888 1454.40644 1490.82405 1512.23092 1532.46883 1548.10031 1513.31050 1448.24422 1309.00155 1270.26957 1225.74318 1151.85851 1098.80337 1044.97840 948.68300 924.85513 853.09067 853.34919 880.65054 892.75797 909.44753 867.84660 759.05859 678.41408 664.59979 734.13865 721.67713 749.05522 712.04111 763.34195 812.57050 846.84064 896.91585 890.66592 911.23921 900.48506 889.52885 866.51535 856.64440 805.87141 747.05192 722.79736 653.50855 642.60491 622.53038 631.20673 619.14944 549.43680 486.02541 401.38316 316.42676 216.70498 110.05946 3.38864 9.44829
4.97883 16.27771 101.98897 232.18603 340.41889 444.53953 493.89497 561.47726 613.93394 676.70054 681.74030 674.93854 654.14203 687.29699 707.44179 680.79072 631.27171 667.29719 689.26695 697.18269 705.97392 704.64038 608.45024 564.49507 580.45400 541.94284 545.74718 605.99088 643.56388 731.79389 831.79148 933.20334 993.82123 1090.51635 1128.66183 1208.94325 1262.13928 1251.48541 1236.57443 1154.97030 1163.84000 1133.33175 1159.49621 1226.40974 1279.09105 1342.04932 1335.77269 1308.02092 1225.85425 1179.52380 1074.70519 1030.62464 934.04640 878.68128 848.38955 874.30094 921.43826 1020.45977 1087.24837 1154.22383 1195.91829 1190.23302 1181.39791 1253.47027 1335.43787 1338.68593 1339.53300 1331.29081 1346.42924 1353.49484 1320.57850 1265.96093 1195.15040 1105.62676 1031.65799 927.67349 842.39420 754.68520 674.31006 665.77912 704.03456 659.99369 705.23394 745.36321 722.00462 678.76171 631.71234 583.64218 618.16988 701.10465 729.93548 763.61597 747.07272 701.19289 688.21845 666.09767 659.77220 632.10510 596.15186 566.73915 525.75890 441.05578 341.05178 259.73646 198.43925 156.71249 184.47511 261.47818 327.20093 445.03362 533.81209 525.17962 534.16797 564.61998 559.02854 519.11201 460.52956 520.54194 600.93276 623.07534 629.21108 599.12266 630.34610 653.35514 717.99088 732.51161 671.89798 713.74562 738.33017 767.86747 791.19882 758.35229 777.81478 917.32971 997.01874 1075.91159 1108.49824 1181.30438 1212.25928 1225.28037 1283.96091 1331.13404 1375.96490 1374.29877 1351.44428 1387.28738 1379.59811 1317.33947 1334.75418 1389.57748 1441.55715 1502.60370 1534.84446 1547.59877 1493.56148 1378.13422 1245.57716 1162.63123 1116.04290 1077.65680 1031.38760 981.57548 917.83586 829.59530 799.56778 793.80336 844.14464 811.16031 803.42738 803.16289 757.96996 654.84950 605.99925 605.77239 636.82037 642.28891 621.95494 683.92425 719.05005 772.68494 791.49429 852.54458 847.18634 836.84261 835.14912 853.37168 846.10456 823.10674 767.67084 707.57284 653.92610 597.33920 558.54544 600.19318 544.58697 534.93153 484.92508 391.43815 321.96848 202.27157 128.73579 14.15078 8.03078
12.86568 10.98664 93.25873 226.50772 309.26774 393.59089 445.86518 518.67881 611.78822 636.24557 605.51044 566.95113 529.70894 601.50940 638.73020 608.77279 536.53018 540.96844 548.76220 602.48186 642.13444 597.58706 530.88822 518.04841 521.38332 524.91977 576.04811 613.92305 743.97557 766.04775 874.25070 988.56206 1055.68680 1117.95932 1150.79381 1198.95186 1206.82911 1181.58098 1126.00854 1092.90914 982.90296 1044.07559 1101.52199 1136.98202 1225.52633 1310.34727 1354.40347 1350.64491 1315.46716 1232.84236 1193.63730 1116.79865 1029.36542 944.32071 942.69079 942.31296 981.59501 1033.27429 1100.92317 1197.97707 1261.12166 1293.92184 1315.03540 1326.67070 1405.34989 1402.24663 1405.16191 1397.34747 1372.77349 1351.99782 1290.11773 1196.95663 1085.29273 1027.48519 949.17270 891.23471 830.13368 761.26274 653.49089 600.73324 583.56917 599.51115 612.35454 640.51188 654.72209 607.69635 537.37338 512.03389 561.04719 592.50865 598.26199 662.11195 664.90476 628.70286 601.15100 603.63542 595.57938 619.57066 572.31471 539.60353 515.29301 399.98390 331.56514 244.58737 160.17270 151.28044 159.45720 244.73521 337.52428 455.59762 544.38702 618.45880 638.22951 659.95949 640.35703 577.28325 557.68031 596.03754 679.58254 698.95961 668.06738 693.92785 742.40342 798.00598 791.62216 808.95265 772.42809 821.00654 851.69440 850.08563 893.64335 843.31011 866.00099 952.38596 1037.66329 1129.91084 1207.53504 1260.45364 1294.84948 1303.46856 1339.18987 1355.59244 1334.41647 1279.59666 1227.74490 1258.79688 1281.71280 1248.94797 1247.18902 1294.69831 1355.84000 1432.06608 1487.44978 1535.21177 1446.99435 1355.40649 1279.39951 1150.31357 1044.31773 1011.45838 962.83439 923.90494 870.10178 816.60924 736.35473 715.48121 753.90445 752.38102 713.96590 731.52224 722.97316 658.69171 614.53757 541.03052 524.11187 547.47483 560.88302 584.26224 664.76680 697.74096 697.26135 772.75799 753.93076 731.79353 736.65148 739.16822 788.46738 748.32808 717.01762 609.92519 563.53733 499.64170 478.82087 492.89355 470.25588 425.66602 369.95683 356.57424 285.32518 192.49662 111.33441 14.14980 9.12031
11.63452 7.08766 92.47299 193.71063 236.55273 343.23299 398.05927 479.55477 521.44352 550.65101 536.66507 478.89301 443.24150 510.20573 588.32865 571.86393 525.34423 450.83119 485.27823 515.48347 553.82564 506.14656 447.09034 435.55389 504.79396 599.16914 637.93440 704.74250 772.74465 878.22818 958.02844 1013.30940 1049.48943 1049.12137 1086.25013 1114.40923 1107.98939 1095.27620 1003.82921 998.79279 955.30609 981.05901 1020.17589 1078.04813 1139.71998 1220.29264 1308.12035 1369.74439 1365.80478 1311.06219 1258.47548 1193.07719 1102.99865 1034.03817 969.41546 993.15105 1069.97780 1098.39925 1167.61359 1246.86580 1335.46191 1408.20207 1421.65761 1432.06933 1419.71775 1403.26046 1384.40157 1359.52102 1319.10845 1290.85642 1245.66634 1159.27482 1076.24629 983.68170 925.70318 834.62224 808.14403 728.01030 647.47047 630.71405 574.01364 533.25484 534.31486 550.11734 525.40031 530.77159 493.82137 443.11651 480.69121 505.72965 529.25543 511.16638 533.53847 501.52064 454.62105 494.86577 530.26362 521.84483 479.63577 437.53803 429.40042 405.11276 333.65196 208.03269 162.11471 112.94956 163.60459 264.54937 365.13566 410.59289 481.38969 571.87235 664.57953 708.89839 715.13094 664.13360 673.58032 676.17650 762.88267 803.21057 813.88030 765.01904 826.82363 860.01897 884.46294 891.01928 898.05778 909.85285 936.83136 954.47773 1005.23822 980.91371 974.38087 993.51034 1112.68146 1175.66315 1223.20246 1268.99746 1323.97450 1315.12713 1312.15721 1294.17719 1278.23859 1185.88444 1165.53545 1175.74062 1178.01192 1139.19707 1149.06823 1192.95952 1321.74671 1344.45122 1441.57461 1496.41121 1446.28236 1357.18323 1237.07446 1114.96432 1036.44316 953.66238 884.68778 863.78922 808.59471 786.31065 720.58128 675.82866 660.28923 660.28751 643.47206 652.33413 667.58541 598.64533 577.03183 529.01816 466.62400 479.89231 496.73992 502.59934 561.13241 567.64080 596.62836 684.79650 687.72457 646.24504 600.58309 653.16066 695.86304 732.93089 681.88775 587.69426 481.73157 387.16740 398.07103 387.01912 391.96582 307.69026 265.23081 279.10915 231.58134 168.11913 82.85627 8.80054 16.16407
14.67828 14.60992 89.26434 157.44942 206.00439 274.26995 343.45571 394.26922 398.11636 451.27020 409.63428 342.06860 387.31368 462.98818 500.00978 467.57094 434.26225 382.87725 438.77991 483.48823 478.85998 401.75173 400.95511 494.16324 579.00597 667.86239 700.85378 787.05748 839.35950 909.57565 970.05046 1003.78730 999.00031 959.31716 969.22734 1041.93361 1057.77733 1032.65973 957.87115 903.84159 899.59129 879.39139 935.77312 951.68202 1056.18140 1159.53173 1243.52276 1349.74009 1371.83812 1385.25390 1347.86206 1264.16678 1179.25005 1107.13267 1100.81586 1079.38497 1134.25442 1139.40529 1231.54057 1333.73208 1403.43039 1455.29250 1466.88714 1458.66097 1400.43661 1271.65344 1275.09175 1262.35290 1234.96337 1237.63895 1141.78042 1095.09824 1011.73614 979.44686 931.09732 848.57457 784.86766 710.35598 666.88073 643.85566 573.74294 515.54186 504.85623 480.09887 461.13681 436.03715 447.47486 407.18662 401.64555 398.28840 431.56930 424.56821 434.54325 444.06140 393.15255 402.33453 438.56894 446.17906 404.19778 342.56316 341.08191 321.15401 261.34902 219.57542 127.98644 113.30776 148.83344 245.81321 252.82221 327.93201 397.38415 541.75075 623.81856 743.84216 772.23741 780.98305 755.24521 794.81971 834.32383 871.91596 856.63433 874.57844 928.20357 925.21507 967.28933 962.94296 989.96617 995.32786 1014.89444 1032.86715 1057.48487 1063.45122 1075.88972 1129.26742 1178.02646 1231.13255 1258.45261 1311.87501 1301.63575 1265.25520 1207.90240 1162.27794 1161.53702 1121.04953 1044.40605 1079.61884 1075.84434 1061.53745 1074.98367 1139.28134 1230.68794 1321.89700 1411.01200 1480.10647 1413.98624 1345.01542 1268.62538 1151.01741 1095.18855 1011.33182 967.11527 914.37112 835.65525 770.83587 717.92454 671.45007 661.73296 637.64445 603.48805 575.43672 550.22685 551.97563 503.38380 481.84996 434.49989 418.57521 405.86003 430.25034 476.07007 512.36995 560.82235 590.20235 587.48773 554.11846 546.88377 536.04544 637.05053 645.43209 589.58451 523.89817 449.99762 369.26055 295.97346 265.73272 261.97530 228.80735 178.10838 172.45087 147.86043 115.60135 50.36464 6.43941 7.92408
10.85533 15.18422 66.98561 95.37149 147.93883 211.18707 239.04185 338.21208 336.99174 365.15992 312.10586 286.63472 336.68015 406.39064 452.09699 433.76675 393.38260 354.65965 371.59948 432.64266 437.67824 384.27104 467.17621 552.76815 627.21511 686.78002 721.53148 788.11118 801.69145 890.23390 912.25416 912.90500 898.92589 873.60627 862.47193 927.50526 933.57067 936.82585 902.50676 850.13236 797.91357 824.76154 878.26954 975.33882 1084.18094 1157.89269 1223.13331 1264.07041 1350.23787 1378.41933 1370.88107 1321.60070 1294.78597 1246.85526 1186.04139 1186.60917 1192.19272 1259.57387 1323.51087 1404.30073 1493.88052 1507.77328 1493.65218 1406.12126 1377.51820 1217.17418 1180.03485 1198.30482 1130.34201 1134.21932 1056.46093 1006.17478 955.62350 898.78678 824.57783 818.93614 763.39762 696.18203 648.91170 602.35388 549.29871 500.53921 491.18181 454.71600 423.02677 424.71309 390.55291 385.64409 374.08607 342.69951 333.26336 343.46791 326.59633 349.44763 264.82742 313.85399 337.97469 339.36904 314.95104 264.35367 245.85524 207.77581 197.73063 167.40609 114.63410 103.24300 128.44904 202.71274 270.00583 341.74062 408.25852 551.97688 613.95812 687.12310 774.36296 853.16201 849.65262 839.15516 853.56788 881.37886 893.80365 907.55821 926.70902 920.32258 960.46920 969.38890 1001.07356 997.61714 975.87102 1029.58663 1063.25004 1086.46577 1134.18130 1189.41663 1217.14437 1252.41542 1253.42653 1241.52225 1221.49963 1164.10934 1130.14089 1046.37206 1092.15603 1029.53934 990.35738 1008.84883 990.08275 995.01304 1021.07767 1102.01621 1168.81959 1319.30422 1396.72888 1472.63508 1413.85762 1345.33340 1247.60805 1150.76670 1100.07238 1021.38111 943.78631 872.58507 790.79205 772.17346 726.69135 771.57086 775.78811 719.33568 682.45228 610.25350 582.77416 591.24099 572.60118 496.73981 487.82110 460.20158 422.34530 392.34268 380.79599 410.71623 497.56868 540.17173 491.33454 482.37459 476.82238 493.93760 584.35926 576.53393 520.36067 444.21718 379.64311 282.15715 222.98126 219.93571 187.44313 135.52497 112.11778 85.03364 90.14516 97.20041 61.31119 6.88488 8.21846
16.49608 6.46908 50.12945 81.01561 88.01199 117.25276 152.55048 200.75268 230.18411 270.35351 240.36943 212.80670 311.26939 361.72092 382.39350 388.26947 322.71130 297.54142 349.63865 365.91302 344.13305 354.45156 481.36157 564.82424 619.92694 621.89650 676.31445 697.28088 781.81921 800.08187 818.36991 797.42464 815.58319 764.47102 802.18733 830.32136 819.97302 876.35234 838.36938 754.91293 762.64278 849.00421 919.15419 1045.88310 1080.90658 1144.32475 1154.66026 1222.51608 1249.50234 1322.70797 1358.26712 1365.69531 1351.08746 1333.25358 1265.28807 1278.25459 1256.72313 1312.39471 1355.98189 1481.09262 1517.15863 1520.94124 1431.89408 1362.96100 1317.25280 1221.97924 1113.32414 1080.28688 1031.28631 1003.11572 965.34593 907.95885 869.14131 823.53749 754.27089 704.01745 668.98464 636.01739 647.15520 615.26992 603.94473 570.31047 530.56277 504.63179 468.76478 491.68486 508.89690 481.33980 485.92429 415.66340 384.02240 323.73632 305.62667 284.29216 238.80767 251.30622 298.80686 255.48239 234.88930 188.61945 178.43825 165.28795 138.08219 125.29298 94.51101 86.71989 126.27967 239.17219 303.51440 386.81064 481.66227 553.71059 612.89615 713.91628 789.57381 862.10960 864.59958 835.34942 825.02201 834.14736 853.31958 832.27839 863.45456 875.19827 894.60130 914.58597 930.44238 900.85924 896.62502 985.01045 982.78933 1039.32527 1102.27206 1120.78941 1179.86608 1190.03805 1177.56034 1173.85934 1098.32030 1054.42278 1028.60204 973.11317 993.25056 947.86409 886.53203 905.63214 914.99477 958.05759 1025.53106 1077.70593 1223.89902 1366.86690 1417.56115 1456.26902 1386.88500 1304.33795 1206.64525 1078.40456 1039.36656 947.43465 883.85900 863.52052 866.82729 864.78722 846.90136 842.79323 837.96367 811.70948 741.38683 722.24370 710.29143 679.38340 618.82148 544.24701 503.35867 473.01077 446.51879 448.72680 432.16981 396.03648 401.54092 407.06793 381.93171 400.35597 381.87718 402.31043 480.40650 472.95769 416.55624 368.01495 311.94267 253.35233 198.94567 166.75831 124.79580 169.95635 145.63035 173.15088 186.65734 153.40072 102.38058 12.07857 13.40030
5.84858 14.06832 82.13668 138.76963 110.05306 71.36890 94.35251 109.54093 160.15797 181.89768 144.81783 180.43826 250.37394 253.35136 285.07054 317.00150 249.06123 259.91461 302.23184 291.45733 335.95056 412.00297 498.85821 546.48182 535.95547 523.39473 580.08768 630.65201 701.69415 678.86665 690.72085 717.69054 714.93882 695.88291 704.77874 740.14238 753.37237 774.35534 752.37373 705.10801 788.31281 887.68790 979.75707 1026.76139 1037.81232 1007.75441 1096.72794 1173.36659 1179.06047 1220.69946 1253.77251 1379.09365 1385.43753 1395.94153 1387.29613 1360.21826 1341.21476 1406.31347 1467.81263 1524.70657 1543.01781 1485.98518 1411.12607 1326.87529 1213.34408 1150.46108 1075.00809 996.60085 972.14231 929.17977 890.63890 839.89492 813.72660 769.83607 707.06074 719.77125 710.94155 715.39811 734.47482 707.14692 704.71490 658.37160 613.39145 589.50149 572.98229 596.42940 598.86228 550.07082 516.27026 475.16057 426.62523 378.73817 330.07363 280.44779 264.01268 263.12516 225.92116 235.63390 258.33003 268.60150 261.85561 241.54803 254.40061 190.74347 113.96538 88.17368 129.50330 221.19073 300.41088 406.27229 519.09205 613.05426 674.25646 709.79708 775.18697 802.57192 795.86215 730.56576 724.06144 688.25567 733.84078 729.30960 711.55330 750.22924 759.26256 821.57956 835.47626 817.13450 782.43062 783.79660 861.42486 925.45790 1027.72590 1090.30934 1078.56513 1073.76695 1033.82731 1047.46121 989.33712 979.29796 935.65589 895.23922 922.87712 880.02905 828.62130 866.48079 883.20004 950.37788 1014.94936 1087.69285 1242.14207 1327.75279 1420.74198 1441.14528 1392.75326 1302.79928 1185.23969 1078.52293 1054.93577 1026.68890 966.99420 951.24591 933.86392 947.91800 957.07525 952.28994 932.71254 887.06878 837.39482 760.83092 743.79356 714.76158 625.25974 568.02824 592.51005 579.91130 545.45943 549.99408 491.10102 394.80894 338.30007 336.09465 303.34673 313.77894 315.94494 333.71135 376.36760 364.85150 335.52772 322.20290 219.71403 199.37021 172.54067 177.91735 246.38236 245.61222 283.24409 269.18803 272.65160 217.23469 133.41359 2.53884 1.76878
13.37548 5.25148 105.99727 178.67004 229.19760 184.53967 164.88011 167.40880 155.90762 132.18471 153.61132 158.43659 171.99947 171.24681 230.16193 233.11611 205.94095 227.45432 247.62438 311.66001 394.70154 441.18629 476.48738 483.02557 419.49352 450.87595 470.37669 565.25707 598.52361 598.84002 601.32119 639.01962 606.85158 607.03399 614.54897 653.05980 657.29409 690.82904 647.64062 699.05172 794.37202 879.10775 939.02007 951.20146 952.32700 966.68378 1038.26126 1068.82244 1092.08878 1141.12814 1193.34985 1272.30955 1374.62471 1412.64633 1442.09081 1447.22088 1482.73304 1481.93662 1525.12481 1560.20054 1546.70697 1461.33740 1413.59136 1276.84424 1197.90070 1110.26691 1085.90655 1031.28787 998.36605 989.86377 985.34710 921.67450 860.61970 844.55014 756.23015 826.38144 844.44973 844.00130 873.38978 822.06990 787.14609 771.76323 722.13943 701.65275 688.15924 655.17606 620.00947 564.12588 507.85651 466.68036 394.17059 329.06260 327.77022 328.51309 333.49539 328.20459 319.03363 319.33913 345.83100 351.20120 369.05565 362.09259 305.99409 219.95353 134.81270 90.54839 100.29550 203.90779 259.22302 431.07047 505.57664 595.90145 632.12390 662.97763 725.10778 714.34654 724.91738 702.93812 627.05766 598.70951 614.13008 598.96902 593.42282 648.63897 683.39156 737.80919 752.93247 713.27965 715.21893 737.60537 790.03976 902.12515 939.24834 968.14667 962.41925 969.41380 939.66895 964.46960 928.84162 872.03376 832.14142 808.87745 826.03644 807.97789 795.69599 834.61830 922.52298 979.80009 1070.45985 1121.28846 1217.45106 1310.19855 1372.12001 1465.37715 1439.21016 1355.31827 1262.33252 1182.49200 1131.82157 1090.61348 1029.56825 1033.14920 1084.99874 1084.83383 1008.12071 1015.60906 974.69098 932.09675 860.33130 808.41383 758.87105 693.19403 676.20183 692.77462 658.68625 671.33882 637.38327 583.69208 495.68700 406.27242 382.24954 384.12718 363.16744 331.36727 282.51452 253.99352 294.71729 283.75556 272.45455 202.18023 176.01950 182.88797 190.45604 251.89549 305.19070 343.21993 392.69320 360.78611 311.13134 205.47728 125.23932 18.37568 7.63683
13.01722 8.89540 111.88560 183.93906 278.72096 307.52083 319.63808 286.04833 266.20876 258.87751 253.29642 224.74065 236.01731 256.01838 289.25076 227.43507 196.56887 249.16348 292.02599 335.01150 366.79846 394.08788 400.05848 373.72664 351.90271 369.84913 405.95064 488.99037 517.84280 483.19183 512.70306 525.67948 534.54681 562.47083 561.09757 565.52802 601.90222 626.42885 616.84444 674.61459 742.11047 837.80892 856.29368 833.51692 881.25588 942.99534 953.92176 951.96610 1037.49284 1057.06424 1128.34843 1219.96267 1291.63343 1405.48915 1492.51425 1518.07039 1523.79008 1532.02739 1538.56981 1560.09088 1538.89599 1485.41261 1418.46962 1315.53088 1305.02121 1269.20217 1209.17575 1095.21961 1049.94924 1034.98582 1055.96419 1011.49986 958.36919 858.46851 799.08302 857.49566 928.00934 947.20426 962.26760 940.23219 898.80538 839.10840 806.57652 730.34566 703.35746 642.95776 579.02611 550.91401 484.91340 399.27109 366.34387 358.15830 390.12962 413.54601 413.06619 393.42954 408.24303 393.93077 432.04572 457.74465 448.36787 387.85203 293.04617 230.25912 118.20048 80.86586 103.07446 193.82638 312.69966 390.61058 478.02394 569.15028 571.16102 592.69129 575.78380 642.62384 640.83921 583.53532 523.98298 489.01360 547.67990 514.63130 524.95654 569.12097 608.61617 639.94691 613.99720 617.60784 616.99542 715.81371 780.03581 848.29662 865.08179 886.98309 877.98996 863.15576 852.34770 861.88235 813.99633 797.35333 757.37367 762.36132 752.82318 766.68154 819.69273 888.87364 936.34762 1028.75794 1094.26841 1197.75955 1285.84956 1372.52153 1433.54983 1497.66108 1488.13038 1382.10882 1330.66771 1320.93398 1223.41934 1165.79444 1161.77723 1135.04472 1150.63839 1131.57054 1101.19215 1070.45394 1027.25257 1013.47301 937.00083 895.13452 845.56781 795.56711 764.26531 756.92624 755.49049 725.86040 666.67983 575.53575 489.54478 415.14241 425.68942 467.05247 473.61169 425.58874 334.55750 287.99790 246.82444 230.73531 202.02857 202.11387 242.08261 260.74939 280.26180 319.93408 411.64295 436.46611 446.16876 413.88605 324.07769 236.03477 96.87395 2.48794 13.70200
6.26815 12.37276 99.70010 233.59126 320.61705 378.62640 395.98432 364.27642 366.95238 347.36879 391.51855 360.11878 323.39506 343.54778 394.36329 361.62343 249.42500 261.23765 285.72770 284.34185 311.22348 314.32492 328.56024 350.62365 407.65382 405.45386 424.11553 435.01633 418.33792 449.92017 473.04310 508.35904 520.70999 517.87281 535.20156 603.00241 691.84830 717.66861 706.61648 670.81869 661.15753 776.69492 780.09241 771.04751 816.90294 858.15897 860.78918 905.49788 968.05690 1018.43045 1088.59734 1196.38584 1319.40074 1425.15590 1488.58117 1501.27316 1503.13775 1451.86306 1448.51914 1458.65926 1510.26961 1500.53674 1462.27220 1387.97076 1355.56590 1334.66371 1256.62751 1181.64487 1140.46281 1154.86500 1112.11015 1023.18077 946.18447 877.16908 912.35124 939.50950 1012.87670 1048.55776 1058.10366 1042.02624 966.21775 862.14087 811.94238 726.22502 650.83311 566.91158 526.54585 511.86854 527.67535 499.38856 464.89711 437.18614 467.64349 468.53893 532.57956 514.48969 508.40590 501.18691 530.64790 534.67584 501.03095 416.19480 298.01644 213.22443 136.06181 86.11979 103.36340 181.10766 297.66030 416.47932 475.32057 515.26088 497.41506 452.87818 465.41202 538.93898 510.68061 494.44767 433.39792 398.44748 419.77962 388.92667 425.49270 480.89336 539.26809 512.68218 528.32178 530.26283 624.40958 681.65683 763.09672 762.53569 752.04907 760.04033 752.62464 722.40712 761.29443 773.16078 744.19025 698.03855 699.32035 720.46165 769.88334 798.52436 851.45849 933.17605 1004.17478 1047.77357 1179.44700 1251.03993 1338.83507 1440.63260 1492.07013 1544.30980 1519.41500 1446.40097 1434.61450 1395.40829 1344.15441 1274.21086 1277.19559 1231.66030 1238.42549 1202.43565 1144.20735 1123.61060 1110.51724 1072.79028 1014.53234 971.74593 906.83209 881.82305 844.62946 818.30732 769.17943 729.06953 638.95609 526.29695 455.28583 498.26535 531.25946 560.48639 547.55747 429.73627 361.23357 320.97385 288.59586 279.36530 252.69851 283.95450 284.71942 333.01816 386.00459 398.42135 486.51248 507.70962 494.75337 405.01000 315.09460 219.80987 100.33631 7.72859 11.11370
12.52514 10.93470 90.30506 216.00402 312.23227 379.95280 464.39960 481.78952 469.31914 421.78131 475.48813 470.15579 446.25888 469.93756 468.86006 441.53524 350.67958 322.24120 304.91218 303.04200 311.73399 308.80944 325.95962 422.56833 470.42341 501.14213 507.34013 517.40888 478.14264 512.12880 511.99966 531.59241 607.08467 630.39425 628.52087 696.02734 745.01122 786.00624 783.13864 773.02411 689.24308 705.18388 716.11065 734.76646 803.46595 837.17486 888.25186 924.67394 982.59324 1063.42544 1139.71238 1205.14925 1332.78244 1371.86309 1424.80641 1455.62750 1425.03961 1367.57328 1348.71691 1381.14411 1403.09076 1474.74108 1480.02988 1468.29285 1446.26939 1416.98653 1322.88720 1245.31765 1216.52054 1203.79475 1114.14310 1019.65626 969.35486 973.81158 1030.98412 1074.27008 1136.38945 1151.33353 1113.13142 1063.48530 955.91736 869.65585 773.37042 715.13055 615.16571 635.27193 624.35139 607.89756 599.99549 602.09706 567.79054 480.95356 555.47384 599.56741 606.94510 608.01560 599.53044 603.03302 591.39948 577.49964 501.30066 418.78067 290.06684 200.83698 136.01541 79.25088 100.19493 227.55336 313.06335 397.63297 450.52435 436.24891 420.68791 355.52263 378.51968 396.27086 397.23865 404.15414 347.19265 363.30885 333.99848 333.38250 399.69608 445.86713 463.12805 435.71237 457.60609 539.80192 595.16203 602.84854 638.45396 661.49565 654.34258 678.52195 666.62890 652.46767 652.31396 626.49488 639.77862 642.01751 671.71846 832.26106 847.48509 921.64897 960.59476 979.92477 1070.17016 1123.86795 1220.42047 1295.03535 1382.54647 1451.12459 1518.67196 1516.79872 1467.25183 1454.27417 1451.33001 1439.03029 1424.54014 1372.57145 1378.25558 1357.79706 1299.12886 1275.11909 1231.93946 1217.46780 1174.41025 1143.27266 1057.62740 961.88928 911.38954 880.17667 806.48926 782.02649 708.46162 641.22218 578.11347 497.07282 513.87743 545.51418 594.17464 621.85871 569.68189 470.34641 396.68479 415.96405 364.38111 348.01488 339.00507 358.14107 335.69903 419.59420 474.21220 494.60386 544.74538 531.13588 461.86976 410.50751 258.46890 173.01303 110.05773 12.33486 7.38615
4.82331 1.63972 121.05225 192.36682 332.40741 408.87091 489.42997 516.64762 530.28028 556.65220 533.12157 592.51873 562.95980 543.75194 588.67608 503.40040 469.41413 438.14303 342.94075 355.81046 381.19367 375.01074 330.39381 455.44144 509.27651 577.95245 596.46128 615.53621 578.67374 523.31692 554.41171 574.69943 674.30749 707.09671 749.98095 728.19629 769.78925 870.80954 893.48604 815.51257 788.58960 782.52896 783.60315 794.36658 868.93485 938.60794 957.11102 1025.93213 1044.76181 1092.31149 1153.93109 1252.76021 1337.59492 1374.59776 1361.37260 1335.59742 1305.78966 1231.04354 1230.88874 1283.96477 1352.19313 1419.46989 1455.88035 1442.45022 1442.94844 1425.65818 1377.32870 1344.76240 1286.27613 1229.32000 1134.91653 1105.02173 1118.64144 1097.54278 1124.87783 1166.36597 1202.76323 1198.37042 1103.43937 1053.01908 960.72188 868.98767 797.47636 661.52110 647.27037 682.74053 712.53887 747.94139 736.37951 688.54926 604.24874 609.62146 635.06844 697.06841 700.74122 691.02794 678.62794 682.28770 633.02896 563.36086 465.17511 398.21824 290.02311 194.86486 110.54072 76.80495 118.14331 209.06033 286.73578 351.45878 378.82879 341.60492 308.61358 272.96017 293.02559 315.15543 316.82021 301.13293 278.90010 274.73274 275.64082 301.53917 344.93616 340.69702 363.16457 375.65907 439.67052 501.81839 490.53775 499.81563 548.67916 544.72605 594.28242 616.88762 571.25820 578.43785 588.18685 616.55803 648.41277 689.09313 761.67073 854.41685 944.44637 986.51999 1027.18400 1089.10983 1119.84631 1251.44117 1313.20906 1363.97256 1424.20995 1461.37643 1485.78936 1439.38123 1375.26858 1352.50802 1343.93399 1402.62266 1407.57833 1448.15713 1440.28277 1404.03519 1371.42065 1340.86867 1323.90374 1279.39297 1212.54987 1142.50929 1033.37914 937.97188 831.11114 769.84708 689.80718 646.43263 637.36725 587.15496 527.55750 525.80885 582.68067 615.21124 672.72656 677.95356 635.87777 512.96842 456.09232 456.32276 473.67985 432.10037 453.32767 457.71473 455.89302 468.99929 569.53534 579.69941 603.37535 561.53407 486.64105 366.55229 254.73000 185.51559 105.25485 8.41308 9.77886
10.55461 13.35208 131.58311 211.14349 320.29871 369.91349 446.52648 494.12617 550.02353 600.18864 636.14464 649.81535 658.51192 661.83036 649.07894 638.71330 586.76586 530.85746 436.56018 426.14353 468.10276 449.27136 353.68192 409.11439 522.87021 584.27437 652.54179 668.54849 641.95720 605.07461 586.54590 605.18978 704.54178 769.93178 817.07524 816.75591 859.39222 929.02512 970.72336 881.59388 853.56204 837.24872 862.73855 859.16881 909.82526 992.08255 1025.98217 1074.59847 1134.42220 1153.01087 1254.93899 1289.59437 1353.31123 1328.89477 1273.34648 1226.96370 1193.86116 1165.42148 1183.26685 1176.92885 1267.60650 1307.12722 1350.86216 1368.65992 1373.45886 1380.06906 1388.50395 1395.38102 1348.92055 1278.87000 1223.80544 1188.57671 1211.85436 1214.56779 1252.97328 1259.68914 1213.46981 1157.74061 1066.74768 988.21318 932.21199 837.71734 800.18306 667.58632 710.95273 763.85918 816.04613 843.72818 808.85948 770.33002 748.36144 695.66765 728.72933 778.71265 835.22943 811.49751 780.03510 720.46450 639.68294 541.11148 431.56491 332.32340 271.79014 198.87763 115.08333 81.14093 100.48372 180.93458 236.58044 273.77777 283.11310 256.29633 219.17014 192.04876 207.16141 198.75639 220.95512 253.17787 326.84647 325.04826 349.66988 382.87585 378.55880 401.59666 366.44129 372.93192 375.54006 442.03269 429.80681 431.79908 455.56960 471.77955 499.95915 530.15568 568.37278 601.20164 647.09082 689.55757 711.95397 702.75814 771.38516 856.86292 965.78361 1029.09507 1098.25768 1154.69146 1243.88467 1310.67274 1386.93078 1440.78084 1453.97601 1422.70438 1376.18190 1360.03675 1283.77885 1242.42903 1265.83850 1329.13083 1368.63570 1405.38657 1468.89550 1495.82874 1441.22949 1392.65784 1334.67261 1232.19575 1168.66772 1100.15655 974.63677 891.88685 810.59800 774.95628 750.07764 671.21373 617.73131 610.76131 589.50085 620.52676 677.10102 727.17415 752.85575 710.18628 619.06643 568.43440 514.78621 530.24038 551.95478 521.27411 533.17768 517.32434 533.85912 623.77775 635.99061 692.68247 664.54972 581.15944 496.05243 399.00137 289.10499 175.56356 84.02061 10.53349 11.54413
15.44656 7.04196 120.60590 169.67327 270.82585 301.74777 334.43339 444.59683 496.02688 573.15224 631.19377 644.61557 676.37152 715.22244 692.85357 695.09490 649.42322 589.35813 540.43165 566.69051 547.64060 497.96056 422.96090 418.94747 471.03890 587.85653 659.23347 724.86266 734.30832 679.51822 599.03372 661.71195 714.16820 773.79978 871.07173 936.44448 967.91663 1009.69054 1040.51339 1012.38342 932.15519 959.94758 918.70693 910.26969 965.53039 1053.15734 1136.09375 1218.78858 1242.38375 1263.07119 1298.87716 1361.94167 1366.88199 1294.95032 1198.34998 1131.15452 1097.11889 1055.47040 1119.41151 1141.17698 1158.72726 1240.69069 1267.74022 1285.62638 1275.50001 1249.37952 1342.91192 1377.83465 1387.62869 1335.59180 1324.08876 1313.38557 1327.74292 1336.84052 1346.57074 1323.76694 1235.47250 1158.66788 1053.24565 944.18854 845.79265 777.97308 764.02010 760.09558 845.87826 866.22591 874.90653 911.61794 934.22493 872.38119 816.50686 805.81870 821.64981 899.13780 872.87632 860.11523 809.70020 708.47220 589.60306 503.09895 400.72846 332.58282 225.86430 152.20564 81.58777 67.98470 89.60527 99.85967 150.74949 188.33703 220.78096 167.18916 187.29675 220.13379 240.12396 269.01163 268.84777 271.09613 368.08537 389.95741 437.22167 478.90740 501.39628 482.59220 467.29284 490.38770 413.88740 431.25269 488.40579 532.97673 527.41345 528.92046 504.48218 535.16640 615.76663 659.41144 731.36550 753.83710 784.12822 761.03767 808.99718 809.63265 917.98505 1015.26931 1098.77241 1145.36567 1265.92626 1352.84545 1430.96502 1442.88887 1453.97398 1341.78789 1292.85269 1238.77114 1164.95038 1140.18380 1209.49881 1222.93391 1287.03082 1351.90874 1441.86481 1487.23837 1475.69569 1380.43408 1280.86024 1190.40742 1077.04944 1002.98227 930.55903 832.43565 812.41573 842.84685 809.11022 748.53372 692.64031 716.10014 669.30632 680.90735 771.26379 817.46665 815.42690 766.97438 682.17164 616.79897 593.35225 654.24042 683.32738 618.66017 586.89086 609.41395 653.50694 679.02159 724.86176 717.42403 684.43535 624.30684 478.18135 397.82602 246.78174 183.43337 89.79685 9.51401 11.86917
7.99512 8.45493 81.74666 139.58633 164.06941 228.90500 304.20111 384.37229 465.23274 556.42508 547.11368 604.35167 644.25570 685.94823 735.36744 739.89428 728.01914 689.08227 652.00733 666.93466 616.54895 554.47106 475.59961 453.56357 472.43674 534.32343 669.27676 737.41921 769.12673 774.18489 706.81011 722.23310 764.53644 819.18734 885.69466 985.49922 1060.06895 1121.86303 1099.90933 1053.60868 1022.73374 1042.75535 1023.86456 994.60893 1024.96702 1080.81556 1147.56752 1284.83689 1337.39009 1352.68011 1399.37755 1375.22948 1349.72441 1236.93624 1178.36955 1050.40523 979.56164 1008.10227 1053.83544 1048.43594 1048.77934 1122.85638 1164.41920 1193.38166 1219.27140 1159.53500 1234.80363 1343.49676 1392.98402 1407.40103 1399.40754 1400.24625 1405.78738 1431.30534 1373.32237 1305.73448 1218.24088 1107.37699 1031.70115 908.71340 865.96176 855.14999 890.70524 901.08614 937.28356 970.29103 1004.99511 1023.51870 980.93639 943.65452 889.13511 883.96303 898.76933 910.44831 909.48040 871.92844 767.03895 646.97156 549.28304 463.89726 410.77050 316.86284 271.10181 196.57250 102.26955 66.69766 92.13672 152.34214 177.70145 160.21460 157.46618 167.21096 226.93288 296.07749 331.22971 331.04450 377.55450 345.67120 380.98085 458.83429 503.77975 533.38993 568.85101 608.13395 558.74388 538.94700 509.18233 460.85788 504.21772 567.90982 621.56268 609.88378 545.17962 578.68177 649.77970 733.05960 797.27090 810.42530 832.43836 851.99443 839.05525 891.89414 905.08848 973.92442 1062.59785 1142.60176 1274.55357 1373.30961 1439.36740 1432.97135 1336.58752 1277.08927 1237.72691 1144.60700 1114.98383 1053.92738 1096.67814 1099.94717 1205.21055 1278.63440 1386.49884 1454.23453 1438.81922 1348.44563 1227.70214 1150.02332 1035.79708 940.93578 897.14856 856.54625 905.73006 926.51772 849.23976 778.97132 800.33990 801.81128 745.48232 799.45525 865.24216 917.41153 907.76992 826.45785 719.01001 701.37984 698.39297 741.69515 745.59094 735.51281 724.08805 734.94835 720.03583 758.39960 751.48967 716.88667 683.05667 596.90472 471.12242 398.17732 269.95377 190.62365 95.93476 8.29907 9.98570
16.10264 11.20795 90.12047 123.73175 136.90129 199.80013 224.60883 314.40030 351.13295 365.29040 461.91193 497.99796 538.26562 611.38540 675.22675 762.05549 810.27088 796.33642 826.38724 745.77314 679.25852 590.33155 567.13602 544.07036 540.38812 555.21466 661.72590 763.54283 818.71800 822.96643 762.21345 730.42361 783.24812 850.78763 955.24290 995.74131 1081.29436 1185.96538 1186.19047 1191.72501 1135.39457 1158.23461 1150.72183 1088.11649 1107.25023 1145.47311 1220.50903 1323.12100 1429.40650 1446.54487 1480.81021 1395.40316 1321.12864 1177.32180 1085.21389 1020.32896 941.40249 950.30378 999.33330 982.94798 1003.55107 1091.11856 1131.09979 1114.06559 1068.99253 1056.46688 1146.91606 1225.56760 1343.59621 1386.91101 1414.74338 1428.09077 1437.68274 1453.73160 1369.52669 1294.46415 1208.94774 1098.23780 1034.31121 961.48694 940.33323 929.52366 952.84003 992.04764 986.58864 1056.29205 1066.15690 1044.08609 1016.88406 954.37846 908.87589 878.83295 849.94367 860.50449 861.02013 839.71417 789.53011 666.32383 529.90988 423.92444 355.19782 277.71642 236.03528 177.64984 80.60488 74.81293 115.20229 183.27655 218.99398 282.17574 293.69957 288.02198 310.50607 352.94130 419.94798 422.24892 447.45856 420.18399 434.39051 534.90454 585.08474 672.44947 673.37127 697.32272 633.27011 616.89997 583.55075 523.60077 582.33134 663.06107 705.30410 706.64108 599.79701 620.17691 713.69425 760.82065 887.98154 891.03084 896.83206 921.79360 960.42311 970.42824 1044.03401 1068.65666 1087.87597 1204.36045 1318.16502 1393.36360 1420.06290 1362.78260 1285.03729 1185.17105 1142.80754 1079.94443 1040.49835 986.31264 1008.15358 1060.70864 1111.63236 1237.77518 1364.34567 1443.08906 1437.58756 1352.67652 1259.74727 1146.17672 1092.80123 1026.60027 983.66870 949.37611 977.92763 997.50328 944.09015 887.39484 918.93027 909.35218 872.90875 869.24846 939.63112 979.96536 942.21802 918.17352 870.83275 825.08124 815.92993 836.89893 831.37269 814.63117 813.16583 832.35024 808.49625 769.89681 725.58049 666.98716 599.34484 568.62260 467.24573 406.28169 284.57754 165.33196 88.61908 15.06376 9.76192
5.17993 10.37131 97.40248 199.17949 220.36995 236.17157 224.15577 256.84802 294.43283 329.97552 371.95948 421.20295 480.59082 536.07277 690.52545 721.34999 800.11258 862.85616 867.70318 860.98896 730.63001 687.90438 649.16914 618.96842 613.16519 616.03975 642.19722 758.59387 839.10004 869.46820 869.29807 807.23734 795.22706 901.15491 967.35197 1052.64939 1117.40778 1267.34440 1305.24153 1296.62700 1248.45247 1250.57390 1195.59379 1199.13326 1213.86488 1245.38198 1294.88102 1375.04959 1455.53659 1491.76185 1490.86237 1449.42726 1339.10497 1178.77210 1058.19405 981.71294 894.66487 878.34525 929.61073 898.82043 940.89614 1035.56549 1053.45733 1020.02954 971.11590 1001.27862 1110.25750 1186.56543 1249.38949 1320.82340 1351.10831 1378.47894 1424.28555 1447.91835 1421.88990 1352.92910 1254.34673 1153.47781 1118.76910 1044.31743 1016.04349 1062.29642 1067.96312 1084.05502 1086.83017 1077.20847 1054.18591 1005.90914 965.54806 859.81796 806.26874 782.83001 799.19645 774.62765 822.83829 796.08784 714.58318 613.54692 493.27606 425.93088 343.91909 262.06503 226.22737 160.02240 89.72807 74.38564 108.89634 193.67256 279.49274 367.30000 381.51082 387.49756 402.02891 413.25506 471.81881 550.14311 554.78695 522.82255 537.97530 600.63198 714.62332 767.25964 779.42038 762.56725 738.92458 720.65865 678.12191 640.49023 645.01781 750.70437 781.22828 757.81331 654.71219 620.84734 674.31193 803.15553 882.62617 902.42369 963.17884 990.69127 1042.19753 1065.28647 1106.26107 1128.41832 1190.59385 1277.39794 1338.77139 1386.24196 1384.43487 1349.46136 1222.19479 1151.48898 1068.65163 1027.13678 990.93198 933.11612 933.33149 984.68302 1101.28300 1248.15351 1332.74819 1410.62289 1457.12856 1363.55634 1299.54284 1240.64327 1164.18183 1110.38288 1084.97548 1096.66216 1094.40998 1069.56753 994.41302 980.66756 984.34854 999.05074 969.42662 971.03488 1012.23556 1034.37032 1005.78967 985.12464 957.78166 919.17732 901.75970 878.50992 883.00213 882.54276 884.15979 876.75206 829.85926 757.26618 682.41266 572.82129 533.55626 439.57947 413.50182 335.77967 254.11502 184.68315 85.94745 8.56909 12.69334
17.46845 10.64397 144.61389 231.91725 262.23741 299.81972 322.25704 342.98082 358.11035 362.08923 398.77638 449.01393 477.47920 521.02389 614.79295 696.50900 758.95999 877.52026 930.23435 891.09337 866.74147 771.17628 731.16048 685.77524 656.34522 665.07738 672.61443 763.64319 854.97466 931.35212 947.49613 904.51524 897.26910 912.71140 984.49050 1089.86832 1200.77887 1289.80174 1351.06173 1353.27148 1364.25095 1318.61468 1315.41282 1306.35236 1341.23128 1350.41453 1401.62242 1423.69107 1474.99701 1456.03993 1455.34926 1402.56696 1329.43744 1193.97464 1091.07023 950.87239 874.05987 815.46759 817.59823 849.16896 928.09608 989.29091 977.46033 929.60565 921.24942 983.57689 1066.08273 1110.75260 1215.27857 1245.90729 1237.10896 1271.95067 1339.22374 1398.59712 1435.57089 1398.81086 1330.17215 1259.41179 1182.92565 1165.29122 1168.51835 1138.63431 1129.68088 1108.84663 1076.74394 1064.81351 994.04417 938.27676 872.09970 802.94420 716.23987 675.46403 659.10710 689.76052 698.52088 744.62479 712.06304 604.69870 532.07643 433.08282 410.01555 350.56166 274.15446 198.20559 96.45738 67.06185 99.59818 202.83423 303.65879 380.74028 449.26090 493.26356 530.91059 532.74429 572.30306 629.50086 653.20169 641.21348 637.03851 721.65459 778.98149 846.99562 866.40279 838.50049 820.03287 792.33634 759.12998 748.25623 758.83742 850.37801 843.66750 814.11658 706.59419 696.27936 709.92131 792.24290 870.19090 959.71181 1002.59162 1044.50387 1078.30253 1164.38084 1186.25407 1236.13414 1262.43721 1342.01781 1376.10782 1344.58322 1281.69202 1253.28973 1185.04535 1110.29537 1047.86596 940.53739 895.24284 876.47203 910.68090 972.06870 1131.10438 1215.85864 1318.23436 1407.22279 1431.10821 1394.93664 1362.86691 1317.11295 1278.32457 1188.36434 1218.58235 1212.94069 1206.22606 1182.03142 1121.11372 1082.20844 1069.72524 1055.41860 1057.73855 1037.89251 1058.22959 1045.70477 1011.38938 1001.60889 982.62020 956.62063 918.58738 848.87097 840.52183 841.10111 867.47371 852.98671 803.20689 746.11880 617.26370 527.30087 448.61436 360.29774 320.52150 319.10582 246.24126 185.17771 109.72054 12.51960 5.98821
9.54900 5.76206 97.15476 226.59909 252.33257 347.48146 394.06326 431.03731 453.33022 515.61020 507.76752 511.95888 567.33954 587.59751 589.09453 667.55026 757.81142 846.54623 947.19286 977.03623 959.71032 905.81355 839.03919 774.42599 751.85220 753.73845 709.72595 760.23498 893.06317 955.22060 1003.21835 1014.19707 937.88343 976.73144 1029.98579 1134.71260 1216.48463 1329.71286 1402.16455 1407.98665 1364.70851 1326.69088 1338.70262 1348.62100 1366.87028 1386.57371 1419.68533 1444.82463 1425.16289 1382.30546 1366.49154 1351.54973 1318.75828 1221.31254 1086.35351 987.28332 894.04749 813.67441 744.63773 766.04453 844.44407 937.70767 886.31443 840.47353 827.00890 893.36339 990.96686 1055.42434 1116.59979 1126.57752 1152.06817 1197.39618 1231.37516 1337.87141 1400.26589 1405.56177 1365.98772 1292.18504 1251.74862 1189.47645 1159.38465 1088.46817 1072.75156 1067.59776 1008.47407 997.39355 952.14298 875.04088 769.00475 699.32956 666.49235 595.02587 524.52381 568.40452 595.10859 653.50597 671.22134 633.25322 579.36722 533.99628 460.61608 384.21271 271.39039 208.63423 130.78147 63.40938 114.06439 155.42417 302.47497 367.42674 469.34005 525.69324 607.85671 642.23169 699.30122 748.44194 746.23395 741.88095 752.52806 805.25449 875.59545 893.23368 914.49693 926.13522 917.88685 896.46534 883.54895 864.53360 878.61533 900.44118 915.95627 855.00486 812.39287 766.42888 797.35366 798.49954 824.61590 937.15886 1001.56336 1083.13748 1136.20739 1230.36388 1263.67135 1315.40232 1366.08761 1367.14099 1343.24019 1292.75252 1198.78088 1130.36725 1123.92755 1068.26117 1005.34972 924.40327 855.32255 837.52865 924.49481 987.96582 1108.62400 1209.17664 1326.83828 1366.64262 1379.81660 1396.86012 1405.03530 1393.52935 1321.58048 1293.48091 1301.78406 1302.89360 1268.35789 1221.28103 1184.92494 1166.87906 1143.98822 1107.11929 1076.10518 1024.81730 1035.73067 1004.33074 950.07306 967.58990 953.00992 958.04435 826.91939 753.40938 739.85361 770.95708 793.49640 790.54637 758.95546 689.15786 638.58418 498.99188 450.82626 353.18973 296.29086 255.41488 190.86847 134.64097 83.64069 13.52284 8.97431
7.90753 6.03035 94.28816 154.41631 245.94997 306.29537 364.59164 454.38910 493.96116 554.78557 565.14506 647.86067 669.20618 667.05850 686.26807 743.07400 777.22529 897.92277 980.72562 1035.81775 1016.33439 968.86856 891.72472 874.36779 852.87194 805.65577 812.76522 813.89896 869.50852 951.33307 1052.71962 1098.15176 1056.93000 1074.19687 1096.68803 1198.71733 1298.54402 1361.28935 1401.33343 1378.83638 1327.43912 1264.77383 1272.65060 1315.47272 1309.55697 1354.52906 1369.35047 1379.56054 1370.50094 1290.56038 1273.65462 1262.24326 1265.32069 1210.82261 1099.63639 982.78282 908.88802 812.05705 726.40473 718.01041 815.81587 865.85864 864.54025 776.16776 822.69009 928.42224 995.92502 1006.08785 1025.20693 1058.19625 1067.98202 1080.03407 1190.07668 1251.82252 1351.12112 1378.17601 1331.51469 1248.63844 1200.79459 1169.13718 1077.16027 1011.78614 958.56586 893.65770 887.30946 894.13724 903.13927 832.99145 771.10775 667.35297 598.42470 503.78040 484.57408 491.34926 522.56991 559.11155 597.38079 577.94321 552.30315 535.58537 468.97151 403.34042 291.01189 180.16469 93.31525 65.41532 74.76043 193.69228 262.05558 355.57909 436.49455 524.15197 621.99524 699.88585 736.84456 757.52143 781.58716 793.04712 813.07248 851.07382 872.35207 902.98965 930.97350 941.23423 931.68916 931.80067 948.73738 957.73127 1000.67020 1028.61259 1014.61616 927.68700 872.96911 851.17269 880.41126 880.39156 909.46925 955.94247 1029.27769 1122.54041 1179.11457 1269.27314 1321.21979 1381.11394 1401.27872 1364.89370 1279.53921 1222.20858 1118.53050 1064.55831 1030.19576 980.79022 966.30472 905.91098 862.11758 869.78381 931.18039 1013.92573 1163.40903 1200.08657 1257.38104 1272.85939 1301.40623 1357.06303 1420.50094 1447.14462 1420.76233 1394.19281 1347.84426 1314.41851 1255.86973 1206.13167 1186.87475 1151.00043 1110.18977 1073.90065 1018.45759 951.91410 932.66426 866.70232 825.16958 851.52690 880.45708 878.91828 776.05005 672.88748 631.41666 627.44771 678.19430 686.89927 648.44290 644.54627 641.78530 595.16045 532.43821 390.98910 367.67587 278.82457 172.55739 145.13162 80.15460 7.15693 11.44070
14.56153 5.29846 74.42210 153.16141 193.27487 251.58571 297.46290 392.28229 499.96718 581.69834 674.92358 722.64037 791.11585 776.65972 774.68521 798.90690 879.01653 959.66445 1046.17286 1070.85699 1086.76806 1025.77155 980.73795 985.42375 930.87704 948.14247 936.58650 929.32387 953.72614 1015.51722 1076.05978 1144.47647 1154.61036 1140.16857 1167.20168 1251.24913 1351.19957 1379.39484 1339.57553 1288.29122 1262.40862 1248.11984 1220.15263 1189.49109 1250.76113 1226.35546 1259.77117 1301.85793 1294.85522 1144.39598 1156.87158 1170.34870 1195.17408 1168.01071 1093.46386 1018.84363 916.42554 835.92245 694.49511 652.81597 743.04939 771.92180 751.54194 732.49491 834.36381 900.03827 963.26591 947.82132 935.51502 976.96715 946.35516 1002.85622 1118.68870 1199.28702 1304.17292 1344.63911 1296.85595 1197.98398 1088.40624 1070.44658 989.63844 935.88940 869.82926 808.09671 799.23373 809.40238 796.88819 800.93345 738.66533 699.89496 612.63506 525.14730 451.67656 423.16688 402.62311 425.93045 509.14766 477.47545 472.42086 470.02175 445.71416 374.78435 272.92672 176.07628 98.72605 64.10910 85.17998 148.84984 247.01030 287.54419 402.58762 517.49057 591.17113 705.71635 729.28273 726.49101 764.01410 771.05908 765.94478 778.18569 816.42667 841.35849 825.57052 852.97189 859.38650 906.17923 937.91120 999.47820 1042.37713 1093.22001 1091.97957 1033.89639 987.49314 971.60400 953.61868 965.37185 987.28726 1012.95736 1112.64850 1168.21024 1268.57172 1334.22559 1408.69546 1435.00264 1410.02383 1299.63803 1257.07980 1112.17619 1072.39284 996.89116 929.52608 916.11524 901.93732 812.95943 777.11166 839.05389 936.18308 1044.22278 1137.93591 1195.31081 1189.64988 1152.31924 1202.55910 1330.13385 1395.45840 1440.10340 1431.55623 1406.27908 1344.97975 1261.34041 1230.25187 1125.07325 1124.43859 1082.80592 1040.47105 973.14582 927.45195 877.16182 816.28565 785.76352 735.56996 755.85976 804.32466 791.71168 721.30495 619.30377 570.24795 509.00219 576.34175 604.69861 550.03233 562.34783 602.44282 594.02117 536.51618 489.00866 384.84649 308.89176 227.45359 183.37306 104.68908 11.35841 14.19897
9.60695 16.72666 113.33022 193.83152 262.62845 295.46020 358.61843 429.53717 508.34770 586.36032 685.77622 791.45986 866.85033 874.57942 892.98696 908.39216 947.40697 1009.93117 1059.30316 1092.90198 1100.11172 1086.23148 1047.64165 1038.35018 1058.67500 1014.56702 1019.33208 1019.59120 1059.59471 1098.32993 1148.03870 1216.10919 1252.57117 1260.10924 1285.41474 1339.91395 1352.71714 1352.57674 1280.87865 1192.34439 1133.79882 1039.68274 1093.91245 1125.43059 1126.68096 1139.68861 1192.34749 1223.89761 1198.26576 1111.00007 1058.84330 1084.52375 1131.70590 1144.01062 1133.87440 1037.74697 974.23246 863.57176 772.68427 644.72946 696.49681 720.67301 679.22535 746.91260 817.52212 862.73053 917.23264 878.75006 855.19555 857.13829 892.72043 971.41753 1032.42669 1152.03096 1301.55612 1316.34978 1291.73040 1156.82721 1036.73276 946.65595 905.16010 852.96479 794.45739 749.63224 682.58950 710.47584 738.90153 720.04161 686.37226 659.82297 620.63064 538.57847 461.49026 406.67923 332.21203 384.63869 413.73865 364.20534 352.39190 366.01216 393.42399 379.89646 285.38589 183.76381 115.72245 63.20025 87.12007 156.75078 248.81953 300.70038 395.94603 541.75623 600.74739 644.67976 655.04791 644.31398 640.40038 678.29126 647.47830 679.13730 698.75642 729.20829 759.52561 770.07075 746.20808 864.61888 886.28030 969.58352 1065.13559 1102.41328 1161.14520 1123.76531 1087.81507 1050.17643 1042.91540 1072.77326 1094.98512 1132.88852 1168.80510 1252.50496 1295.65419 1340.30251 1395.97234 1420.21580 1393.23472 1270.98848 1176.41116 1049.99745 979.26834 903.78372 878.64693 897.36513 820.47639 766.74620 747.81384 839.42136 923.19842 1012.91010 1106.13235 1132.91562 1117.77824 1083.80462 1127.44370 1215.58010 1342.79353 1417.92091 1416.63997 1358.37521 1245.71785 1204.23551 1115.67397 1049.08971 1008.28981 955.43294 970.29415 902.12819 863.94330 790.73253 690.89879 679.62225 640.79797 654.65114 699.74211 684.03400 660.76841 579.10396 476.85867 471.30518 518.74710 508.10830 453.72114 461.73938 514.55301 536.54629 525.53999 494.74644 423.48503 389.63759 274.87044 210.94023 112.59280 8.28796 3.27580
5.74157 3.61135 142.57971 219.63819 323.39379 376.40290 450.72243 505.96554 581.62023 642.46040 705.74924 809.34481 864.72640 947.86874 961.45507 974.38751 969.39396 986.42932 997.20239 1030.78339 1024.55033 1059.46083 1059.58898 1056.27494 1066.81141 1062.66868 1060.74383 1091.87471 1120.55266 1178.15306 1235.75490 1287.58553 1291.54047 1328.95472 1324.72082 1307.58218 1342.78044 1312.74164 1266.24979 1156.95836 1045.73866 979.42113 984.68740 1049.69052 1006.37351 1038.90056 1114.30786 1173.21617 1119.77425 1052.20434 960.08389 1002.55395 1057.92448 1095.05592 1123.83627 1072.48094 974.60665 880.22145 777.06096 703.42514 609.13670 640.99443 622.34429 716.24491 765.12990 785.83977 810.57555 785.58783 774.66769 816.47295 973.30191 1038.86118 1091.72579 1206.08176 1293.74367 1305.33137 1252.29096 1134.68578 995.05764 907.78102 826.66917 781.07537 718.62095 675.42439 610.87635 636.48459 618.92017 616.28397 583.77032 569.97170 577.37963 503.26108 444.55155 407.25992 308.76901 297.20663 307.21392 295.51447 271.25581 291.51050 312.26254 354.93101 312.00974 193.84025 86.76556 56.74985 101.27238 182.17855 249.36380 348.15763 440.99621 469.01546 549.24698 580.53402 576.59955 491.57495 528.70296 543.81206 597.12115 608.29433 614.23335 607.34091 634.01567 652.71935 669.75092 732.01817 836.11408 890.23565 988.77611 1075.56469 1169.79205 1197.51271 1198.64686 1203.83644 1162.76632 1188.29726 1207.94513 1222.96675 1246.40960 1261.89776 1292.49566 1321.72997 1328.35958 1357.88810 1317.43208 1233.54615 1157.02127 1097.52666 997.87418 877.85042 785.37594 823.57413 815.16198 732.23787 723.41456 836.25995 895.76560 1003.91589 1072.11946 1089.76632 1053.08672 1019.70122 1106.08762 1181.74858 1298.15529 1352.26973 1392.12427 1321.64449 1223.38946 1159.67508 1048.60368 981.64051 889.54630 873.71817 862.33024 807.29667 782.09713 738.36084 653.50840 608.09769 572.78234 605.96308 599.26171 581.93842 599.67364 547.84873 436.49037 389.87950 398.27054 396.24278 392.63000 352.91206 422.79532 464.16830 452.45656 454.59641 371.20240 356.94631 296.90448 194.49100 120.99351 14.15355 8.33354
7.24423 12.89493 100.21134 233.17579 311.77656 403.77776 496.30673 535.82597 628.31516 677.82250 722.34591 815.85589 877.20937 947.58393 983.74763 946.17770 911.63213 908.36883 878.78639 886.92691 906.49265 949.02427 960.65205 958.24487 941.82876 982.34169 989.09057 1060.92923 1134.17461 1209.17278 1286.10149 1297.71888 1279.40333 1265.84993 1236.68057 1225.37692 1220.50564 1270.49953 1180.75394 1097.22675 1023.53970 922.36851 884.58739 891.42585 932.07845 979.24233 1089.63374 1129.86391 1073.56262 992.69696 918.13180 918.56050 945.62370 1036.99984 1086.72921 1033.41052 948.94862 870.08961 783.84190 676.01787 595.81817 559.99782 648.27793 703.12448 702.43136 677.18018 699.64720 733.92428 809.37859 869.30725 957.66182 1089.49966 1170.53321 1233.69179 1332.84354 1314.26211 1206.42558 1104.73138 1007.32407 907.25310 792.91836 723.98201 661.82746 605.87327 587.38299 529.18640 535.91718 501.14483 496.96928 471.56830 420.97765 434.62632 387.33723 310.45755 270.09245 258.58411 254.98726 242.71244 212.67510 199.38100 253.15768 284.15849 257.67972 204.33455 70.88649 58.30922 75.78626 193.89123 242.29110 356.30404 404.06449 441.30471 473.07167 469.48940 469.36610 441.29974 446.83124 458.21988 492.22618 499.37405 516.41635 532.81916 552.47191 608.58574 638.56765 712.97794 795.27414 859.99296 981.59107 1042.34371 1193.48571 1256.79942 1271.26725 1260.62421 1236.10790 1247.60277 1247.60235 1227.41208 1208.09196 1197.53333 1184.46194 1211.67779 1251.39741 1290.20328 1277.65422 1189.54182 1139.59106 1075.52758 959.39252 879.44049 776.55071 733.74713 758.97622 693.13377 720.18788 780.74536 857.38398 1008.70379 1030.88520 999.41047 929.76254 932.17494 1023.02027 1132.66986 1241.62419 1313.67447 1387.00115 1329.84686 1250.35629 1129.31109 1039.13493 953.95883 881.46037 820.79382 789.75109 746.81122 706.72708 663.36772 609.94442 642.32531 597.93903 515.85309 469.50823 533.55812 545.39350 515.72688 437.76578 342.51769 324.51216 332.20974 290.03588 267.09515 322.96334 376.51163 383.67519 348.73963 311.03822 298.74782 255.63040 191.01076 102.74463 10.48190 20.76868
12.99507 16.00974 93.69126 208.19121 270.79021 358.48232 420.51710 504.06566 576.25029 641.85244 681.82437 759.43093 837.43660 915.66780 920.11407 895.60976 819.05878 780.61024 808.60431 809.51721 850.57649 852.55662 879.83709 879.87888 872.57193 875.46929 918.15625 1026.19825 1069.09281 1173.27863 1273.36345 1286.46477 1227.91021 1147.88151 1135.31979 1112.60811 1148.26533 1136.93282 1129.96602 1045.31386 978.96700 894.60115 842.63183 826.26038 883.86435 952.64840 1041.60283 1060.23014 1027.49401 941.82536 856.00800 858.06866 912.63216 1012.05834 1066.60886 1002.07479 913.33491 830.70309 741.55625 685.41461 589.23540 555.88912 624.31262 640.20018 613.37591 651.92044 761.96176 818.95123 930.72503 965.19482 999.00222 1116.94080 1239.08237 1314.78712 1354.92226 1308.08147 1195.03727 1060.69661 949.70869 874.19396 772.54688 726.48244 654.13708 650.01790 626.37941 541.77852 498.76886 481.35317 451.79871 418.20869 379.91752 370.65904 333.42674 345.83647 329.00767 337.90009 354.50162 330.04762 249.50209 220.98042 194.16045 185.13469 178.20862 137.28783 69.50432 51.48559 70.20099 150.81645 245.41284 332.55764 328.95416 350.00916 379.19164 372.90047 340.84393 351.52412 353.27357 364.28505 394.44629 402.85947 468.01752 478.66149 595.78814 663.46982 672.93244 719.07901 763.43437 844.08412 926.51137 1079.56803 1132.67119 1238.53156 1317.21412 1329.37757 1305.20851 1260.29712 1223.03489 1165.76863 1155.06312 1105.30621 1058.99099 1084.97554 1167.74474 1216.47036 1191.39684 1103.87115 1075.17735 1032.09142 945.65541 867.80327 748.74995 683.73000 703.63585 667.46792 686.45435 775.29769 893.35741 974.75465 960.58594 932.56797 869.38176 934.90415 1018.07821 1099.55060 1242.65193 1322.84229 1379.33653 1341.02175 1286.76876 1149.10795 1059.95925 1015.21620 918.48752 911.65020 894.46182 863.91821 759.22029 704.34110 700.95893 698.73256 643.77083 565.52410 499.02306 449.44310 472.49673 482.65291 392.47275 314.80063 305.72933 297.03612 300.36847 243.19334 231.98156 262.67877 288.11454 258.88281 215.91378 195.71441 171.86359 128.90383 60.88600 7.84414 9.87562
9.34143 9.03489 75.98863 118.18138 212.65008 285.22871 375.38621 417.96386 496.73685 536.43807 662.19226 726.37674 817.52962 845.89286 807.05867 776.89663 745.24098 679.47547 681.61555 666.80192 717.83355 745.21051 761.66324 766.54249 788.17056 804.19059 872.13736 949.88968 1046.79872 1181.82912 1257.93672 1248.24384 1182.67860 1095.90498 1020.17279 1047.78485 1018.36736 1047.21566 1068.28230 1010.03302 911.83230 850.78289 776.00223 760.99278 798.57664 874.56732 961.26078 989.62573 952.38988 846.78465 796.08953 828.31741 941.82928 1010.65794 1057.32028 1017.73868 902.81788 792.56786 678.12932 620.49632 549.71191 534.18146 598.50356 589.42489 604.70116 701.87823 811.15227 932.23539 990.51437 1051.29191 1074.47594 1141.04946 1280.65557 1324.75273 1352.89701 1298.16291 1189.34965 1083.03051 987.20002 936.13266 824.01458 760.92453 734.86552 714.22350 656.15953 578.60695 572.68403 550.54829 583.26295 513.89774 456.63549 418.53631 417.93874 445.49416 442.74152 425.79267 436.95362 379.06170 335.97638 263.63906 186.68825 149.03833 110.19158 102.45498 61.94559 53.27508 79.47824 146.40537 180.04932 215.92338 256.23666 240.81134 256.29057 280.39473 288.00764 283.95667 300.17812 345.45234 437.96802 467.18716 551.63068 604.08670 666.37388 737.34973 773.48783 776.15968 851.99961 862.58154 987.22472 1045.12276 1129.77357 1225.49565 1296.35030 1314.99271 1281.20109 1172.73576 1132.03542 1102.43477 1048.85594 975.48247 967.97723 1044.98883 1103.24260 1147.79352 1154.34635 1082.74309 971.58582 930.40164 918.08242 799.35894 728.98677 647.67831 651.72275 608.09991 731.58199 822.55587 910.70444 949.51568 939.10195 860.25427 870.82352 960.73826 1038.58124 1134.26117 1226.52454 1298.67653 1354.27997 1335.21160 1303.16938 1230.76373 1146.47174 1099.64124 996.07283 1004.35458 992.63444 915.13249 863.14633 777.95335 756.05802 777.20827 709.58054 619.97528 539.75738 481.94596 378.02935 367.84116 349.80552 383.12047 420.45007 402.66946 370.19871 324.89956 248.38565 197.70661 182.79396 184.52952 145.03914 122.53849 123.27286 105.65434 65.30479 9.56220 17.17576
11.65132 15.00377 79.80829 166.81765 202.99241 261.95518 336.87921 386.82567 470.48520 544.94603 626.26232 722.29494 744.02608 742.88350 710.36841 703.39954 652.45330 599.72420 592.00841 592.51400 615.58497 675.67062 686.60664 669.66985 695.08237 767.17271 835.81090 914.56245 1029.28101 1167.50623 1240.06802 1248.59504 1140.94718 1066.04991 976.39493 910.86521 928.16161 975.61550 973.43660 976.30926 909.13950 811.84704 731.07772 714.52356 746.95707 857.02770 919.93745 912.24511 840.82851 797.56153 743.58034 823.59280 942.51945 994.88425 1060.65963 987.44673 919.45808 796.92049 715.08177 608.91966 511.32505 502.99335 534.42138 572.43343 668.97402 729.72899 875.13680 947.83699 1032.35028 1082.63341 1108.93805 1155.67166 1229.15000 1317.16000 1371.80818 1333.18350 1217.19443 1163.93790 1024.10619 1006.35013 941.04163 859.50084 798.93951 727.56134 653.81240 695.46760 732.80485 675.70610 671.99128 572.73232 532.97284 497.53224 472.68396 505.95813 552.41753 559.04010 529.85501 444.85092 374.84694 318.39409 233.74266 227.97754 197.37310 176.17864 86.62163 47.44025 51.68760 87.02948 122.16042 167.97904 164.44435 216.34012 207.06823 234.28896 252.17363 301.15921 315.82768 380.50719 471.88041 499.79072 571.91185 639.23811 667.40572 781.32523 826.62028 891.48331 893.20792 989.07692 1047.87756 1098.79779 1189.53370 1232.68750 1239.40573 1251.75318 1198.10864 1095.04944 1033.32926 1011.59364 975.26861 895.51361 882.90129 975.20823 1045.28664 1129.81782 1128.26479 1043.73684 964.09658 891.27547 880.30034 788.51212 703.70060 593.25795 596.08773 638.94195 739.49781 831.66739 888.65001 871.38992 853.40191 797.90948 830.73233 966.58932 1065.11903 1167.66640 1241.30888 1254.93526 1252.62340 1267.54851 1279.15277 1292.06378 1208.05831 1151.39881 1091.35918 1102.05257 1060.61434 963.74073 889.00924 880.42672 847.72788 799.14327 747.57907 638.93168 586.86524 490.87132 397.80649 428.33741 439.63151 484.94976 510.27871 517.43191 461.98759 368.04523 292.15899 245.34468 202.82514 220.06641 219.18672 234.55894 199.96849 154.76631 117.62665 8.53860 11.64548
6.17360 13.00139 100.00101 207.08136 258.02975 298.63631 337.52121 420.94820 484.94700 572.18334 613.41349 631.49591 623.43902 610.18532 612.10528 659.33199 644.52054 548.44490 460.09353 534.79420 566.17877 578.17297 629.90551 625.95299 675.43426 777.86686 848.19626 959.73014 1066.19057 1164.28951 1218.09112 1212.04074 1133.33702 1016.29631 932.55308 846.47044 814.81687 862.60741 906.71176 949.85294 880.37050 831.65013 735.51357 677.19340 718.63871 839.96722 872.90098 823.58831 791.41427 725.29781 725.89102 830.85955 972.88355 1038.05968 1080.54631 1012.23766 899.95382 820.72993 690.60299 584.98972 484.07009 469.28239 481.91384 527.86106 654.15134 771.29331 865.32351 979.22575 1006.66732 1012.38394 1043.74571 1113.77113 1232.37083 1314.30452 1359.60565 1355.04795 1277.03828 1202.53144 1153.09997 994.16966 944.72868 871.86026 818.74243 725.51335 730.96395 777.52673 810.44872 806.87149 759.70753 694.81057 624.86448 582.84498 552.05036 598.78647 650.62420 615.36242 559.98080 509.73863 493.34518 404.87696 326.68785 306.03933 275.84991 202.65033 85.95983 50.97324 67.21735 115.59837 203.70954 253.36554 312.63491 310.62261 284.38550 339.88008 346.12375 363.25244 388.86654 424.03920 425.48171 496.88601 558.37415 615.10937 674.29145 763.74644 851.90093 930.50334 1001.31442 1079.09756 1113.21401 1183.42461 1214.09032 1215.96673 1204.17702 1114.10596 1094.56203 1044.09332 981.54210 924.74549 882.51335 846.27721 803.73390 909.98095 1017.55335 1095.47290 1108.86969 1045.31684 914.03765 810.77265 808.75168 788.18933 708.83421 570.59495 557.10597 647.92287 711.39061 813.55820 836.12646 801.01551 762.83323 740.62711 831.22784 931.34738 1058.67216 1158.34338 1181.08593 1155.90828 1192.40388 1204.38134 1249.34935 1280.17996 1281.63778 1258.85130 1199.21941 1154.71518 1080.87868 993.60705 944.29673 860.48393 817.39570 759.37599 716.63477 645.92332 564.31824 489.30867 469.33596 519.22787 522.52431 579.89582 609.72794 579.82241 520.24951 413.63925 367.64890 307.46812 298.91058 344.04556 334.62078 307.40393 267.29579 168.83111 111.23217 14.13139 12.00362
15.67115 12.53666 103.25355 230.82426 314.44800 365.02230 386.11342 432.68990 487.26428 522.10237 570.73430 552.19593 542.22181 537.64842 511.14717 584.39187 529.75720 515.55605 436.27657 496.29037 515.69612 571.45558 659.87802 655.17816 727.90428 777.46127 861.56500 973.64762 1034.47472 1160.28586 1209.89036 1178.58374 1104.77321 999.41333 919.26303 862.60381 759.34388 771.26275 888.46389 886.68596 880.52827 815.00156 752.49926 646.67828 691.06864 768.61049 818.33881 774.58481 676.93170 665.51796 734.81763 868.57600 959.82549 1046.53554 1065.10668 1013.34830 901.49333 776.20249 687.78069 572.85872 451.42184 428.82135 459.81240 548.14394 640.55655 784.42642 851.70405 933.40795 903.76506 946.52435 1005.70863 1117.79681 1176.05836 1216.80973 1301.19655 1332.93988 1343.17157 1245.30423 1186.21760 1095.30298 999.45251 857.39695 812.20672 806.44931 808.24607 853.31832 890.27159 906.33730 845.14637 801.84763 726.63774 678.92375 660.00283 681.53331 746.66450 738.65123 646.64299 626.76191 539.41970 461.91720 398.60776 346.06333 292.55521 187.71279 84.03716 47.54469 95.46712 140.57023 233.92983 324.09921 404.61804 418.58297 435.05746 393.54263 422.06411 478.66618 479.77312 467.21725 431.66385 449.33814 493.90066 550.24257 602.96757 711.22176 796.73558 898.28708 998.87215 1089.53945 1172.52174 1234.70537 1224.97760 1160.75148 1085.75268 1012.67377 992.49134 925.24372 883.57489 826.81664 815.18962 769.67479 766.36856 867.00743 996.14520 1075.21311 1078.40874 998.44352 880.33822 799.17283 736.37993 721.57281 702.98548 639.16918 525.82777 583.36181 644.17142 721.72401 742.16660 710.85808 700.66417 700.36166 807.88691 972.80985 1078.11774 1107.46548 1125.15849 1069.20963 1062.68351 1096.69056 1193.76673 1250.43908 1296.75077 1297.64673 1279.94073 1214.96408 1096.12429 1023.73847 938.79658 821.83776 767.47020 697.56111 643.34547 574.70650 528.85299 520.27408 524.95376 607.91593 632.59869 694.39907 715.73120 669.76915 579.45308 497.18071 439.69169 417.75186 388.23158 422.06476 396.28096 351.28248 272.21554 201.84054 70.26284 14.85391 12.29819
