-2.85174 7.22872 595.63039 964.28594 1377.91381 1817.42706 2142.87275 2506.69630 2614.43568 3319.34437 3674.68816 4040.92952 4072.48170 3719.34471 3226.68905 2795.58245 2093.97050 2066.89153 2148.42059 2248.55225 2334.62022 2495.59694 2907.16817 3332.69567 3915.38275 3872.95712 3503.55108 2938.85773 2468.87857 2267.85319 2178.31959 1954.09374 1473.35904 1192.60398 1376.78644 1876.39064 2414.23694 2943.21762 3708.60234 4123.53320 4358.05249 4082.18637 3588.74132 3235.45952 2665.64061 2460.05728 2154.12879 1664.62188 1282.04624 880.65538 1086.31569 1558.98853 1989.81195 2584.66483 2901.02682 3249.10700 3098.11466 2682.54970 2605.98705 2664.99099 2941.37912 3486.72258 3849.93564 3970.53836 3639.59875 3211.97194 2577.57906 1932.36886 1462.64922 1350.33888 1698.95261 2013.54709 2709.05372 2971.92496 3246.08698 3537.19946 3415.17955 2934.14137 2533.88258 1897.82914 1903.66963 1989.33315 1926.67942 1982.14191 1968.62006 2297.56038 2923.48888 3403.11583 3949.31673 4192.73944 4411.38380 4370.80498 4212.53319 4063.75258 3905.00515 3687.80266 3443.92335 2925.58464 2448.12636 1865.00832 1455.31700 1017.08757 758.68127 505.70448 196.34555 171.01173 558.53369 766.47056 1141.02795 1337.62177 1834.04872 2069.57264 2345.05853 2827.10881 3227.63818 3880.67715 4127.59231 4305.40082 4425.42235 4328.31842 3929.48538 3030.49798 2684.67520 2337.47730 2079.29443 2229.89834 2268.20070 2144.63479 2241.17665 2662.48440 3121.84286 3665.61484 3964.66104 4080.49320 3762.81382 3536.92181 3197.55310 2280.14948 2186.23070 2135.26255 2220.76985 2085.90837 1748.57045 1400.58838 1209.64317 1466.40196 1820.01950 2176.58012 2779.79125 3211.10184 3829.22175 4053.51724 3888.24434 3439.79255 3065.09771 2400.34659 2203.21826 1506.72316 1232.48342 1129.22975 1694.78035 2026.14393 2529.40286 3042.83159 3418.74776 4018.22748 4308.83706 4173.19836 3671.34486 3408.85618 2935.31765 2267.06165 1839.72033 1875.68484 2424.05527 2966.66036 3328.88823 3386.42991 3375.94848 3343.71455 3278.40998 3674.93674 4011.11586 4089.94595 3870.76892 3655.98344 3618.57164 3609.95540 3695.00755 3975.72663 4106.30844 4004.64600 3571.70862 3084.11398 2623.95898 2120.65043 1952.37898 1571.07338 1109.10283 904.10521 482.56584 20.45125 5.60577
15.79369 12.22121 522.04469 1045.98423 1489.32570 1741.87695 2134.55475 2484.74237 2773.62883 3059.86256 3641.15266 3960.75662 4059.70062 3869.63680 3405.74208 3039.89527 2563.65174 2429.80352 2356.61722 2423.78370 2562.00471 2798.88171 3291.65983 3658.45628 3994.69044 4071.78241 3770.83569 3162.61528 2863.67520 2701.29562 2562.11021 2310.21872 1896.95961 1335.03031 1561.66729 2025.86411 2466.07682 2994.13050 3675.11971 4147.22782 4357.77840 3862.86909 3511.35694 2822.05272 2353.88833 2086.02663 1667.18253 1354.76579 1059.71906 899.06934 1292.50228 1533.11602 1937.16791 2559.39091 3151.70276 3424.84537 3284.66552 3117.54343 3240.90643 3375.26829 3474.12301 3949.24845 4067.32088 4062.42900 3597.14274 3023.54432 2539.51596 2010.97558 1812.65486 1651.84022 1642.63890 2145.52379 2673.39128 2999.77375 3300.74293 3658.97710 3540.69669 3227.76574 2673.88799 2286.10203 2166.41421 2341.89604 2140.63694 2351.71024 2392.31700 2731.21605 2739.80656 3235.97081 3877.49648 4299.73607 4567.97518 4594.31131 4395.82915 3892.57822 3622.86821 3329.18661 3025.61056 2706.21122 2490.50874 1975.95506 1527.93641 1169.85216 953.26021 586.73911 316.89990 161.38387 521.66493 1048.22381 1451.78202 1731.80977 1985.66340 2294.06000 2533.31980 2696.98434 3137.40391 3517.88530 3726.30389 3888.18190 4216.07721 4374.41066 4090.06033 3468.36081 3114.27215 2557.41870 2290.29187 2577.83398 2734.59455 2689.08280 2434.78301 2987.00611 3462.47753 3956.09424 4302.78662 4272.94101 3924.35516 3552.95884 2819.59981 2516.13709 2561.85133 2489.01885 2527.62706 2419.15660 2128.78995 1408.99948 1199.57930 1685.41757 2055.89122 2312.26813 2891.49728 3264.22226 3849.60599 4094.29294 4015.10630 3413.51218 3060.46209 2544.30611 2031.17068 1578.43534 1150.40956 1406.11631 1696.05356 2198.85078 2516.04547 3046.86348 3484.84010 4072.70412 4450.99288 4433.86960 4099.43381 3362.82610 2807.11172 2299.55135 1966.32283 2097.07049 2518.75200 3013.58810 3477.22008 3799.65584 3956.90152 3635.50010 3645.05522 3894.28414 4265.94568 4330.78451 4052.46160 4039.46019 3924.74857 3846.59209 4053.38283 4214.17807 4183.55061 3993.06849 3586.05216 3166.58439 2560.62160 2140.15619 1995.83865 1586.84309 1195.50837 946.08013 444.12464 10.26109 18.23025
5.21926 10.47364 466.86577 954.76850 1116.11216 1433.55524 1704.98807 2075.30489 2355.33100 2900.24798 3252.56966 3697.71270 4067.76141 4049.56596 3771.25933 3223.93881 2762.75704 2867.82182 2818.28496 2786.17730 3052.00582 3153.56401 3480.62273 3934.37888 4177.89348 4265.23537 3981.03551 3500.55952 3363.42185 3030.88779 2779.44809 2342.61762 1955.06815 1448.79079 1683.71381 2235.83876 2671.17566 3162.77171 3650.73583 4189.15504 4341.06272 3790.48152 3292.54554 2931.61845 2218.20322 1902.39966 1512.84971 1065.89553 1015.29889 1114.29927 1358.90081 1825.61707 2170.59611 2717.14987 3139.67597 3582.19953 3642.22385 3376.85894 3704.29743 3812.02408 3944.26463 4169.95256 4339.15336 4101.28615 3523.17857 3120.38920 2653.22329 2386.94113 2145.49708 1822.16666 1634.26527 2056.52281 2282.82174 2684.02942 3167.53409 3717.51739 3734.01848 3396.14686 2942.75055 2618.18690 2257.57081 2510.39000 2526.83703 2804.63991 3026.63613 3006.04650 3158.73842 3516.84141 3930.18798 4340.94924 4641.30251 4518.49717 4224.30379 3673.92728 3315.44424 3182.57353 2651.19809 2317.36523 2132.41094 1823.22874 1368.05128 1110.38778 740.87552 482.21647 295.11588 215.94229 398.57233 871.71326 1280.17429 1681.83727 1860.40414 2129.38322 2335.55025 2422.38723 2779.16856 2891.93509 3237.11683 3602.77617 4085.87528 4397.02767 4281.26599 3721.87774 3442.72091 3017.99796 2705.36093 2873.06482 3072.31578 3016.08308 2751.06509 3137.68712 3633.65777 4143.50933 4473.99626 4309.15764 3860.54361 3272.38664 3050.08634 3123.19148 3028.94816 3044.41219 2833.28262 2544.92246 2070.91539 1753.00152 1325.99394 1504.01233 1963.92127 2362.12768 2754.72746 3306.08024 3790.48200 4051.79157 4117.18073 3794.76892 3150.06294 2830.53115 2442.87923 1879.23444 1337.04404 1477.99739 1802.84939 2293.73391 2689.14687 3231.42291 3588.50181 4064.22610 4477.84218 4466.93752 4050.60377 3602.41135 2993.45183 2553.57716 2411.40798 2163.83332 2660.98880 2971.82907 3694.53768 3900.25676 4328.24425 4226.18761 4221.77554 4193.84846 4445.96174 4777.17104 4716.49283 4424.73956 4390.51293 4325.05561 4500.31443 4409.41305 4157.86692 3736.76573 3439.21704 2999.78513 2233.63888 1814.21315 1546.19884 1398.22748 1038.58784 590.86724 418.20773 14.59950 3.72858
-6.09412 7.60957 291.22571 689.15955 801.92623 1138.53313 1429.52567 1897.31423 2140.81847 2645.12850 3008.89208 3669.20460 4063.13119 4238.38519 3882.86178 3396.65790 3101.60660 3290.89759 3176.04979 3008.01738 3342.94539 3633.49132 3851.14815 4243.07356 4491.98370 4507.31702 4229.50330 3918.56587 3472.21343 3231.76043 2730.67259 2303.12624 1805.03551 1469.33765 1869.97065 2319.62637 2630.47760 3326.10508 3771.39419 4020.89614 4170.21143 3861.91474 3416.31082 3023.58829 2314.47185 2165.92301 1731.06844 1156.04127 1031.39728 1161.53037 1473.80002 1880.48664 2346.43804 2919.39202 3414.19173 3761.34486 3896.06645 3868.75776 4036.09181 4398.20727 4472.37572 4541.88901 4510.94052 4309.80159 3570.70245 3295.92227 2758.14099 2696.20954 2383.85121 2010.84014 1653.68906 1824.28910 2066.29323 2740.77014 3138.43951 3586.54382 3833.69877 3769.73512 3328.94592 2979.58797 2595.91031 2838.42496 2859.83727 3243.72988 3488.03640 3570.39528 3709.93032 3920.19780 4303.30675 4849.57367 4791.72153 4429.56884 3899.57152 3609.11905 3150.50781 2646.92221 2271.47997 1877.87633 1811.02525 1406.27211 1246.86712 1072.08809 935.16997 658.09313 330.44931 160.06591 434.82888 846.35038 1178.35944 1314.51434 1483.80725 1753.39293 1791.26496 1913.11703 2290.40986 2533.46975 2899.79159 3449.73632 4053.33775 4359.68579 4445.78019 4161.92372 3752.87848 3162.16241 2997.32654 3172.92911 3299.13897 3344.24306 3081.61224 3169.92412 3737.70942 4321.01798 4577.98212 4375.90827 3796.91346 3581.84522 3681.94454 3660.52542 3432.41671 3395.21506 3185.20396 2889.84683 2401.41958 1950.32070 1627.32352 1459.15990 1758.89269 2108.99534 2525.33659 3007.26725 3378.66737 4016.49305 4219.22935 3969.67185 3412.32465 2894.79836 2475.46084 1769.25746 1441.51776 1453.08742 1660.04218 2297.86106 2708.72524 3207.93102 3559.31383 3964.03201 4417.35636 4577.58220 4297.79635 3787.03478 3232.11804 2702.06818 2447.56057 2234.46640 2606.66747 3067.78674 3685.79224 4032.45329 4582.85616 4603.00220 4552.13025 4653.42864 4733.61297 5047.13736 5036.20240 5110.38140 5010.45698 4866.35019 4759.21787 4387.72936 4020.66219 3347.89361 3122.21063 2680.74091 2111.19563 1911.73157 1465.98833 1083.25870 1013.44740 617.85913 435.47505 26.19188 6.43961
15.51085 8.20709 317.19374 679.84594 839.89390 1351.84789 1748.24564 2080.84370 2499.98522 2806.50467 3256.44359 3931.27634 4174.86776 4344.27218 4162.63471 3820.01583 3503.48768 3676.05363 3713.17718 3502.48240 3815.65749 4217.61984 4228.40755 4469.61792 4746.38968 4789.45915 4255.55179 3792.27374 3543.74354 3053.38610 2462.13156 2099.73544 1584.26409 1484.10268 1782.28454 2122.15509 2597.86332 3109.97811 3598.87954 3954.74065 4138.12699 3743.12887 3309.23812 2851.91265 2377.91066 2057.15630 1602.26945 1327.13622 1072.58095 1234.98647 1649.62847 2026.26488 2362.69066 2760.42224 3388.61648 3879.14033 4257.97081 4378.93590 4269.52965 4896.69682 4965.27856 5055.26681 4957.20215 4669.05153 3897.29847 3691.25029 3244.72718 2907.25400 2456.70834 2048.77120 1827.36388 2030.56790 2065.79507 2448.49745 3051.88859 3484.56383 4000.29973 3943.34609 3647.42723 3065.04355 2861.16753 3222.62194 3312.29649 3599.34933 3748.36970 4180.61418 4275.40692 4265.25610 4906.30782 5044.99493 4837.37715 4320.16402 3980.01556 3377.41468 3170.89309 2988.73602 2639.66888 2357.28620 1977.81977 1815.78356 1717.05632 1440.31647 1100.75902 702.54030 385.74531 163.10517 235.79687 437.66119 618.67448 777.69349 1031.53889 1193.67962 1542.35585 1732.47652 2045.20015 2503.81451 3016.59694 3535.19247 4050.74039 4533.95875 4657.50529 4332.79286 4065.09424 3675.91695 3564.69743 3504.73662 3703.97439 3752.78376 3563.50450 3417.70006 3949.35501 4392.09630 4828.97144 4747.90718 4464.77475 4281.13449 4220.37930 4086.36918 3791.86920 3534.22430 3299.71200 2975.59414 2551.42854 2204.95951 1451.46144 1750.26327 2101.54110 2370.08423 2506.75690 3078.02884 3478.73934 4081.80813 4214.80199 4085.35326 3545.07408 3080.94288 2528.27534 1890.37391 1564.69323 1362.04943 1736.66691 1912.34169 2532.70992 2954.00857 3303.79419 3879.16944 4406.08480 4538.63243 4473.41021 3896.51954 3367.68958 3038.71546 2680.95648 2494.19835 2659.15985 2950.57524 3720.52192 4156.54065 4488.73419 4922.24821 5005.37315 5210.85028 5249.84471 5408.17602 5450.61959 5445.76760 5253.42181 5115.56388 4938.81885 4228.24651 4016.19804 3320.19945 2970.32182 2900.22443 2583.51654 2415.69766 2043.52184 1675.40174 1406.56943 1063.43577 403.98359 25.08303 5.65880
7.23050 33.57403 516.71535 978.67951 1263.04252 1636.07085 1827.83158 2472.38350 2765.75304 3178.01480 3559.53394 3868.41586 4240.85367 4405.96376 4348.70007 4326.60799 4303.08777 4349.79530 4051.43164 3891.16387 3951.22649 4443.78896 4811.15568 5000.95359 5089.01164 4754.22227 4182.79034 3660.88178 3093.72224 2885.69841 2400.24054 1854.77382 1673.36586 1790.58061 1856.26990 2076.07997 2661.73671 3087.83649 3553.72408 3889.48582 4190.71395 4012.24932 3333.92231 2603.34776 2147.10214 1846.23466 1580.87978 1352.76671 1168.00381 1233.97273 1740.22471 2065.41771 2412.11935 2966.72828 3329.44913 4045.89317 4312.86973 4554.42217 4839.23500 5029.35338 5268.67854 5278.10338 5104.97204 4671.78036 4351.90951 3870.23096 3354.10431 2897.81603 2386.92627 1982.89622 2204.51326 2361.72461 2365.09768 2613.73964 3008.74498 3698.42181 4002.16683 4012.76688 3832.12493 3536.03691 3204.58461 3402.81763 3592.26274 3878.47853 4331.91599 4528.13704 4936.66331 4963.62423 5216.52673 5203.60962 5018.59301 4619.17436 4336.16545 3939.38921 3670.42099 3299.06723 2951.02189 2537.89769 2539.33764 2318.88041 2178.86872 1699.84051 1303.26376 732.94960 340.79227 169.91008 307.07163 623.33363 895.94510 1142.03218 1414.13395 1409.34183 1464.06976 1933.26878 2329.23612 2677.72260 3111.71582 3617.91546 3983.93173 4555.98503 4751.34701 4697.30329 4403.87176 4234.27245 3817.34638 4072.00334 4252.47172 4231.83048 4123.08866 3674.33745 4099.62142 4590.09633 4989.72120 5003.08130 4979.59338 4686.68393 4469.32006 4009.56749 3770.46169 3456.86025 3000.10834 2771.29176 2413.50896 2213.01824 1628.36780 1699.49911 2382.76641 2705.37397 2831.82584 3413.42961 3848.62263 4240.10270 4308.55084 3983.88761 3580.91259 2976.89785 2434.03584 2004.85932 1529.57277 1591.32754 1880.79767 1959.47881 2464.02350 2886.18477 3467.47662 3812.19965 4352.53884 4628.75290 4587.79766 4221.92625 3668.72732 3389.97496 2677.05593 2540.79792 2749.12641 3000.18980 3345.87991 3975.73625 4441.38810 4970.32954 5337.99322 5605.52001 5615.80849 5728.33841 5673.14877 5571.48160 5351.05610 5169.27416 4741.65688 4211.31088 3906.02269 3652.32122 3411.59259 3006.05242 2922.41878 2667.59418 2231.26575 2048.03169 1575.22649 1153.07570 504.64388 3.49860 19.39837
4.59410 1.01247 374.90131 959.16601 1203.99119 1763.49309 2169.93633 2753.28513 3090.43980 3317.86876 3717.92637 3926.37644 4102.79013 4217.71464 4330.43953 4456.43045 4587.42059 4655.78691 4624.17510 4532.02344 4640.85545 4781.41684 5173.99213 5241.15687 5054.10531 4654.62937 4125.37785 3649.16538 3000.94826 2541.64095 2190.10906 1834.08567 1820.50871 2045.08839 2074.84291 2142.03630 2488.99202 3010.40233 3533.49219 3940.06692 4101.10664 3816.68808 3243.58061 2743.44484 2288.84461 1944.93590 1926.89109 1753.63078 1385.33307 1231.11398 1499.19976 1931.15429 2362.93008 2829.27853 3304.12523 3676.38625 4008.92536 4564.53576 4835.36495 5074.29817 5403.24481 5347.53537 5073.71424 4760.55252 4148.71761 3739.58524 3270.42142 2863.84851 2392.68339 2495.54261 2674.08550 2895.74849 2899.45959 2936.11156 3197.65903 3732.16479 4176.39394 4276.03151 4151.51769 3858.65812 3409.81520 3428.70781 4079.57979 4353.27007 4664.59131 4845.70292 5260.38680 5304.56316 5337.33975 5018.17301 4868.57457 4681.33399 4511.51683 4035.76899 3921.57718 3743.68444 3412.49227 3031.87735 2826.61661 2500.82348 2150.24290 1674.39727 1343.34799 882.40796 306.31661 169.25102 374.52147 822.80545 1171.73159 1465.63346 1684.78854 2083.84422 2063.61102 2070.21021 2682.55510 3098.01944 3293.42008 3769.97446 4241.42545 4664.34580 4948.98029 5027.10779 4862.85738 4616.53962 4428.38851 4630.31403 4727.03265 4747.63991 4439.83338 4069.48928 4205.50239 4733.83174 5215.06966 5435.52752 5271.04519 4914.61999 4469.39529 3966.07883 3433.94199 3057.38821 2654.94305 2487.77958 2162.62697 1844.00450 1620.50406 1872.20102 2420.03546 2850.00587 3243.72269 3467.91128 4020.87792 4454.59985 4396.01798 3997.05405 3551.85990 2790.25205 2448.60428 2153.72560 1709.06040 1595.58063 2195.26361 2126.47153 2435.77359 2765.36316 3320.41850 3751.01727 4208.04107 4678.01698 4710.80802 4425.44214 3816.74291 3458.40358 3113.21487 2647.53372 2776.61267 3131.97857 3526.93732 3956.40126 4524.73104 5017.48199 5564.45921 5679.57308 5666.96891 5600.94111 5473.57762 5342.87438 5252.47632 4904.96455 4606.05459 4018.44930 3562.09649 3514.17156 3106.38566 2979.53627 2895.25903 2656.01028 2247.04858 1996.67408 1374.86388 1123.48645 516.64802 31.58441 24.03530
28.04618 11.91043 510.63796 750.45357 1431.61049 1728.15584 2322.78554 2632.77303 3010.74711 3324.74327 3508.96012 3619.69731 3589.98601 3684.26234 3799.69797 4204.52883 4441.47293 4681.32917 5030.91793 5039.04850 5012.16475 5225.52231 5420.66721 5342.84536 4924.82830 4447.32566 3964.53728 3482.32845 3150.56844 2654.76684 2315.69064 2015.60021 1900.62027 2333.47054 2440.43426 2358.31818 2488.57045 2900.62083 3393.56136 3958.94372 4147.81098 3923.21679 3501.46388 2875.98213 2587.38616 2386.22109 2221.62687 1960.41511 1486.76184 1457.67066 1548.61406 1813.70199 2271.70520 2664.52206 3272.90862 3476.84132 3734.69819 4046.56224 4580.67756 4913.02735 5192.48558 5197.24813 4890.93656 4310.28116 3897.01924 3481.13376 3006.59483 2725.60135 2358.95168 2795.45342 3186.75182 3398.31823 3132.58249 2926.41166 3294.30960 3792.47478 4205.58040 4486.18585 4422.10058 4120.09877 3748.75017 3811.63217 4230.47860 4708.08735 5122.08956 5320.25501 5584.69303 5483.86521 5258.17955 4944.27841 4485.01064 4424.67952 4158.59260 3813.58943 3739.41582 3655.82649 3477.44654 3256.26433 2932.68332 2413.37559 1920.87368 1475.92355 1078.99406 636.78488 365.66462 216.17608 322.49336 485.49480 1162.29612 1523.72634 1902.85275 2330.93413 2585.40181 2949.43231 2971.63471 3522.22252 3598.33458 3847.58561 4160.83696 4501.04336 4852.19288 4962.34733 5052.87922 5073.73030 5006.61323 5042.00128 5095.60848 5060.27263 4735.80965 4416.09539 4566.05786 4783.90510 5194.05993 5655.16269 5508.26481 5209.29331 4532.25896 4206.20942 3260.81383 2908.04270 2563.74135 2521.01144 2236.76755 2123.13236 1758.67189 1919.14964 2426.37731 2888.95710 3377.23906 3781.70747 4189.55684 4558.25093 4469.69439 4053.84314 3489.67458 2948.42449 2623.22156 2231.30166 1777.35164 2023.46163 2504.81192 2601.32674 2792.79156 2853.12457 2974.60200 3509.70798 3950.61957 4411.57991 4789.68587 4713.40103 4168.33769 3818.79426 3560.79685 2848.74373 2969.48186 3240.51071 3857.53052 4181.02921 4774.16227 5203.10013 5518.92120 5621.14635 5274.90764 5237.06064 4774.74690 4787.73677 4863.84713 4697.67410 4500.58260 3973.09555 3405.96568 3033.22892 2755.90687 2470.22315 2387.83844 2339.62990 2227.40117 1650.20787 1259.80668 793.28634 464.24630 6.63229 4.89495
7.38917 5.14029 463.32891 1084.01010 1510.59340 1932.32605 2267.96186 2464.77649 2605.70167 2881.58407 3036.99168 3063.13694 3240.96957 3246.46684 3349.96147 3867.00261 4300.27307 4532.77179 5059.68795 5259.97167 5523.01215 5606.90429 5477.98872 5308.74959 4745.66211 4217.39516 3767.15075 3357.82549 2931.26412 2560.67303 2289.69397 2084.31034 2086.69546 2443.51005 2704.61006 2914.71511 2753.81442 2969.27789 3415.79951 4007.48617 4282.89833 4288.87946 3777.73729 3228.40549 2840.06100 2730.36237 2575.12523 2227.02666 1644.44050 1461.87902 1691.07174 1522.96894 2072.05183 2501.21367 3040.63655 3142.37793 3223.08006 3862.99897 4191.97934 4576.28317 4945.13588 5141.41653 4851.15201 4379.39615 3889.35883 3297.59696 2768.19890 2459.42334 2571.09974 3097.15717 3484.99900 3826.76857 3658.45955 3355.07197 3279.84343 3886.41849 4303.71203 4670.16872 4746.10357 4494.92043 4159.14270 4129.60637 4456.55915 4937.60087 5364.06137 5795.76157 5740.67171 5402.62115 4869.70643 4497.30483 4048.48333 3716.60024 3776.51193 3609.53031 3182.62176 3219.70642 3140.65539 3120.10716 2904.83052 2406.12016 2097.18522 1666.26269 1130.26895 796.15539 419.73193 220.91040 396.01877 714.22539 1374.37811 1819.63167 2344.36508 2676.90806 3037.45304 3188.40713 3485.10095 3648.03140 3643.21373 3609.38125 3925.35548 4151.31800 4500.50913 4786.27035 4869.48042 5019.27449 5301.85439 5405.72475 5504.27489 5424.16999 5130.82597 4985.49223 5141.67043 5135.15007 5417.04978 5765.13771 5546.39643 5052.65704 4528.67639 4038.08257 3463.35213 2990.78867 2963.96012 2904.13745 2564.60710 2342.78331 2016.59855 2017.15356 2386.67417 2798.87321 3272.25589 3824.96927 4223.26725 4622.22999 4519.71539 3982.56606 3696.29413 3227.72186 2757.72317 2298.79925 1979.04936 2142.13310 2705.03540 2995.65847 3080.56781 3341.20075 3307.11640 3485.03806 3929.75307 4419.36745 4943.76108 4892.71968 4495.77014 4034.68714 3575.25503 3213.28508 3233.20041 3501.28486 3829.15617 4266.76614 4893.14352 5350.42981 5471.19500 5179.19315 4774.94086 4547.80611 4327.75362 4377.62866 4412.78796 4559.23332 4358.56886 3913.03113 3442.80709 3093.01197 2739.27418 2262.90155 2021.86780 1951.51507 1844.24048 1399.65871 1280.16170 951.30010 434.41446 8.27738 10.42928
12.95869 2.24896 474.17591 1036.95089 1424.57722 1738.48313 2000.25157 1988.30663 2287.32970 2409.63694 2446.93726 2501.47891 2527.23408 2958.02952 3133.78438 3660.91790 4093.40601 4539.15223 4874.17690 5167.56071 5523.01338 5623.32450 5470.96064 5158.21277 4591.33491 4133.26944 3652.27134 3276.83351 3000.50947 2665.96956 2534.24096 2411.53793 2376.32366 2581.98811 3047.13175 3243.66197 3194.20130 3267.84793 3465.52126 4018.91112 4474.68859 4436.34251 4160.25484 3520.27168 3371.77242 2999.29239 2598.34611 2231.17300 1766.37117 1504.80230 1766.90564 1716.57803 1892.39933 2199.68662 2505.52091 2633.99317 2911.79294 3513.11541 4026.83357 4334.78553 4622.61163 4987.78962 4859.60016 4561.23543 3693.17574 3335.00891 2939.08154 2728.11002 3053.10576 3406.16109 3902.03156 4021.25112 4089.94089 3626.35427 3609.24638 4053.94040 4485.21281 4809.65016 5016.23836 4782.10901 4596.86805 4623.32118 4786.40217 5163.97762 5539.42553 5783.97352 5777.17595 5493.77767 5029.89671 4319.50246 3940.47915 3463.00482 3190.16645 3121.58599 2878.73519 2792.98596 2827.09205 2673.40661 2571.64783 2354.99151 1996.57034 1569.58417 1244.49223 870.04058 323.64515 205.80884 418.20921 965.76155 1559.95159 2022.78051 2544.62198 2875.93270 3219.70536 3366.66846 3486.56800 3513.01029 3317.47155 3172.45169 3361.93925 3623.90196 4021.76676 4329.90278 4276.69541 4763.93432 5225.75711 5468.22934 5525.41198 5489.28249 5543.36701 5559.28023 5496.04391 5661.72304 5686.72912 5760.45199 5483.08479 5036.77367 4719.77796 3736.33175 3381.14533 3250.41210 3395.03717 3219.90309 3055.20585 2527.25417 2158.01052 2053.23440 2378.97459 2907.69160 3307.17930 3860.87971 4261.19186 4694.59492 4659.43632 4359.74019 3829.15820 3484.56806 2770.37998 2485.96032 2032.00407 2079.67931 2746.86339 3132.08249 3482.56628 3865.80219 3975.44403 3868.77482 4020.56816 4497.50645 4906.36674 4993.31212 4649.37004 4282.59706 3688.14473 3528.14336 3549.28609 3671.56131 4183.94072 4488.37621 5114.40441 5412.98349 5515.71075 5035.22672 4657.61757 4019.86370 3838.12879 3648.05918 3792.34861 3948.93856 4027.04804 3806.41973 3473.69509 3132.09085 2799.40014 2400.69303 1836.41370 1571.62812 1247.39435 1050.47442 992.52979 770.42407 294.30822 3.01552 -1.24746
7.81366 23.15572 547.90081 849.91046 1085.51141 1416.98727 1346.85229 1360.61947 1905.61008 1917.68137 2006.17379 2102.59557 2316.06777 2925.70920 3205.45938 3517.64909 3985.22800 4237.62987 4409.00188 4808.05851 5305.40398 5561.45222 5665.94027 5501.30621 4685.17193 4381.42733 4032.22979 3530.67963 3285.74173 3013.66554 2765.36734 2525.42143 2499.16186 2612.15954 3191.93171 3586.83639 3583.08571 3686.76642 3772.56689 4263.55690 4711.48647 4697.21502 4225.24652 3879.47396 3633.86421 2974.07051 2523.11531 2107.32094 1900.21572 1675.71733 2028.68478 1972.87287 1892.66073 2051.06672 2127.41246 2346.59324 2877.51661 3106.29534 3305.42257 3907.77784 4500.69316 4893.20735 4868.83858 4505.72594 3880.74575 3399.95120 3040.84858 2824.23338 3068.97599 3548.84030 4103.25753 4462.55940 4484.52188 4277.91883 4003.84466 4026.20995 4541.72097 5014.13647 5388.19749 5356.69673 5118.78255 5329.69198 5366.98289 5580.38229 5669.98660 5616.42465 5640.39959 5379.39151 5050.81548 4514.26188 3999.84092 3566.06406 3043.27339 2830.68797 2522.73063 2304.96680 2134.25889 2241.10062 2115.98896 1991.92710 1759.04970 1421.33557 1178.89007 697.89628 343.37588 267.19483 477.93482 972.06816 1568.35248 2065.90284 2506.84349 2878.42983 3190.75469 3161.97453 3101.76481 3132.73853 2867.01079 2685.14818 2921.89657 3351.91489 3708.45110 4050.00538 4158.63751 4387.81198 4836.55858 5231.00252 5192.08577 5337.47028 5508.79993 5625.24855 5893.48706 6071.94315 6130.25400 5799.64282 5385.46959 4829.93399 4200.26214 3784.12797 3701.59532 3870.43917 3737.04153 3580.63046 3138.65851 2712.69164 2080.11562 2020.16316 2483.45288 2950.95080 3241.99253 3842.28697 4280.24278 4697.33297 4727.31766 4422.92385 3862.96103 3354.63219 3021.08063 2465.70791 2130.17813 2124.49797 2757.16087 3041.70724 3531.41649 3953.45526 4093.23677 4374.50000 4447.88983 4686.59409 5064.38894 5209.50124 4843.04163 4235.15549 3880.09533 4169.46856 4207.91502 4118.29568 4466.14173 4850.12659 5235.07382 5566.02768 5478.01967 5155.95563 4497.56423 4015.41309 3536.14848 3248.90758 3201.80402 3447.75642 3655.24096 3693.76315 3197.74451 2807.32446 2625.05605 2234.07227 1994.02253 1658.71987 1267.62902 917.31159 739.23124 473.40700 305.65829 6.36023 8.10827
12.42911 5.99109 346.52459 534.71726 710.78339 1011.73923 895.80279 1031.53274 1422.15280 1576.57874 1570.41748 1953.47771 2213.14236 2654.83039 2942.77860 3282.62073 3633.84261 3706.60448 3930.39457 4520.85663 4840.56459 5296.81864 5660.56205 5566.38615 5153.22911 4665.22434 4275.38288 3919.14892 3649.48236 3345.11728 3020.72281 2741.16590 2550.17966 2970.08098 3424.14563 3890.61120 3988.69386 3908.36344 4093.06299 4493.90083 4836.88563 4973.65205 4629.83747 4252.62263 3854.16335 2938.83384 2633.26195 2430.70809 2239.89200 1862.40787 2064.12957 2294.22369 2343.48726 2000.76560 2206.10295 2560.26235 2682.31023 3105.68061 3518.73165 3902.63435 4440.06779 4994.90247 4932.13819 4512.11752 4125.59350 3462.32448 3229.91726 3012.52234 3432.88328 3761.77796 4067.64828 4543.17107 4804.31047 4722.92523 4373.78316 4584.42183 4866.65525 5168.95255 5461.74587 5587.13967 5615.41225 5746.54284 5724.67609 5670.69628 5648.26224 5123.51917 5149.86270 5153.13923 4963.71841 4669.59188 4088.44770 3807.83664 3497.55418 3310.32685 2881.98138 2772.82603 2244.33797 1960.48440 1611.01468 1639.90041 1410.32054 1156.74247 710.50902 399.49945 297.80453 271.49038 421.84395 824.57185 1203.57673 1825.75380 2296.48795 2609.69228 2666.29116 2680.42428 2683.65257 2672.09381 2588.12763 2318.35444 2624.51263 3114.84958 3370.47870 3125.39283 3640.39202 3990.03686 4628.28603 4560.07301 4663.81813 4943.74248 4958.98278 5227.18749 5772.32734 6051.17812 6223.81036 5858.50819 5419.33350 4803.44262 4291.55782 4335.04645 4239.80319 4095.35756 3968.03424 3533.04391 3301.80752 2733.28953 2185.29028 2252.04742 2458.36587 2814.42255 3360.06660 3746.34226 4300.22365 4771.86401 4757.54831 4568.44935 3826.34835 3313.24253 2749.03944 2438.00470 2339.95727 2163.48500 2756.10366 3024.98280 3443.06721 3932.88543 4257.52062 4677.63669 4871.39923 5068.98386 5305.72652 5333.88158 4959.48161 4349.70482 4238.43990 4651.97859 4782.41209 4676.29031 4953.30649 5187.45521 5534.58296 5591.09228 5472.08909 4914.11319 4451.17671 3816.83342 3435.78647 2964.61957 2823.84785 3006.12940 3225.56006 3276.17304 3011.81858 2462.85339 2090.23857 1790.56230 1657.62416 1421.19563 1032.91312 822.90931 556.76194 399.25163 272.42250 19.81691 10.52436
11.05022 14.70064 291.08960 506.31161 731.95350 955.71454 1071.35292 1230.02076 1278.82762 1273.00210 1449.97628 1677.89227 1886.54306 2285.72234 2386.43681 2692.94804 3216.29974 3248.22311 3584.83361 4122.71388 4502.01714 5134.85363 5675.27934 5824.28379 5562.48710 5170.48088 4620.65256 4165.68692 3812.14686 3525.57939 3035.52817 2808.93575 2778.68813 3079.52771 3792.43130 4197.71777 4481.32685 4566.14643 4573.63390 4828.57938 5194.43250 5255.41301 4876.87324 4351.90752 3810.56859 3360.20264 2930.78397 2820.60006 2369.68626 2051.60360 2223.84181 2580.18224 2563.07703 2167.18020 2363.12686 2702.84888 2859.83962 3270.97537 3611.52711 4024.90054 4466.90512 5082.04816 5185.82800 4724.85030 4224.91607 3872.83400 3667.55720 3233.58443 3512.97769 3693.44871 4295.32910 4677.78217 5053.21799 5071.58515 4838.64577 4919.56408 5306.09811 5720.76342 6061.48707 6108.03982 6050.84858 5915.18046 5721.68694 5465.73764 5264.09263 4777.69186 4687.78952 4788.81471 4727.32032 4505.88842 4268.79668 4092.65220 3834.02601 3600.12984 3323.25903 2998.18568 2790.81804 2292.15689 1788.67558 1395.90111 1094.08847 866.68472 899.69158 694.19324 363.19703 294.39182 351.25942 871.87691 1278.53398 1726.46960 2041.49286 2276.14909 2214.07846 2305.20832 2220.98554 2133.87905 1809.72843 1997.23651 2436.49801 2707.56695 2877.55410 2845.51255 3218.91299 3851.14377 4119.43327 4219.54555 4273.68769 4307.49964 4562.68934 5166.27634 5771.42545 6160.53490 6240.69523 5894.08946 5470.46004 4942.87472 4927.34066 4723.59357 4588.54320 4223.78339 3861.87955 3422.43963 3042.36869 2559.07622 2253.81237 2595.86438 2793.46592 3030.46543 3236.76294 3679.89202 4249.23464 4862.39361 4968.68569 4719.18538 3977.08739 3468.17038 3112.26904 2638.06496 2511.97841 2261.63690 2502.70866 2844.80558 3300.49284 3553.96080 4200.64759 4585.42094 5144.88203 5449.38486 5628.46645 5503.97262 5078.34483 4876.22160 4641.35527 5109.30506 5320.84008 5358.39742 5463.22071 5472.57989 5540.79466 5463.21722 5298.75920 4783.37923 4226.84677 3868.27164 3325.56426 2923.08240 2582.44782 2604.41046 2887.32875 2968.70125 2740.02356 2291.53473 1813.37587 1513.76557 1120.46508 1079.02509 773.59770 770.72584 677.92254 539.68288 356.16899 5.44952 12.26573
11.74901 8.76609 473.37597 903.49887 1296.49585 1371.93537 1364.18880 1723.24714 1709.46810 1641.82139 1786.08286 2092.18815 2118.94087 2401.52741 2326.95046 2627.74832 2910.14206 3144.92204 3476.11369 4182.68254 4577.84471 5188.67739 5728.12994 5916.20857 5736.93129 5247.92401 4916.89889 4332.80393 3866.28551 3421.44775 3213.07300 3107.02512 3212.09293 3408.53144 4043.96801 4448.86537 4809.74893 5083.13331 5110.50953 5261.59238 5390.59228 5313.66521 4869.98885 4498.13739 3853.60328 3553.10760 3227.38393 2965.59788 2467.63350 2037.23104 2370.61922 2865.12385 2735.37015 2578.23434 2261.49159 2662.32971 2992.06783 3578.03015 3901.19500 4372.14288 4817.97559 5334.55177 5274.05781 4866.22985 4577.76824 4022.14523 3877.93387 3652.65716 3621.55826 3841.64240 4237.78131 4762.35836 5194.53884 5401.55444 5258.80059 5358.12747 5882.69989 6151.60276 6378.47574 6271.83037 6011.70572 5611.14688 5158.95086 5095.64884 4853.23987 4441.43704 4280.86529 4267.14672 4205.75511 4057.32043 3991.64522 3889.32753 3793.97390 3743.15346 3486.37471 3272.17349 2979.03042 2360.58829 1946.95596 1495.63529 1213.37150 1239.96864 1155.91172 860.90482 377.12211 246.52714 465.64840 930.84177 1296.92937 1690.65203 1861.47499 1804.44498 1639.01166 1866.18041 1765.36566 1659.15047 1542.86274 1807.59083 2157.61071 2384.14993 2441.68568 2639.62708 3115.92509 3572.80595 3742.47090 3720.52431 3824.77375 3979.97080 4387.48300 5196.78559 5672.25037 6011.43958 6347.09273 6199.87668 5724.96180 5513.94577 5304.25691 4938.79908 4610.47512 4181.12381 3662.06442 3090.31926 2797.39679 2363.36444 2364.92451 2490.59961 3021.54651 3294.84837 3575.01272 4013.14267 4659.70992 4890.90551 5058.81732 4818.54207 4125.76648 3668.13795 3282.14607 2917.07604 2708.32634 2611.16324 2424.22811 2802.97183 3294.42977 3677.23795 3894.70803 4675.90317 4929.57291 5498.95452 5768.66846 5785.03861 5704.81834 5478.74570 5175.48912 5544.66191 5704.54905 5738.26029 5622.50784 5339.30763 5232.03767 5223.94579 5116.55718 4647.14450 4243.58893 3811.69369 3510.64363 3056.05650 2705.30613 2309.67696 2393.09084 2468.61956 2261.84408 1849.52630 1540.84906 1295.73174 1025.37716 906.79616 1105.18469 1224.56855 1139.60571 841.95480 399.72973 2.91047 14.91233
15.34366 14.88192 581.31921 968.71054 1485.67082 1820.27166 2039.60672 2087.05501 2203.83001 2201.15191 2346.00166 2695.89994 2673.14650 2765.62649 2728.94660 2774.23064 3033.84038 3353.33523 3770.55796 4260.24738 4673.02894 5380.40953 5765.26067 6044.54742 5884.79062 5542.34796 5125.06116 4543.36466 3967.91415 3632.79859 3514.52764 3271.24343 3193.03758 3471.94724 4115.57569 4562.06259 4947.58927 5425.32184 5619.14058 5591.22724 5591.34387 5207.19090 4868.26493 4351.92910 3991.67154 3617.94884 3258.52732 2896.01271 2268.32980 2454.27898 2832.62681 3135.85689 3127.53206 2726.30555 2383.62695 2694.41571 3224.57391 3786.26632 4256.70377 4441.50512 5253.18696 5435.71837 5478.96712 5115.19688 4580.30595 4265.86486 4103.25485 4030.95350 4024.70793 3775.83510 4156.33441 4777.44275 5275.36180 5762.66343 5696.11556 5907.86754 6213.50814 6487.24815 6485.65683 6157.14935 5704.73286 5417.97515 4955.48380 4550.26809 4444.85456 4028.23581 3720.64366 3595.58686 3932.14677 3779.30179 3511.36840 3453.67703 3518.60559 3593.36725 3336.23579 3136.94489 2937.67028 2645.54289 2150.43939 1976.12676 1837.08665 1705.13714 1406.80317 1140.71707 505.78062 301.67554 545.14672 996.75263 1288.94188 1302.90589 1426.98506 1495.38672 1369.53673 1260.61492 1313.96932 1373.92354 1653.98476 1786.04734 1840.18291 1992.87287 2424.35170 2706.65236 3051.10672 3203.07252 3371.43959 3365.92987 3440.38515 3872.46394 4152.83211 4678.81153 5395.85930 5892.88845 6353.12137 6351.60442 5954.67305 5772.84014 5319.25203 4799.66606 4306.30867 3767.78087 3229.35898 2858.44483 2802.12574 2736.99908 2715.56237 2522.41927 2788.36540 3298.89482 3833.05385 4282.26126 4636.18322 5153.24970 5243.37174 4688.05170 4520.61572 3789.26092 3630.78216 3366.52877 3129.37645 2786.41283 2529.72479 2914.20662 3296.18514 3757.88035 4157.92208 4617.01624 5069.67678 5550.74219 5848.82581 6151.71914 6063.50804 5928.42594 5774.90752 5947.67520 6066.21637 5816.16513 5447.95945 5208.14702 4878.56249 4554.09592 4529.40047 4328.98469 4308.02069 3999.53744 3622.26967 3289.47108 2828.98841 2318.05389 2026.82874 2021.21011 1989.09103 1565.52675 1322.63747 1494.23309 1545.27163 1478.14176 1476.13888 1557.01622 1391.26163 964.44127 458.78664 23.19442 27.93668
-4.67228 9.54368 543.74595 1091.82848 1527.18678 1880.63062 2305.72209 2473.22626 2726.45817 2608.77412 2769.40075 2897.98947 3162.81460 3415.85124 3429.62833 3339.96716 3523.60258 3776.03241 3922.67665 4398.60546 4743.27370 5401.27551 5757.89852 6117.09484 6001.28469 5666.93781 5266.35335 4741.73743 4215.89533 3927.05176 3889.79721 3740.64119 3586.32212 3465.07440 4045.20655 4472.21467 5018.82219 5445.39402 5836.21373 5775.16514 5528.81125 5050.63950 4655.42777 4107.47387 3822.23415 3529.59155 3218.73347 2588.25872 2327.82355 2725.25142 3158.54958 3439.10331 3352.97925 3066.32765 2610.47846 2655.98300 3166.81161 3900.37291 4326.60631 4823.63744 5067.69048 5545.41103 5640.42618 5430.09199 4899.96295 4677.90392 4609.43195 4701.21568 4625.17411 4288.20410 4259.12647 4584.94919 5398.22835 5816.46156 6273.24591 6354.31686 6697.13145 6711.08717 6525.27197 6124.08624 5573.28250 5121.87587 4710.44883 4315.43540 3838.50910 3660.36034 3517.92966 3160.43668 3068.05407 3180.67253 3236.94727 2936.95173 2902.71223 3065.15622 2980.26895 2724.73599 2626.29917 2663.76315 2333.41885 2178.34888 2085.66604 1786.77535 1412.63998 1067.02547 500.08113 312.23454 482.30751 708.30284 927.92853 799.41266 967.16461 1030.78047 1037.08983 1164.17043 1353.47730 1696.31657 1963.22311 2131.12584 2179.52991 2348.29132 2261.44132 2521.89612 2769.40216 2850.76122 3305.02448 3566.02620 3771.42837 3759.31572 4533.05922 4893.63266 5314.00780 5930.94532 6395.06312 6346.42155 6198.84491 5759.31805 5217.21270 4722.05298 4042.72163 3526.55111 3152.00967 3224.88940 3348.12934 3243.61904 3156.51415 2806.61069 2750.83544 3259.72751 3861.24837 4260.99115 4701.01292 5061.99507 5301.05054 5177.85328 4727.05576 4229.21713 4188.71830 3755.95065 3491.53598 2968.90815 2592.47465 2851.27799 3227.13099 3669.16567 4043.08077 4673.46042 4997.40816 5464.76337 5865.78913 6310.12746 6453.83025 6410.15955 6294.22824 6294.88643 6256.81948 5684.92814 5156.46301 4733.09479 4321.12698 4276.11912 3991.65877 4041.35787 3696.28846 3550.92616 3577.08957 3284.16621 2864.39445 2477.61875 2084.02563 1622.18442 1571.93420 1475.27480 1724.01228 1952.33780 1929.38972 1989.30881 1902.77484 1900.22616 1536.30312 1108.95188 507.12502 9.30168 1.32583
0.29144 8.73065 464.53330 1005.55882 1560.44637 2049.84923 2534.98484 2859.18496 2969.16731 3080.11348 3167.56338 3302.84606 3558.55233 3701.69160 3859.87309 3851.67348 3961.15819 4283.34797 4393.39174 4601.34199 4989.76637 5482.21678 5768.40878 5981.15698 5986.45228 5883.38067 5392.92238 5013.46990 4518.50116 4360.37405 4426.76090 4288.02813 3863.87433 3592.41898 4232.48712 4441.55346 4839.55256 5314.37477 5730.98621 5555.99925 5469.46607 4875.35063 4493.94185 3890.82325 3491.88987 3291.16177 3015.60923 2690.49623 2694.74138 3051.62946 3384.44067 3734.79773 3617.41928 3167.95251 2808.84869 2840.66864 3117.97597 3734.62330 4244.06382 4458.88803 5001.30100 5471.25553 5799.96226 5758.73840 5455.34448 5229.15726 5153.19805 5198.05623 4882.94189 4442.99372 4588.80036 4622.12148 5506.85229 5957.27276 6525.47128 6719.64939 6775.22917 6718.69797 6345.57699 6109.92495 5511.97362 4973.50068 4440.18405 3931.23778 3584.86067 3287.21045 3159.46063 2972.95170 2805.43500 2912.02843 2918.66873 2673.17360 2456.11330 2671.64361 2493.39052 2178.76074 2213.03874 2178.13649 2230.42727 2060.81441 1961.57939 1657.68481 1243.59468 948.31630 554.44967 289.20057 403.18382 479.92791 596.63948 739.45408 955.96763 1273.70228 1427.99107 1718.30553 1531.93861 1781.42057 2068.94831 2366.27553 2577.52728 2631.41531 2673.02692 2642.70401 2910.52188 3043.01901 3514.85937 3969.50725 4193.18433 4204.85118 4643.07735 5081.08697 5575.08746 6138.92370 6453.90438 6418.61416 5936.32079 5308.17105 5010.32041 4605.54014 3941.82365 3532.32050 3552.77958 3763.55846 3835.13754 3796.28171 3447.50773 2991.21155 2742.15417 3083.44419 3493.15858 4016.75951 4496.25431 5050.86487 5393.46175 5355.32777 4911.23016 4713.42240 4503.64588 4040.99346 3646.88695 3068.84494 2812.79394 3023.98471 3250.81331 3509.07459 3705.63408 4344.98562 4739.62203 5278.59061 5675.77631 6200.09098 6467.52729 6812.03992 6798.62033 6615.02272 6277.60417 5681.44100 5173.75965 4593.25483 4147.26438 3786.94912 3550.12333 3308.80346 3256.14791 3227.39310 3078.39148 2997.98685 2764.74175 2398.46408 2119.25979 1812.82145 1905.10863 2193.39029 2114.82488 2399.88839 2584.69877 2513.27406 2279.14453 2010.54390 1569.92486 1201.92965 544.10225 25.55395 -2.40994
5.03072 17.07231 432.48811 1035.83998 1461.04347 1880.63154 2546.61938 2711.23314 2952.80581 3063.10825 3089.76342 3255.48177 3516.62969 3765.41301 3934.86326 3982.70172 4112.77517 4293.86602 4340.20731 4532.56549 4826.40012 5209.39299 5399.47769 5524.08461 5773.46689 5834.50641 5675.93212 5374.77548 5065.90493 4953.50189 4891.61310 4669.09768 4173.83389 3809.13392 4258.42629 4572.50256 4996.84679 5479.39324 5716.40782 5503.95619 4872.35919 4331.76173 4246.22354 3593.76521 3336.16996 2996.79222 2636.61420 2650.74391 3110.96618 3353.39822 3626.19401 4048.54302 3847.11874 3529.67734 3178.10139 2858.54012 3137.43506 3457.59161 3887.87962 4280.72880 4895.22810 5432.04187 5775.18227 5863.90113 5731.70167 5689.69328 5685.25745 5445.49058 5211.98395 4755.08029 4941.90092 5091.98260 5508.94394 6152.74027 6548.68816 6826.37520 6619.62877 6223.34561 6009.28888 5862.47554 5524.66779 5084.40637 4721.46180 4247.68437 3834.35714 3247.73637 2930.17965 2660.37004 2447.05457 2338.60152 2435.31716 2146.94237 1923.44862 2140.46518 2126.86052 1660.84395 1661.38979 1692.87689 1685.08443 1623.72679 1340.18353 973.13320 1065.60123 547.49270 358.65114 291.07654 306.65950 646.39667 878.03360 1189.55144 1317.41408 1526.63926 1889.20986 2138.47477 2034.38873 1751.98065 1937.01560 2321.23804 2586.26295 2931.45965 3124.33128 3269.13944 3362.40787 3298.39260 3932.32297 4282.99249 4424.69693 4523.47164 4793.34877 5338.84875 5730.24032 6354.51475 6433.07361 6405.14586 5901.72930 5317.78785 4849.78846 4388.17426 4181.56146 3864.34046 3968.16436 4355.84532 4224.07911 3953.10588 3574.00243 3142.34479 2787.11756 3119.73725 3429.63907 4014.43992 4587.07261 4982.90421 5455.14888 5537.72854 5258.84466 5002.61357 4745.51664 4360.57029 3724.09419 3219.60877 2927.95164 3151.64676 3584.94750 3800.12182 3905.90989 4144.89997 4425.50808 4966.05490 5505.20582 5955.87668 6653.59237 6898.99196 6958.62062 6772.16007 6253.68695 5818.04381 5266.68872 4885.05713 4283.03719 4087.82708 3794.61368 3403.06554 3128.43575 2843.91119 2678.57204 2453.13553 2339.94129 2114.46497 2310.17266 2200.45132 2342.59572 2495.82569 2747.59163 2705.98660 2930.51359 2806.84221 2519.51668 1893.79268 1457.36406 988.29965 462.09908 12.72580 21.00201
18.45853 1.80874 513.37605 894.99815 1311.46738 1849.40223 2402.30505 2616.52927 2652.24895 2676.44763 2600.49985 2759.34221 3058.50378 3334.73739 3547.92933 3620.36076 3701.76606 3836.91801 3766.76940 4090.46682 4365.66000 4776.47411 4935.26659 5192.62974 5519.21367 5639.78531 5689.87256 5647.55989 5526.15446 5281.46625 5235.81482 4927.86794 4344.04924 4187.14331 4223.11322 5022.46706 5202.03492 5612.93245 5709.52741 5410.10870 4937.42130 4327.29382 4023.46246 3697.55452 3517.37664 3020.67513 2748.12624 2764.07762 3379.55548 3665.38796 4117.68096 4288.89886 4141.00007 3803.58710 3312.73683 2954.41231 2979.80822 3218.76295 3646.79572 4202.39403 4672.52123 5042.62432 5493.00241 5764.01398 6034.02433 6085.44854 6106.33583 5937.51098 5625.88247 5219.92141 5237.37224 5612.47319 5825.89716 6295.94347 6635.77270 6827.93453 6465.82602 5998.13922 5495.22140 5325.40611 5250.29728 4991.10102 4661.02030 4448.77927 3995.29383 3535.51094 3180.20203 2845.86410 2446.32568 2259.97539 2133.18107 2080.06679 1894.44978 1768.82198 1828.43887 1477.01529 1316.27414 1206.83667 1196.99039 1191.81391 956.22279 814.60825 857.69324 560.39907 358.25463 301.00914 512.18530 730.59719 1118.30078 1410.44637 1731.90130 1987.69433 2260.87061 2544.89779 2404.95748 2032.84928 2426.72428 2597.54201 2842.29967 2885.65522 3346.18174 3489.32083 3743.64427 3755.38721 4113.29174 4556.94135 4936.24366 5091.30387 5302.56455 5681.11400 5991.34650 6320.66234 6417.32252 6255.49413 6099.75713 5797.95532 5252.27033 4754.80545 4577.02958 4434.43218 4598.94219 4598.96603 4563.86549 4149.41141 3652.54185 3066.70399 3052.11836 3126.56619 3398.93276 3839.58099 4435.57342 4843.74362 5493.01920 5563.86353 5465.78544 5230.54640 4709.77490 4230.71280 3618.75044 3281.31787 3106.72213 3213.50562 3433.38395 3878.06894 4122.24001 4494.59532 4568.03611 4999.42363 5457.26645 5888.29138 6635.28189 6951.30568 7031.10274 6732.20495 6380.33301 5849.04267 5456.81092 5227.56290 4980.75829 4526.54353 4222.59374 3616.98368 3293.99794 3041.16339 2818.68686 2910.43854 2671.83024 2575.73167 2680.16224 2755.22669 2870.97875 2957.75975 3151.76010 3133.64867 3045.31028 2844.13919 2373.38009 2028.71002 1296.21585 1026.06510 382.19438 14.90288 10.92349
4.84136 21.61029 532.06770 923.74997 1379.51110 1848.33062 1992.15500 2093.19347 2202.19043 2104.78434 2002.33830 2440.10368 2744.62127 2836.64601 2928.72043 3213.78182 3237.51636 3377.32963 3311.57942 3619.82766 4070.91463 4167.39364 4606.84851 4911.75381 5045.94928 5150.55181 5457.01813 5655.38665 5803.68565 5748.29919 5380.90462 4907.44625 4522.39416 4479.78793 4713.75915 5082.85254 5410.81979 5789.19572 5750.14176 5415.30107 4838.02117 4622.27723 4256.00445 3859.28462 3423.24169 3120.71748 2828.56498 2933.98925 3474.68085 3834.10259 4258.38426 4585.63197 4330.41124 3883.27735 3643.22203 3489.36524 3351.91271 3149.99432 3619.28414 4003.92255 4495.39643 4715.41916 5026.16186 5595.50705 5851.64440 6251.15778 6442.48494 6338.30518 5857.72115 5784.37381 5701.21793 6043.37729 6214.98040 6678.00780 6863.33732 6820.10079 6355.00839 5675.39873 5166.36481 4945.12882 4857.05333 4657.94626 4502.13717 4281.99353 3808.50840 3462.37832 3101.86760 2827.98083 2497.10044 2548.26935 2612.07604 2423.81043 2131.78410 1818.50689 1764.10716 1842.40892 1845.70044 1623.00397 1405.19117 1217.44628 1086.21874 1320.34613 1084.32189 759.94598 490.13866 338.14250 589.52647 811.14569 1240.86790 1675.00269 2098.06109 2404.39257 2970.22143 2935.16080 2811.79978 2603.11082 2713.65054 2854.59662 3275.49583 3135.74934 3573.79350 3927.72455 4033.40074 4322.86642 4514.85704 4977.75896 5282.83269 5505.76435 5618.86896 5928.64389 6119.66435 6265.66951 6166.61871 6146.14546 6234.94225 6054.45588 5596.18316 5064.72386 4972.66093 5099.22931 5010.30959 4837.86381 4559.59239 3933.51056 3400.71712 3367.74403 3410.70790 3083.06128 3359.71851 3827.54308 4110.08724 4757.31831 5230.96142 5577.01324 5617.33084 5096.20599 4555.67135 4136.08697 3590.90802 3449.21484 3275.32656 3169.56463 3323.08103 3652.00631 4197.04072 4624.67745 4894.17929 5193.08464 5676.95945 6062.43658 6744.25728 6927.83907 6854.15866 6577.12365 6324.07518 6092.73626 5807.10039 5577.35172 5286.93281 4783.45795 4453.43269 3946.12815 3695.03295 3581.22657 3491.55540 3252.30602 3219.03173 3212.14768 3395.23821 3270.12925 3192.30914 3309.89860 3248.56967 3126.58293 2994.37627 2729.48994 2453.79017 2017.03659 1442.88610 1039.04280 557.08032 14.23891 27.48914
10.54297 7.72440 424.08871 865.87909 1243.93382 1553.15145 1592.38045 1768.50320 1680.03127 1614.67490 1592.34009 1885.10968 2349.43534 2604.06157 2447.31545 2670.28349 2718.59349 2649.01128 2887.20941 3125.01654 3470.65368 3797.42445 4274.92398 4494.48223 4746.36257 4771.27843 5123.41073 5460.29536 5843.74662 5934.48834 5692.66403 5104.35508 5012.73989 5077.27213 5056.07129 5382.28965 5702.37720 6071.35196 5862.51514 5351.23022 5028.04006 4640.01119 4194.43524 3813.22738 3388.93472 3327.80558 2966.75227 3341.28542 3684.91169 4204.19876 4510.83986 4803.05150 4690.73835 4262.22632 3949.38996 3883.66075 3554.97486 3171.53331 3351.31576 3698.64869 4035.16347 4401.69642 4829.69486 5160.99158 5651.79588 6190.46292 6475.41621 6635.53654 6614.13155 6344.73073 6362.32983 6360.36470 6687.37179 6886.94171 6993.05886 6834.17967 6230.61701 5632.20854 5129.64015 4673.85220 4551.19277 4163.96154 3993.52651 3904.85346 3622.67823 3355.88862 2806.18198 2728.80781 3003.48788 3083.62900 2845.04319 2466.01959 2244.69172 2314.61208 2370.36367 2241.90779 2365.76860 2047.88267 1813.09773 1543.00628 1556.23381 1524.69882 1426.73360 898.35842 530.77710 331.00662 530.21557 799.02760 1294.16801 1746.80708 2266.27968 2556.67959 3076.99928 3315.22173 3352.06083 3170.62659 3082.42728 3472.69959 3694.96715 3668.74327 3824.44139 4174.59507 4445.18062 4713.79415 4969.07342 5125.30906 5435.26808 5587.30764 5737.71410 5814.47237 5835.43411 5804.96444 5582.16672 5582.25964 5856.91049 6036.87889 5945.18839 5796.14153 5569.62510 5537.45336 5195.21621 4831.11833 4511.62190 3879.35298 3785.48623 3794.77968 3715.76648 3383.73319 3244.13488 3623.06949 4087.98336 4554.74398 5313.00455 5624.39646 5569.45162 5004.08856 4510.17986 4085.52404 3840.09127 3621.54564 3500.48908 3561.89605 3601.82429 3689.75073 3975.92700 4515.72841 5108.47225 5469.10289 5999.75045 6386.75819 6756.79424 6824.45626 6616.23876 6269.18324 6161.74979 5903.25411 5766.49674 5707.09478 5431.15161 5030.51176 4761.55988 4584.90126 4241.96409 4196.84199 4056.54474 3935.89957 3694.73018 3779.58575 3756.68603 3664.27234 3605.77386 3405.99402 3164.38534 2505.61201 2461.24574 2374.48748 2163.51498 1908.29944 1661.75271 1290.77142 450.79912 3.14696 8.91583
-0.28962 17.46260 244.40493 441.55173 625.72946 1065.14760 985.27278 1083.91914 1149.25964 1082.33133 1290.37125 1523.60919 1879.05049 2134.44511 2098.47352 2194.38812 2179.43435 2432.26221 2707.97009 2946.56723 3275.49694 3493.67289 3931.14248 3951.98660 4061.43436 4360.35951 4818.26798 5377.78534 5845.55667 6032.40351 5930.17897 5608.74982 5285.76667 5541.37381 5649.42642 5793.10003 5934.59569 6253.47567 5944.27287 5429.98760 4967.30281 4401.16138 4111.79004 3835.06437 3648.26906 3584.26120 3094.78521 3231.87722 3802.83211 4226.33502 4582.98973 5001.71254 4922.48081 4560.63590 4284.62583 4103.94918 3600.14755 3245.73693 3355.19373 3535.94781 4007.97816 4433.01094 4559.67153 4923.14626 5350.08024 6036.16270 6532.46724 6733.88064 6786.94849 6658.42294 6530.85590 6399.89722 6557.38770 6632.74716 6861.68242 6684.92857 6359.86800 5823.53363 5168.41283 4756.86586 4224.16620 3893.42018 3764.24128 3515.17776 3345.28812 3275.05688 3177.32346 3119.17203 3446.03480 3382.57543 3031.36837 2776.64044 2850.91976 2772.65459 2709.72340 2728.81053 2809.93194 2524.10379 2233.34020 1761.41482 1910.53888 1868.06321 1479.08357 925.03888 496.79904 324.88586 580.37507 981.16248 1384.88155 1718.80502 2294.63103 2774.56444 3175.64780 3518.30410 3633.16730 3717.59203 3757.79068 3971.60900 4018.27576 4263.90674 4339.49563 4619.63644 4827.69434 5026.56621 5163.99554 5231.66594 5246.39581 5403.01853 5401.77420 5491.19671 5483.15712 5431.90919 5164.25684 5327.09381 5511.56489 5837.04746 6061.81952 6202.41957 6104.82053 5751.65699 5325.16012 5064.59940 4390.07096 4039.13796 4264.97233 4269.59227 3838.77888 3529.41704 3416.55824 3575.67794 4086.27859 4676.45919 5138.91515 5622.80172 5533.22418 5316.94569 4650.49029 4404.15267 4242.09594 4095.99844 3944.22622 3787.50759 4003.10001 4112.39014 4249.39550 4395.45812 4992.62052 5573.87941 6027.64217 6526.37284 6717.23783 6521.27816 6122.03279 5712.53364 5451.57800 5519.81262 5416.16315 5492.35941 5442.35044 5317.06761 5116.03273 4847.33564 4624.09552 4427.11180 4340.04303 4199.50218 4186.52138 4121.48684 4047.85224 3836.60552 3611.73607 3322.43827 2664.28998 2251.84303 1834.68981 1923.15696 1752.85781 1626.51120 1460.73245 1107.81788 426.64644 3.89540 15.81675
5.57699 21.25143 277.44513 557.48154 480.24774 685.03961 634.43764 794.28286 945.80040 1017.85152 1258.61647 1288.64710 1461.48192 1555.11656 1684.48867 1776.35901 2027.59755 2352.38573 2588.15560 2711.19944 2800.53556 3094.72330 3433.82681 3462.91150 3834.10504 4156.95790 4561.90990 5172.45728 5686.11988 6198.05890 6153.05112 6040.07417 5724.17962 5968.04643 6177.36293 6424.49220 6506.54817 6546.18755 6176.47848 5470.65605 5014.27730 4598.74905 4454.55754 4279.15324 4062.10978 3610.56282 3251.86086 3495.85389 4010.10432 4256.31442 4775.68197 5186.09728 5207.75867 5026.70676 4456.97586 4096.73534 3548.62925 3435.76072 3519.03491 3776.61826 4196.02450 4551.66567 4853.41025 5226.49278 5612.70061 6235.38107 6724.48507 6809.41476 6786.00342 6475.61071 6234.45578 6067.40854 6141.68185 6452.40943 6515.37270 6523.96166 6211.76465 5897.96149 5411.38273 4919.11198 4618.21208 4419.69630 4175.15780 4020.21638 3700.02356 3684.10811 3649.70352 3692.27563 3865.44750 3637.63670 3262.23710 3146.89683 3209.75993 3406.41079 3267.75184 3358.51070 3205.27434 2881.64893 2674.66727 2402.52067 2297.65380 2001.67961 1402.14384 1013.42471 658.82589 344.35921 488.00481 840.26792 1209.19885 1695.79923 2103.81568 2585.85576 3005.33500 3557.86568 3754.48325 3932.98368 4036.97506 4267.22607 4420.31774 4592.09304 4533.99756 4860.94537 4905.47676 4978.06635 4891.65225 4963.08280 4824.74693 4807.14064 4783.66026 5014.52433 4937.35785 5062.35213 4866.68488 4885.13995 5268.06511 5750.29849 6067.64260 6194.66609 6343.43777 6145.14595 5545.78119 5193.29370 4598.26942 4439.09033 4642.87930 4649.45410 3957.79746 3805.40452 3647.45225 3708.96788 4098.67026 4500.70840 5136.03954 5737.20445 5818.68536 5570.06333 5139.38599 4816.58089 4582.98508 4471.27993 4184.06534 4198.84282 4262.19166 4620.47433 4645.15343 4714.29202 5056.96000 5579.22808 6177.20372 6604.23346 6620.30171 6360.83004 5774.21199 5397.85214 5286.56787 4931.46498 4900.92803 5078.45291 5031.93538 5170.81064 5086.18238 4911.61775 4608.26037 4434.97970 4272.86510 4135.37964 4112.07148 4173.28680 4088.74375 3771.51289 3444.66671 2692.23833 2323.36997 1966.34055 1541.10412 1220.93486 1106.61603 1005.81249 1013.23362 951.30299 478.13566 -0.95274 -0.74173
3.66597 6.11203 437.98652 777.54858 925.88423 935.34983 1001.80568 1225.50029 1353.80716 1355.27617 1608.12946 1848.15549 1715.64005 1823.84451 1934.92414 1935.81494 2027.62036 2172.28053 2327.11566 2633.04276 2677.13559 2899.87553 3271.96026 3582.62417 3946.20007 4420.70896 4733.48739 5289.41946 5715.68597 6126.32547 6317.05867 6400.19455 6288.38034 6395.19605 6758.93899 6702.37285 6759.55743 6728.72439 6200.50579 5687.65741 5208.30567 5029.25920 4740.00200 4402.60632 4156.40121 3628.85745 3470.10995 3617.82937 4024.12776 4481.17820 4997.39290 5406.03526 5468.35087 5111.57132 4512.35083 4081.90133 3719.91867 3799.76217 3774.27021 3839.78573 4115.15764 4430.25837 4936.66049 5322.42103 5852.00955 6392.24218 6687.02747 6716.71836 6378.28619 6123.40244 5844.67590 5565.99366 5584.99137 5936.54130 6153.54052 6274.63856 6221.23749 6018.46597 5754.16451 5223.28576 5258.12976 4782.13850 4613.15961 4240.96316 4010.88822 4166.19962 4110.30292 4201.97404 4234.15750 4047.03083 3663.67517 3638.41452 3879.20773 3906.99927 3808.26704 3800.92416 3600.14482 3362.31645 3095.95246 2704.36118 2396.50653 2020.26591 1419.76292 1052.72264 548.74545 350.70437 463.63004 848.00829 1161.27274 1648.37797 2040.12008 2460.78211 2980.75386 3423.41070 3687.43507 3862.25186 3974.21442 4235.40826 4363.01895 4525.98422 4571.35291 4623.71910 4505.05388 4492.40595 4451.29686 4422.50418 4240.42639 4180.88557 4393.55048 4546.93346 4516.19808 4602.95509 4410.90604 4472.09487 4930.39542 5062.50689 5961.90321 6286.27272 6545.99629 6377.89928 5907.98704 5232.34576 4805.59672 4904.81048 4839.59202 4647.01322 4356.65290 4076.96491 3815.46414 3898.56853 4264.81266 4556.61037 5113.13657 5738.87727 6047.20542 5776.14781 5494.38628 5170.66695 5085.19583 4734.50245 4585.17271 4610.25655 4506.42615 4700.70113 5026.96679 5023.19522 5492.42031 5880.42500 6407.54785 6630.81806 6465.08333 6033.41421 5742.99927 5170.83496 4739.78086 4514.23541 4550.97712 4735.92030 4687.33743 4679.29548 4711.05174 4602.48857 4282.57660 3944.14447 3901.59975 3778.74709 3826.03616 3640.71402 3747.60820 3624.52183 3224.76278 2888.54699 2441.97061 2078.95953 1722.28767 1288.55160 876.18126 696.36087 638.46721 449.24063 298.66321 13.86891 8.03926
6.05450 5.20230 347.01395 865.65052 1084.68321 1354.09290 1414.93408 1651.09420 1718.20813 1943.98316 2020.90364 2327.51426 2287.45056 2133.88270 2228.15135 2215.38825 2399.67694 2491.16098 2811.77815 3093.23674 3093.46178 3320.30728 3630.17605 3958.55491 4357.52709 4777.23115 5125.55490 5477.40196 5846.97592 6028.82110 6214.29117 6453.69006 6551.47156 6821.84112 7123.90073 7202.16773 7188.74854 6778.50421 6437.46316 5838.59013 5495.55580 5359.73255 4906.31182 4604.89280 3985.85535 3814.15529 3829.38637 4035.19532 4094.61301 4507.29459 5363.20270 5528.04105 5549.35004 5243.27084 4592.03226 4027.74997 3956.67881 4283.19090 4121.73510 4086.01508 4343.04110 4722.72068 4935.56669 5382.24160 6070.47638 6440.60962 6697.77347 6572.67789 6007.01856 5636.02663 5311.53367 5127.19711 5051.84751 5357.34187 5721.62539 5797.60378 5827.19133 5860.75006 5795.02812 5721.90471 5560.83744 5278.69544 4959.09168 4563.87077 4458.67712 4661.78293 4550.15843 4615.69613 4600.26338 4468.99396 4333.78210 4283.08516 4252.28055 4288.89155 4331.46292 4146.61165 3875.39957 3629.36235 3072.93121 2622.77895 2240.69129 1789.62369 1308.05872 944.79837 592.63153 354.24251 519.26607 1004.13013 1269.75280 1726.46545 2046.35402 2409.33966 2747.63884 3150.01631 3208.52087 3368.71456 3501.64909 3721.99420 3976.78472 3991.48099 4224.87500 4267.58436 4090.88227 3877.27257 3793.25784 3900.71757 3970.14239 3816.47992 4087.11753 4081.97156 4127.40942 4154.57404 4091.59429 4336.53324 4622.63226 5100.26000 5678.38226 6197.00098 6642.38212 6581.63576 6134.83538 5591.44773 5284.61074 5243.45011 5411.23294 5060.10264 4806.36332 4384.68834 4100.06888 4160.94480 4497.94501 4952.74625 5215.78581 5795.17648 6235.73963 6212.73418 6044.27465 5724.84654 5456.68939 5209.86487 5065.98130 4929.47897 4806.73720 5050.19001 5393.33982 5486.30778 5982.43331 6199.35724 6644.70575 6525.28316 6266.18665 5756.21329 5429.37072 5038.63904 4691.24109 4286.79892 4088.72918 4076.62825 4284.27433 4212.20948 4187.01499 4322.07720 4028.95702 3773.62949 3264.34108 3045.72867 3069.09375 3207.27765 3365.93344 3257.17901 3038.39858 2766.31635 2442.38497 1909.83399 1524.60010 1135.87005 873.37841 492.87329 495.89782 527.02790 346.92784 16.79478 9.01994
22.30102 18.02401 315.84518 644.57458 1002.08701 1308.77564 1679.35608 1969.71978 2256.18608 2359.59979 2538.62924 2724.91155 2807.66312 2762.39113 2773.72122 2812.52528 2766.44728 3052.95991 3218.69033 3500.82592 3667.85965 3782.15928 4001.75714 4243.03865 4735.99697 5068.93270 5352.79945 5523.28368 5589.28836 5667.33359 5997.09182 6244.90289 6693.97933 6793.26327 7251.71990 7331.79362 7298.93098 7031.07166 6632.34140 6261.94091 5876.68609 5606.09747 4936.83052 4514.76082 3973.87105 3904.50761 4277.04709 4473.41577 4501.59007 4813.52848 5322.98748 5587.31623 5571.92888 5228.04517 4550.27133 4115.48636 4219.24196 4586.52884 4477.98075 4487.07065 4674.63845 5028.28178 5429.84144 5694.40781 6232.47815 6543.91825 6571.79372 6392.98710 5777.07031 5464.60773 5145.71088 4742.58298 4786.24588 5086.42826 5025.88322 5161.42656 5355.31005 5471.56248 5628.01496 5709.68559 5706.02273 5605.58124 5400.40481 5213.36634 5019.14198 5116.00004 5282.92643 5226.90799 5171.00601 4850.60250 4726.64634 4665.44272 4495.19161 4396.17343 4322.30869 4245.71385 3937.63088 3436.67547 3056.98033 2487.61424 1931.99913 1608.27250 1215.60197 889.18961 490.21294 374.00147 488.39767 853.47277 1317.23999 1637.61303 2105.89691 2389.56575 2678.27094 2889.86958 2789.16320 2774.43563 2990.02573 3342.08159 3504.91129 3856.00334 3856.69068 3843.03721 3474.82661 3373.49207 3168.40067 3259.49919 3397.28256 3540.60231 3391.31578 3597.11174 3718.07380 3687.21400 3788.40527 4317.61079 4826.78200 5432.99933 5940.89916 6338.86292 6630.11449 6669.84348 6336.08351 5901.47504 5683.80128 5830.63475 5806.14775 5442.12771 5240.01414 4687.74463 4302.23796 4318.20852 4614.46528 5088.31351 5522.99363 5857.15776 6355.28310 6538.13777 6348.33688 6080.43857 5852.45975 5575.29759 5402.91990 5445.32591 5288.79946 5554.24942 5837.40738 6065.46243 6162.86452 6535.10245 6712.45844 6488.34702 6059.94994 5669.41118 5072.78901 4727.93002 4499.98336 4159.43702 3890.99710 3798.38779 3600.10684 3601.36108 3658.37011 3673.17762 3783.92580 3517.27418 3097.25045 2799.67372 2679.18654 2821.89123 2990.28771 2902.11476 2619.69732 2287.67273 2054.95168 1615.73870 1134.37550 894.61499 751.28189 822.82949 990.33243 837.04592 456.53511 21.08154 7.00596
4.56942 -2.78833 459.80252 751.80100 1152.62007 1523.93328 1765.70860 1972.85429 2228.70402 2683.46635 2831.82126 3174.80126 3293.98521 3179.13073 3222.65522 3347.46861 3153.65424 3439.06445 3872.72097 3932.48202 4100.27374 4389.06493 4460.28803 4749.87747 5097.81486 5208.57743 5358.62166 5361.77604 5228.54658 5031.93349 5382.30866 5876.96451 6403.39393 6741.52663 6892.99223 7119.12700 7261.76816 7166.25658 7008.16220 6482.08850 6041.01953 5588.89765 5075.26453 4447.81800 4218.14111 4427.85630 4682.67630 4903.61143 4743.43899 5008.65160 5572.86758 5747.49689 5557.85337 5186.61544 4503.36504 4237.76899 4538.13338 4984.67693 5122.06307 4948.13702 5089.79969 5451.27239 5737.47633 6105.93839 6459.96093 6660.77307 6486.03526 6129.48693 5623.54531 5085.08030 4659.57630 4412.84539 4363.91802 4509.26498 4875.29255 4793.21248 4926.58120 5040.06376 5068.30730 5325.49179 5510.90141 5647.89387 5638.66621 5424.27216 5455.03535 5487.69569 5565.73524 5619.04720 5602.24997 5348.20628 4994.90287 4558.26944 4430.48313 4142.43084 3911.09907 3931.57398 3790.70525 3421.34510 2932.57952 2585.75199 1940.27734 1612.35387 1201.12372 976.11849 573.96332 400.49877 535.01034 987.92322 1280.84587 1473.19256 1886.00911 2244.09709 2376.43851 2502.23099 2315.82667 2413.32712 2585.35478 2875.20220 3301.07978 3429.75225 3220.70219 3278.50210 2968.32645 2783.90597 2843.56237 2965.21874 3021.63823 3218.31247 3161.47570 3207.96467 3283.27936 3579.62911 4082.35927 4412.88029 5006.91489 5218.60793 5912.57628 6132.40207 6431.67753 6631.92860 6595.68718 6435.09341 6310.36418 6275.98795 6243.46834 5913.05328 5530.22320 5012.30012 4628.11684 4503.27313 4763.32655 5163.29266 5542.98420 5905.58400 6570.26407 6796.54474 6925.46214 6736.08471 6197.77222 5988.08936 5980.97431 5933.47443 5926.26607 5916.15194 6171.89798 6302.75869 6673.42264 6865.92304 6835.32873 6544.02093 6226.36507 5756.50025 5354.86693 5058.14425 4708.93261 4564.26325 4284.59482 3990.04866 3747.83706 3338.14295 3210.38488 3304.92926 3314.20286 3223.44478 2954.38920 2474.63778 2278.96178 2288.61469 2401.81009 2451.98905 2217.13150 1790.08521 1665.14911 1263.57732 957.59723 1204.69933 1225.95464 1290.59410 1367.00443 928.96085 609.58529 12.31415 6.26821
12.37951 10.98377 554.91661 1051.74624 1375.01784 1849.34733 2082.19290 2329.36681 2640.11490 2787.95348 3239.02318 3630.36742 3660.71486 3715.51042 3897.23466 3747.27789 3481.47388 3819.75122 4246.50016 4539.70402 4803.95671 4803.11680 5028.68414 5200.57662 5259.98353 5200.79766 4930.12275 4747.83433 4679.24281 4698.43809 4909.15723 5745.57800 6036.41821 6345.73232 6452.28581 6659.45085 6966.88716 7187.65101 7098.01786 6680.47306 6114.70509 5710.63285 5145.42410 4736.11246 4726.64909 4596.45456 4891.21162 5233.69998 5138.76338 5364.55023 5802.18587 5806.72839 5470.30886 4810.05387 4604.56457 4732.58333 4927.77189 5320.43092 5458.53532 5314.72572 5553.03014 6068.08716 6069.03455 6466.31681 6665.10406 6654.68430 6385.79486 5976.07543 5314.51115 5120.39333 4430.11499 4158.48491 4053.70672 4155.39071 4210.10459 4462.32657 4321.17949 4481.87477 4566.86443 4931.45035 5164.29344 5361.31768 5392.94677 5329.16297 5325.82456 5413.35728 5641.19664 5644.13660 5601.02405 5264.10918 4983.80102 4474.43181 4032.52758 3725.46668 3437.02147 3502.82335 3494.04611 3255.50642 2762.75709 2551.72298 2143.96129 1678.41709 1262.87331 847.37827 591.22655 417.88832 510.80743 840.81359 1043.55342 1174.60521 1531.66116 1764.72087 1913.88414 2061.87947 1843.17363 2215.63506 2493.66412 2655.82526 2867.08928 2817.74985 2872.86742 2844.13714 2623.91941 2525.75705 2428.03111 2631.36938 2625.40969 2706.45767 2911.97645 3167.88655 3511.82607 4013.90452 4315.01461 4649.09369 4972.43466 5294.71193 5579.43577 5713.29519 5946.29308 6271.45467 6568.38073 6746.71318 6718.60592 6744.21449 6558.14521 6260.24811 5757.64518 5274.21159 4987.49425 4714.40275 4909.74366 5122.10589 5762.40433 6206.21153 6697.70016 7068.88800 7074.44576 6990.75866 6737.75676 6562.61509 6444.84764 6316.16253 6285.45210 6279.12010 6431.34677 6577.58966 6781.29699 6792.72777 6702.04844 6393.98124 6114.72408 5842.31621 5561.92757 5416.81144 5051.09761 5002.59662 4812.67213 4413.13242 3970.08170 3608.79343 3179.20602 3005.04528 2896.35809 2858.98115 2672.75108 2164.25643 2068.87184 1973.75380 1921.57233 1948.93830 1775.81981 1581.06649 1343.79003 1229.56311 1384.14421 1539.96894 1575.42211 1656.65765 1505.23093 1024.71407 490.71312 13.10017 -7.10597
6.47394 10.05754 510.73046 1037.69367 1331.62313 1694.20173 2220.38111 2622.20031 2981.02608 3173.87965 3354.32406 3866.02845 4160.04853 4407.29700 4354.54628 4364.16161 4317.89245 4222.54521 4390.54381 4918.04325 4978.40315 5091.78085 5115.85487 5047.06605 5008.53301 4689.81830 4520.30563 4307.21853 4195.80510 4349.72987 4827.96582 5357.38356 5807.70367 5899.46867 6049.99076 6421.71751 6450.77246 7125.08825 7131.16860 6705.40457 6348.25894 5710.69777 5299.77194 5065.77984 5097.16745 5156.65714 5204.64453 5661.96762 5839.57627 5681.66535 6000.96167 5937.17862 5416.37859 5084.98524 4913.62663 5030.87721 5316.49670 5699.08108 5953.44907 6021.09227 6010.65934 6278.86879 6602.37747 6686.68888 6636.75570 6509.73920 6227.63986 5796.62366 5498.33729 5160.99090 4713.75676 4400.29030 3924.97912 3863.40435 4118.35311 4084.51692 3954.77909 4072.83545 4167.68485 4196.39309 4770.94300 4791.94106 5000.49905 4958.89993 4929.81903 4961.50896 5329.78795 5404.16629 5303.95347 5118.55386 4802.38523 4219.77495 3731.83495 3353.43109 3142.11093 3006.34786 3118.19974 2941.64112 2551.01310 2252.77136 2102.76115 1713.07589 1299.61590 896.31017 497.51771 399.73869 495.39901 599.76337 761.26030 888.94725 1114.96262 1339.56935 1505.54077 1663.52356 1421.72090 1942.91018 2171.58793 2317.26259 2415.07013 2374.85625 2337.77786 2439.71681 2191.51602 2172.38321 2218.34408 2322.65735 2628.54260 2820.59833 3169.81950 3367.68590 3756.52564 4126.80561 4383.79734 4487.08640 4775.02168 4712.22050 5088.81319 5258.41371 5555.11161 5962.78831 6427.25446 6822.13174 7012.00244 7064.55771 6944.06723 6759.06710 6182.37465 5606.06686 5242.42710 4973.65349 5217.77278 5454.91336 5755.57540 6234.69918 6837.87571 7175.95847 7281.29026 7208.05865 6871.54558 6730.06747 6593.00569 6391.07930 6210.65799 5938.03343 5855.37372 6285.73408 6382.58461 6387.04227 6155.90487 5836.22657 5866.29933 5753.59700 5658.97536 5666.80475 5490.62685 5308.12790 4910.46222 4777.13954 4403.13501 3960.86813 3645.64541 3245.28190 2984.36623 2787.92076 2439.16339 2504.74139 2336.78695 2150.31283 1933.58563 1751.28778 1456.96392 1370.62228 1540.27493 1642.73434 1920.06372 2218.51259 2154.15871 2026.63025 1588.42062 998.40556 583.59116 2.45940 11.82678
22.83863 0.20815 396.44468 796.04986 1203.00679 1559.06538 2050.58165 2729.90954 3036.06477 3565.34639 3739.05335 4098.25999 4446.88643 4693.13316 4725.52543 4595.50616 4584.07829 4641.44276 4789.47913 5005.92886 5077.85505 4986.74378 4861.98144 4749.58819 4404.16619 4121.72113 4014.37801 3692.22346 3884.55570 4249.72237 4768.45131 4890.37849 5261.03804 5419.66830 5316.40568 5831.28385 6368.09150 6927.18595 7183.43947 6845.85838 6501.12234 5917.17899 5670.34321 5620.04372 5705.90944 5521.35391 5645.09961 6059.18699 6192.61506 6166.60679 6298.49067 6105.79043 5847.99250 5333.06564 5379.70470 5343.06635 5672.36384 6019.90465 6313.72234 6463.30958 6708.37887 6633.68385 6691.83333 6559.90489 6321.82427 6022.07822 6039.21517 5807.19257 5659.78101 5426.91894 5072.41494 4675.44414 4096.11069 3621.48366 3481.91874 3618.95850 3489.52627 3583.59125 3776.89410 3986.77461 4484.85486 4359.04502 4276.30348 4497.40215 4300.49485 4633.97894 4655.91793 4869.46378 4794.64029 4889.01721 4709.13665 4344.56488 3856.63450 3435.24932 2896.17645 2574.63645 2539.57593 2491.81266 2356.00514 1813.69958 1678.21897 1474.24651 1155.19870 795.10002 489.71318 433.69943 523.99746 998.93744 1120.89910 1109.84069 887.22226 1099.86971 1078.65999 1180.55826 1268.89036 1412.91911 1823.43965 1827.98226 2071.51578 1926.36386 1989.77737 1916.45000 1901.08525 1955.11227 2011.87443 2283.41807 2604.79482 2848.25544 3161.13989 3542.97585 3754.90191 3941.55792 3992.62050 4185.37791 4163.07670 4328.83293 4512.59341 4828.59161 5282.83814 5786.90996 6114.12311 6484.02884 6963.38358 7243.74170 7083.73403 6880.53170 6342.12879 5883.81955 5635.19198 5447.85578 5599.29837 5708.37722 6092.48791 6281.10329 6911.69781 7284.39724 7335.44173 7089.66515 6738.99699 6602.01482 6243.84384 6062.42084 5798.48679 5573.53356 5440.98586 5639.57958 5946.61082 5931.54818 5793.71730 5366.29977 5325.80488 5225.76679 5399.92189 5518.93693 5458.80363 5138.01852 5039.40744 4937.18148 4683.51811 4349.63534 4129.65861 3663.37777 3263.21573 3091.03399 2931.78038 2828.54454 2884.05741 2437.39845 2287.29959 2082.44345 1801.55807 2067.61042 1992.91122 2207.43360 2552.54264 2508.56588 2378.51934 1998.62223 1558.21024 927.21082 568.95451 12.35849 4.59680
9.70479 9.98235 417.73505 812.07564 1192.00883 1624.75478 2259.14992 2658.50437 3151.74272 3603.59401 3937.22210 4187.59701 4478.19501 4612.59275 4623.56198 4537.84036 4600.98014 4622.81663 4794.24631 4845.16556 4724.30151 4452.77254 4331.59552 4248.01651 3955.07038 3736.38411 3648.50533 3434.10210 3883.01735 4236.28362 4524.15683 4712.83428 4645.50575 4887.00389 5411.53702 5807.96064 6354.14346 6911.86141 7127.16505 6977.41433 6736.28734 6354.86759 6148.55761 5958.06791 6073.92095 6096.02448 6080.41164 6440.93472 6606.40425 6664.96572 6774.89525 6481.16333 6068.35592 5702.99914 5540.63235 5680.78394 6124.67234 6462.56511 6772.81592 6850.13934 6773.06256 6710.30794 6532.95369 6159.87378 6029.48201 5697.76851 5381.26231 5348.89183 5405.56924 5403.60904 5171.09910 4787.01402 4284.54672 3821.59615 3406.29412 3271.74061 3262.14199 3035.99180 3355.28264 3738.26197 3858.69224 3706.07337 3762.70894 3775.29377 3762.68595 4241.21643 4341.08242 4425.18718 4444.36368 4536.95251 4589.52861 4473.80511 3861.98159 3581.16524 3050.20195 2560.63320 2288.42566 2064.84583 1901.93806 1627.87292 1630.12083 1112.18599 859.66606 900.39167 629.68607 565.83393 893.07881 1232.70634 1533.85707 1495.84566 1496.32123 1300.54605 1536.55477 1486.36317 1451.19593 1394.97296 1397.14339 1451.70313 1645.38614 1778.06099 1866.39404 1927.18621 2065.29881 2392.76323 2509.70163 2381.83544 2378.88191 2646.49150 2835.52995 3157.50360 3393.57975 3587.73804 3597.38039 3857.02310 4016.06083 4289.46526 4634.23842 4819.31122 4900.05088 5376.00302 5797.76076 6443.97245 6839.40251 7209.42041 7325.04481 7128.25796 6634.70731 6392.59193 6051.33483 5980.11176 5928.60704 6161.26652 6484.78243 6905.51108 7226.91920 7402.55033 7388.35208 7035.29724 6533.93555 6099.56124 5699.52869 5673.83548 5392.01677 5021.35353 4952.02305 5178.06707 5373.72543 5382.84689 5363.93374 4957.22784 4689.06618 4764.84976 5034.54956 5016.07734 4933.35361 4789.42639 4845.45220 4612.54754 4620.46789 4512.05990 4279.54853 3963.05876 3647.32129 3524.88762 3525.72926 3326.20816 3297.19950 3177.31931 2830.28566 2696.21653 2376.05494 2314.67921 2440.16045 2672.24715 2765.07500 2548.80972 2199.27765 1707.60763 1360.76418 877.01223 481.13596 -0.68568 -2.11932
7.05324 3.18530 495.47982 1037.11424 1394.67373 1815.90865 2322.30398 2792.67118 3058.58220 3250.58232 3597.81548 3872.20146 4243.66213 4288.14268 4285.80200 4233.74453 3929.10589 4146.10171 4343.49099 4291.38418 4470.14450 4055.69830 3868.33195 3672.40430 3556.39860 3340.19409 3202.56742 3460.21774 3799.10410 3984.85517 4166.73807 4199.14523 4542.09782 4913.96032 5436.84504 5896.91714 6417.40825 6810.20353 7017.60949 6942.88990 6782.50338 6657.81800 6582.74588 6468.81284 6615.56110 6599.03945 6574.72317 6784.67246 7083.33387 7090.83977 7069.89746 6777.03341 6228.08916 6044.49280 6094.22369 6284.16546 6476.00164 6823.32952 7076.72334 6990.82251 6661.48699 6210.05352 6013.51085 5828.34395 5544.83437 5130.76853 4834.91520 4970.26359 5066.36451 5125.50266 5023.21673 4698.77759 4491.66691 4029.56064 3526.68979 3451.94465 2966.76309 2840.47509 2915.51790 3479.00158 3576.91432 3523.85142 3423.31208 3431.53349 3496.43044 3683.22328 4118.14093 3781.03147 3773.13614 4074.40485 4207.07875 4258.22101 4057.03524 3730.20620 3351.48955 3040.40022 2549.25278 2399.10269 2212.14321 2173.03092 1902.08754 1712.32619 1397.12409 1246.09760 837.37577 666.36684 861.91048 1329.76725 1745.55465 1960.59765 1947.79794 2087.87116 1941.35025 1925.86824 1900.30139 1897.66924 1847.28419 1788.75874 2119.31287 2193.02352 2161.30168 2279.29791 2396.62895 2683.81869 2907.92280 2738.81641 2574.37577 2708.49363 2938.37108 3138.38338 3171.14723 3432.18058 3925.10759 4172.31542 4539.91773 4647.00261 4877.18136 5157.60670 5361.10114 5622.92910 5960.40301 6745.85107 7037.10072 7233.10978 7361.67883 7329.79362 7091.03839 6775.23236 6519.16305 6549.00374 6562.21236 6664.23642 6890.38168 7141.06101 7366.17156 7345.03129 6967.67720 6540.07244 6338.88646 5833.46526 5265.11163 5136.87361 4941.66807 4574.07614 4565.92183 4682.32971 5002.07367 5098.49537 4951.74208 4769.82265 4375.69114 4050.08059 4218.58199 4638.37273 4576.87839 4266.20774 4108.94212 4123.03067 4338.17039 4427.46172 4371.75703 4367.95855 4170.34113 4009.78650 3877.06932 3880.16881 3711.25208 3555.54257 3273.88868 3151.40343 2979.26643 2937.15069 2974.05213 3081.94785 2983.06693 2721.31038 2304.66027 1740.36303 1409.32456 850.99915 350.21227 0.48004 6.27220
0.11069 11.93667 716.17082 1087.86074 1571.69808 2040.47546 2396.97057 2546.67932 2657.15388 2828.04037 3174.61957 3510.85594 3735.05644 3987.26100 3996.31891 3634.06417 3472.17406 3588.36101 3940.75760 4003.08683 4023.91597 3731.98190 3378.88977 3246.27056 3206.66941 2990.35958 2887.33163 3379.33240 3587.18928 3619.77600 3917.56043 4278.84579 4809.39815 5162.43143 5560.81344 6059.20991 6439.27106 6604.39371 6592.37257 6486.27648 6475.24518 6522.41753 6690.08101 6820.80272 6896.75491 6849.36549 7069.62417 7140.82616 7366.23477 7483.98515 7352.26814 7155.86047 6756.58284 6561.74355 6550.24887 6764.94186 6816.47610 7107.65375 7157.51367 6732.13555 6326.69566 6022.71110 5574.24945 5382.91906 5210.68915 4951.18254 4566.22760 4383.05872 4568.09831 4660.41290 4486.14973 4388.87294 4331.72484 4026.81398 3791.58245 3549.21225 3273.96377 2744.66426 2818.42432 3071.04787 3195.63224 2913.40923 3167.38285 3063.59323 3063.47869 3179.89781 3342.37454 3351.04266 3214.81321 3570.55283 3630.90994 3829.01670 3784.88545 3748.14323 3531.44861 3318.09959 2989.87428 2904.95620 2626.18835 2512.36489 2227.88253 2045.32790 1670.65138 1218.69323 994.21658 729.52147 834.44736 1344.24596 1909.29293 2140.06594 2504.15369 2515.46507 2535.93817 2527.72107 2493.40817 2371.92130 2182.22864 2321.48445 2586.58483 2604.78923 2475.15658 2605.15837 2846.02756 2951.93166 3264.37284 3243.85313 3065.87195 3165.56064 3212.80161 3448.79417 3553.84793 3496.87258 4008.39659 4587.23170 4922.24417 5061.88780 5393.96019 5478.69117 5692.08026 5870.67489 6335.42497 6679.47484 7067.33539 7056.02998 7198.14634 7320.76154 7210.20005 7073.79770 6995.06744 6950.31425 7060.91821 7102.11840 7296.33699 7428.00351 7439.82793 7214.42473 6624.31728 6341.57234 6075.45066 5672.07586 5416.07719 5084.35605 4498.15694 4341.99068 4072.43101 4217.80254 4532.66407 4475.28991 4645.99396 4623.56214 4120.45791 3829.06511 3721.69888 3990.88159 3929.78401 4002.82679 3525.58073 3508.24097 3803.32258 4027.16353 4313.61241 4299.34238 4330.72245 4296.86108 4302.44003 4241.19943 4201.99351 3957.75787 3667.02498 3496.90044 3182.30569 3146.12892 3050.64031 3067.52709 3007.40305 2720.47390 2348.83811 1931.97057 1520.58847 991.62921 427.01069 6.56031 7.88419
-4.36011 19.97247 491.05399 1105.86594 1634.67262 2067.00089 2233.90438 2241.84147 2226.45214 2381.09159 2676.70327 2895.79486 3409.97661 3582.28746 3526.31940 3174.19586 2939.56484 3148.80965 3332.00954 3450.80629 3528.96634 3520.46334 3046.10125 2778.28003 2907.01633 2726.70162 2788.50745 3101.91678 3286.05536 3748.77007 4269.49330 4738.06094 5104.27114 5526.80674 5739.03764 6082.44256 6324.36205 6247.38039 6149.88069 5920.07335 6234.43761 6224.23955 6354.11537 6703.37870 6834.94601 6928.53750 6980.50816 7096.92635 7288.01872 7351.71925 7460.04356 7449.27905 7226.40759 7093.60336 7022.89159 7129.70430 7268.28044 7264.96949 7048.37633 6690.20710 6219.95797 5737.25743 5294.10080 4922.28284 4750.85726 4685.05377 4286.93069 4108.83665 4080.92079 4186.51332 4008.27625 3902.51173 4014.75294 3793.03869 3613.76467 3385.22343 3220.75802 2896.12938 2599.91322 2600.01168 2815.86660 2595.15302 2820.64904 2933.14604 2677.41378 2935.04063 3160.38344 3015.98777 2812.03287 3086.37466 3238.16663 3417.90246 3517.20665 3353.61986 3356.99227 3244.61256 3224.64231 3113.31033 2930.82130 2775.27207 2523.61158 2175.00519 1633.88131 1217.22487 952.12473 707.60478 835.44074 1168.47960 1462.51838 2067.01937 2616.80241 2689.00422 2893.44590 2998.76581 2996.30868 2947.44082 2655.14695 2659.70684 2932.91090 3063.37375 3076.54244 2928.14571 3138.73933 3231.84638 3622.81372 3722.68103 3402.19357 3649.11321 3717.55493 3851.26329 4095.27105 3943.13385 4114.53375 4846.71848 5250.66118 5612.40910 5735.74000 6082.25345 6261.76980 6315.11214 6599.09902 6876.21634 6953.44443 6808.13081 6594.92369 6802.90364 6972.31622 6845.33957 6816.66614 6927.57309 7058.78113 7322.25294 7443.71481 7553.99880 7379.23010 6855.56526 6221.17328 5775.08303 5553.45175 5311.77322 5091.10619 4841.51637 4485.03343 4052.63323 3869.09573 3938.30266 4226.81990 4024.04280 4049.06075 4149.22129 3942.41531 3490.04603 3331.03668 3286.57672 3491.11540 3509.77408 3231.45211 3147.36858 3361.51456 3745.40796 3889.04364 4123.74228 4029.56556 4001.61715 4068.99291 4201.94526 4191.88050 4079.25638 3772.01987 3486.26780 3214.47011 2953.90320 2747.51290 2929.85079 2652.29299 2630.41426 2370.33298 1954.06704 1542.69399 946.52704 578.68389 19.53315 8.36820
7.45915 9.32238 431.41762 1150.86638 1522.00642 1749.72085 1714.57773 1530.26582 1750.38269 1920.88364 2217.55474 2642.81502 2924.77722 3270.27316 3276.96643 2942.60305 2508.36488 2583.64484 2620.16774 2998.44665 3175.15910 2985.56971 2672.59748 2573.93301 2601.91088 2630.03590 2888.83467 3135.99019 3760.48589 3940.85220 4462.49188 5018.89614 5308.02224 5612.12419 5728.35734 5957.62401 5967.99202 5825.77393 5519.84657 5562.26131 5294.91171 5793.94947 6075.16585 6254.01780 6485.09786 6483.35514 6549.67151 6616.07287 6767.52347 7076.26308 7165.22075 7492.74062 7643.87048 7545.98975 7560.22438 7532.09565 7340.19599 7067.67120 6794.48823 6409.98086 6128.19682 5680.77445 5039.14681 4855.43732 4452.87924 4171.59225 3875.98163 3781.06771 3663.72762 3845.68563 3625.91174 3345.17008 3218.87847 3206.52864 2933.39469 2951.37958 2968.75884 2837.09313 2505.46520 2288.90311 2219.91931 2323.08398 2454.41963 2545.45578 2492.53970 2635.34195 2853.53740 2662.77409 2323.88635 2484.47182 2571.24271 2982.64844 3100.26746 2932.48221 2903.45986 2871.18971 2864.45900 3009.87530 2785.78611 2591.15102 2467.43625 1948.24492 1561.76392 1087.70799 722.11550 640.43473 644.10112 1019.59554 1521.63581 2117.12337 2588.58600 2959.36432 3200.77480 3423.03762 3492.23096 3486.84479 3334.03373 3463.90578 3536.71881 3413.55114 3255.37317 3444.37040 3701.08557 4019.49128 3946.21197 4045.94186 3922.03760 4160.26822 4286.09519 4299.94411 4519.82658 4414.16850 4649.71006 5094.97323 5536.08723 5971.38873 6239.44159 6478.95897 6577.05577 6662.39348 6766.03270 6796.40828 6625.69166 6263.76889 5999.59982 6209.99669 6383.70370 6436.73688 6362.50493 6445.30399 6773.12925 7135.82065 7365.32637 7551.51850 7132.29023 6745.77406 6342.24034 5676.27978 5179.59968 5011.79159 4773.92284 4563.44784 4313.06433 4022.38098 3695.09633 3572.30502 3749.22873 3730.93072 3616.27314 3671.01782 3664.23696 3355.02100 3192.35513 2951.14988 2894.49079 3060.83336 2875.67915 2742.81392 3189.29433 3432.07977 3480.27769 3642.17673 3529.22304 3481.32059 3624.05195 3744.62234 3957.75825 3767.63550 3572.57438 2998.39958 2719.68514 2452.68928 2374.97761 2407.30832 2320.03085 2106.98682 1814.00312 1758.40119 1387.43057 890.64545 520.19042 24.25122 21.01444
-4.43337 14.24299 545.88603 1056.65299 1198.06212 1349.94937 1272.47313 1199.78466 1358.05958 1621.70957 1943.04568 2454.35279 2742.68396 2955.98027 2995.56500 2751.29870 2457.24592 2142.93254 2432.83153 2642.05394 2778.67115 2547.62576 2218.02021 2166.62685 2551.96236 3028.54489 3243.82903 3565.78806 3913.07362 4434.40176 4868.31068 5095.90935 5190.07350 5183.86765 5338.98478 5471.22482 5475.95864 5367.88963 4913.97869 4920.28768 5026.26692 5435.75337 5707.50472 5966.40022 5873.31457 5955.32904 6088.51615 6140.14397 6247.63695 6615.15024 6901.01578 7355.11808 7722.76036 7756.57646 7638.04859 7390.53252 6940.72385 6429.39541 6200.18534 6019.76264 5651.14151 5267.61674 5047.44229 4745.07172 4511.49071 4224.07121 3725.33913 3603.91743 3437.90181 3424.45722 3282.30865 3152.83968 2996.76270 2931.41312 2830.30960 2632.85900 2689.70206 2554.85718 2251.25667 2237.77514 2032.09262 2019.33754 2055.09579 2167.12379 2034.24654 2310.93141 2466.84264 2287.35043 2019.54211 2051.15053 2234.13340 2272.28693 2433.55606 2270.81308 2075.94142 2279.45692 2502.27576 2530.20908 2303.50898 2090.58810 2076.72346 1900.65538 1585.53628 1022.04110 725.42811 504.45776 687.71598 1267.91140 1707.28628 2041.32298 2266.21612 2623.20025 3056.97237 3380.55162 3665.57617 3801.89955 3948.22012 3879.58542 4004.44411 3999.55044 4020.07130 3848.12800 4098.58466 4309.03865 4435.10182 4482.90302 4513.87484 4620.87880 4675.18486 4770.05285 5113.22213 5085.38547 5087.92703 5274.40594 5796.17471 6188.80965 6363.48669 6542.40525 6570.14898 6565.51731 6590.25197 6441.40057 6330.34400 5815.66803 5688.99494 5756.26280 5832.91297 5775.40722 5835.32268 5993.24097 6524.42128 6675.91223 7153.68748 7434.21951 7179.89032 6702.83625 6068.13927 5473.91025 5096.47315 4691.93856 4437.40857 4282.82915 4083.74457 3979.75888 3586.54332 3380.39021 3322.39782 3293.28652 3194.29025 3238.34668 3320.69602 2922.15860 2904.78979 2674.07516 2513.68031 2534.39496 2525.11911 2439.03174 2742.34394 2906.24472 2985.61791 3169.28782 3094.33469 3036.77046 2955.61824 3314.02602 3516.22882 3669.65103 3402.85678 2892.55890 2299.75623 1919.25504 1941.12124 1911.15208 1906.11260 1508.81941 1286.49411 1346.06489 1118.87024 792.80872 403.63874 5.66932 11.12732
-14.85358 12.47372 453.68520 738.88579 862.47298 815.06956 716.31976 786.38391 1078.77630 1467.89391 1828.30630 2166.06902 2406.92135 2647.01033 2663.61709 2253.36217 2029.89358 1913.05277 2422.28441 2560.72739 2458.60455 2045.52719 2029.89603 2480.72898 2908.42688 3326.34270 3552.43641 3907.51506 4115.29403 4543.67569 4816.85440 4936.34732 4941.04506 4671.69500 4742.62021 5165.98781 5231.58612 5113.44316 4685.82235 4428.27311 4733.95178 4825.09009 5302.24874 5361.33660 5443.86058 5324.36299 5311.20124 5549.69523 5770.89909 6133.47056 6496.80520 7002.38650 7560.83121 7719.92801 7517.19611 6996.42777 6656.88149 6351.78279 5569.42029 5272.20853 5249.87980 4962.68388 4636.61450 4353.97344 4288.07409 4006.58026 3831.78167 3900.39981 3752.39516 3617.99513 3628.40618 3725.57210 3365.61910 3349.99752 3116.85762 2871.15933 2603.24340 2413.77828 2268.21296 2249.23828 2360.26103 2310.18289 2175.58364 1939.71849 1816.05043 1857.87841 2016.54202 1924.04373 1790.03732 1547.83118 1774.25708 1864.71522 1917.81606 2049.33626 1794.11728 1803.27974 2053.75285 2115.30185 1928.82510 1584.93263 1598.73719 1529.00476 1228.58578 1046.62229 605.45342 500.24959 568.34674 1217.30441 1449.41461 1631.39827 1831.83613 2285.90537 2600.50391 3066.28855 3347.57450 3538.36685 4144.00375 4284.58693 4416.99107 4419.87859 4347.52115 4330.17711 4622.33330 4612.85048 4811.92106 4794.99213 4947.95337 4965.13850 5067.20822 5099.02482 5359.38226 5468.94189 5567.98256 5789.50883 6025.39017 6103.79836 6053.37470 6210.14550 6375.17992 6299.57312 5991.00231 5780.34276 5739.44727 5467.23630 5115.15159 5290.46001 5354.41490 5316.84732 5316.87122 5646.51452 6006.03427 6484.20244 6968.17901 7327.64120 7089.08806 6660.61218 6187.06385 5647.90570 5484.75594 5135.07387 4867.68146 4820.12816 4412.58708 4034.92624 3745.51787 3403.61207 3279.78345 3179.41934 3059.55744 2885.16312 2751.09431 2749.07186 2525.36127 2373.54238 2180.70843 2089.72315 2021.18287 2113.16216 2359.32339 2562.20132 2727.63622 2722.96107 2595.63261 2483.60983 2634.66172 2770.44892 3185.15244 3237.22949 2897.96501 2580.08824 2207.05594 1789.96315 1454.88666 1271.90201 1252.87344 1081.15718 852.32810 825.30484 717.68038 515.94140 215.24361 15.35567 13.28462
16.37414 20.81477 221.51530 444.46142 416.95137 372.14701 380.67818 757.52877 1194.03552 1508.91591 1601.51236 1775.22086 1952.74073 2250.55394 2273.22766 2098.03547 1883.15416 1943.06330 2149.51975 2282.04148 2259.13237 1926.82179 2322.59670 2799.35141 3082.11844 3433.87754 3639.55375 3806.67476 3782.30075 4362.46767 4505.76217 4494.72536 4330.49329 4239.16271 4204.76335 4611.73361 4612.34431 4616.08186 4336.50959 4119.58405 4246.05374 4515.80419 4894.50368 5090.68928 4976.03734 4854.62821 5017.64482 5131.96297 5621.62278 6091.69546 6710.04771 7120.45227 7600.34522 7670.93552 7387.31896 6886.54827 6373.97662 5913.36077 5547.82773 5114.96146 4809.61073 4641.75230 4458.96002 4220.13914 4308.99469 4243.33968 4377.32776 4309.38388 4354.65927 4238.96906 4286.60918 4053.06493 3867.32537 3659.86666 3463.83727 3096.54112 2748.78496 2399.61209 2598.46831 2729.97475 2722.92720 2515.42807 2488.65957 2062.76241 1984.96307 1923.05867 1654.54744 1662.82140 1550.65604 1443.79329 1370.73624 1457.12045 1412.34320 1550.22833 1151.89258 1403.30697 1567.75472 1574.87000 1465.86421 1199.48592 1135.01194 940.24227 927.08816 734.37902 525.82897 404.27207 477.01667 811.85853 1023.79951 1303.83659 1614.85671 2126.43205 2343.22911 2654.96087 2972.70473 3422.24125 3894.98320 4372.87038 4430.87630 4466.89063 4518.56906 4520.60732 4609.00854 4568.90996 4754.53089 4762.62267 4927.41111 4869.57830 4829.60719 5090.52743 5283.36533 5400.20795 5710.58926 5908.11731 5844.99912 5788.57331 5550.76989 5594.90508 5828.32836 5772.91186 5632.09880 5191.63968 5356.62847 5048.23663 4832.48287 4950.15374 4871.70603 4908.40251 5046.25231 5355.95979 5646.22771 6348.26316 6722.92466 7318.43699 7217.78055 7006.94682 6666.55590 6106.42520 5867.10399 5396.97721 5156.26240 4787.60922 4340.60929 4170.82229 3843.27490 3921.59446 3803.02698 3615.89803 3460.69168 3081.48137 2862.46352 2870.54395 2724.73313 2417.94702 2309.39693 2066.68706 1918.42467 1903.56366 1839.08583 1980.30046 2426.67193 2452.16982 2169.49742 2250.59591 2349.61187 2523.98611 2932.92018 2856.57697 2566.94032 2189.39485 1828.65903 1367.83727 1074.73074 1029.15743 903.95198 664.22979 507.07175 401.71426 436.41908 461.79137 273.57531 18.77434 17.60134
11.27673 -11.50880 200.55726 534.96765 702.46864 696.72542 450.82861 545.91575 1003.00111 1257.74892 1287.02584 1245.33646 1595.94175 1880.74396 1942.00448 1891.71467 1572.31289 1549.93661 1851.41916 1867.00047 1731.25074 1757.01794 2405.66845 2822.72980 3097.57803 3157.19361 3258.66020 3247.61066 3779.75059 3985.69162 4099.80848 3989.54888 3889.80002 3705.05023 3929.24265 4124.81625 4097.89461 4241.49794 3998.48687 3749.68001 4052.16681 4474.05994 4675.35854 4638.42449 4569.97027 4733.93959 4882.68508 5155.04430 5648.68670 6094.30074 6556.10039 7113.66029 7455.48485 7685.78549 7354.97034 6991.90907 6522.82474 5933.21585 5594.68883 5243.94663 4984.91099 4795.51766 4632.70077 4450.27046 4533.95194 4719.93828 4797.27976 4933.41366 4820.87047 4715.19430 4607.36833 4269.61743 3993.54553 3670.87875 3211.20910 2861.20566 2674.18702 2712.32366 2968.37270 3256.33529 3264.24565 3137.41871 2890.14440 2564.99248 2338.07428 2334.63519 2340.32146 2140.45353 2106.82343 1826.63720 1623.04372 1370.49676 1295.99382 1210.87416 1033.53209 1105.02342 1294.68068 1142.11513 1048.31946 857.63515 736.51425 768.92606 586.57335 552.38851 415.99099 393.09480 526.67357 953.22441 1189.39318 1582.13005 2012.93520 2129.29240 2251.51850 2590.69029 2906.54461 3421.73619 3771.27847 4109.38027 4308.02883 4265.63703 4349.29732 4172.25640 4280.57481 4291.68892 4335.43086 4477.61749 4549.18461 4416.97137 4415.71615 4842.37178 4834.32761 5069.03836 5398.48672 5428.39937 5489.79731 5343.93106 5132.28518 5207.98172 5258.18044 5255.53860 5154.46962 4812.21477 4876.36157 4594.38490 4310.84966 4432.06092 4456.80007 4606.48889 4935.71892 5164.79798 5831.56122 6416.06911 6726.64978 7275.19203 7304.80779 7206.81362 6800.99585 6327.99968 5997.96351 5428.01608 5085.84624 4907.89867 4846.00721 4641.78675 4443.76603 4254.18673 4134.51902 4046.72697 3676.82731 3443.25425 3285.48376 3054.18948 2746.59488 2443.87791 2225.37631 2130.46255 2418.19672 2273.38224 2062.48720 1885.25258 1909.59709 1944.05303 1777.31042 1867.03954 1867.98681 2023.52197 2375.57821 2332.19173 2010.57733 1790.33063 1495.93030 1267.62015 974.48466 758.06257 553.31773 791.01309 709.79314 828.07288 914.24093 697.36674 503.68127 5.44682 4.76276
-15.77572 15.43964 403.43203 871.90940 1126.70438 1170.32897 895.20833 575.48708 740.06409 911.17674 785.14174 925.65756 1206.68268 1268.90576 1417.76691 1539.24869 1228.72071 1313.27128 1495.81369 1398.23598 1660.43171 2029.72422 2467.47881 2748.00583 2701.15649 2583.12413 2681.26337 2933.15618 3366.78715 3419.13229 3463.79624 3578.83280 3402.77842 3353.70544 3467.17381 3689.66325 3820.40236 3752.07127 3496.80386 3548.48967 4043.74042 4391.69149 4474.91889 4424.55664 4225.84417 4819.51457 5101.99188 5478.65654 5733.48592 5972.10446 6234.13405 7008.31523 7179.74665 7620.53610 7514.43355 7125.77270 6561.21305 6059.61139 5698.24866 5440.51590 5499.96749 5366.20660 5148.05891 4635.92933 4853.11294 5110.02847 5410.17441 5532.11916 5275.65443 5025.02802 4726.57389 4321.55491 3870.62101 3343.86140 2960.88679 2911.43840 2753.99305 2989.20377 3337.66846 3557.73783 3783.31390 3518.01880 3209.20383 2984.31077 2768.75397 2807.86248 2756.79483 2524.76847 2325.36001 2146.02541 1842.66511 1671.33605 1469.07437 1208.55025 1124.88734 1137.45639 968.59519 995.04748 1146.32182 1208.28597 1150.00940 1157.13718 1202.21675 852.62674 510.53264 386.60919 547.43970 1007.12207 1420.56152 1939.47383 2350.26972 2652.61503 2735.62860 3018.22273 3432.52852 3587.88174 3799.87233 3824.11578 3826.14440 3629.92419 3794.26292 3681.16357 3517.10562 3605.32465 3680.32802 3952.75634 4049.58462 3957.09672 3775.95995 3804.03401 4184.15107 4460.51440 4930.58648 5112.80104 4976.16187 4684.02468 4503.17804 4679.29261 4858.23160 5014.30407 4699.76696 4441.54849 4513.06636 4271.81778 4055.19198 4211.83111 4288.11841 4598.54764 4862.05802 5186.28017 5826.53596 6262.11788 6713.74567 7234.19838 7408.11150 7430.67697 6975.83014 6438.70861 6165.70338 5927.65623 5666.92294 5464.18934 5121.04309 5014.88753 4830.79684 4562.90492 4335.60613 4064.99117 3811.22079 3407.82499 3196.57872 3077.93058 2605.31191 2448.58976 2648.02921 2745.35801 2771.46393 2684.38329 2344.66302 1942.99017 1647.20740 1614.92375 1428.69778 1482.05892 1540.67174 1625.35072 1871.17653 1784.38156 1675.82434 1536.60045 1070.49034 921.55422 798.35605 860.23890 1170.04728 1200.28992 1381.43139 1325.69145 1326.88573 995.20593 613.56851 11.31995 -8.49878
0.93366 18.55326 496.25978 913.16100 1452.29003 1504.45696 1235.17829 1022.42338 744.61024 618.96569 712.96933 774.94114 833.93948 813.84475 1103.50416 1103.42110 1026.30827 1110.27935 1239.87531 1536.95526 1919.39480 2186.17216 2338.81066 2416.46783 2149.72882 2132.82612 2214.96476 2689.20544 2939.03847 2971.38840 3019.83754 3173.54398 2937.06383 2950.19378 3037.35441 3222.94546 3282.70100 3385.59250 3188.03656 3498.56179 3867.94822 4034.22052 4014.14013 3956.74841 4296.28543 4690.33136 5161.38996 5313.67995 5451.52861 5653.95797 5924.76648 6554.00027 7190.69232 7425.50982 7591.23539 7243.02363 6886.88345 6272.39501 6108.69521 6000.54061 5830.35485 5560.18909 5388.35413 5048.74087 4965.55174 5237.85566 5753.06444 5731.75368 5623.36407 5402.18436 4916.44395 4536.89469 3742.49370 3591.65777 3019.06660 3261.89162 3229.23636 3512.81055 3952.40159 4100.24408 4188.33892 4023.97231 3722.10751 3459.88839 3364.39428 3185.99131 2958.31442 2674.51829 2394.39942 2164.68015 1815.43240 1522.25960 1468.68967 1485.91385 1485.38809 1438.89599 1325.42786 1421.15376 1566.73483 1543.71738 1735.76844 1723.30511 1441.55127 1071.72862 598.28171 391.28437 465.79092 972.07151 1272.39465 2127.99895 2500.40774 2863.64542 3043.15288 3189.17643 3439.72623 3536.96661 3639.70995 3607.32891 3303.81860 3119.34137 3248.03036 3174.22600 2936.08916 3041.17787 3259.47030 3510.29676 3694.06383 3458.31704 3461.48595 3592.22012 3851.14764 4390.94974 4585.88389 4560.13792 4367.37536 4303.87395 4105.15174 4357.34348 4573.78513 4442.02990 4234.28591 4009.25404 4028.66686 3940.47400 3818.43082 4028.98077 4411.53640 4749.44127 5185.13662 5378.27013 5714.44812 6133.74810 6484.77075 7175.47636 7526.94106 7504.97727 7202.21822 6752.91897 6483.36981 6180.43480 5870.59692 5679.46574 5453.25614 5116.33642 4825.41042 4522.95206 4104.17581 3959.70594 3619.89236 3263.09975 3098.80969 2882.52538 2818.12631 3066.98019 3025.16269 3116.84045 3066.66655 2876.81460 2411.79024 1962.52506 1813.52500 1830.14828 1788.43707 1673.41907 1403.18723 1228.23441 1448.50805 1405.55018 1308.10056 986.45111 812.91654 885.49998 895.79798 1248.62913 1493.52031 1668.12799 1889.83481 1751.53311 1535.42371 988.85844 581.41399 18.28849 4.18678
-3.39897 10.42562 521.25464 955.27454 1563.31023 1862.91437 1882.65706 1618.77706 1251.79452 1183.10246 1183.97908 1030.65290 1112.44433 1241.24740 1389.88598 1127.61971 971.60425 1182.41246 1440.01290 1623.32146 1798.99679 1986.48523 1940.40113 1802.88150 1725.14807 1777.54085 1953.68899 2354.88979 2534.62269 2415.00468 2556.83572 2565.27948 2581.72782 2732.54997 2781.29059 2789.91752 2986.65905 3098.98455 3045.91684 3313.12081 3613.49136 3519.02146 3573.12277 3819.44901 4167.02739 4714.19435 4830.59590 4832.29155 5240.49751 5310.43985 5755.17927 6322.07750 6807.87648 7397.43092 7718.07619 7569.61619 7273.43988 6799.01163 6671.03426 6433.04109 6237.93993 5847.25396 5574.21594 5450.74715 5547.00950 6004.60483 6040.04256 5813.79698 5673.72534 5301.41597 4916.18580 4518.73011 4024.40522 3439.38286 3184.72947 3465.15274 3571.76060 3823.11455 4260.18434 4532.81813 4585.68877 4274.38271 4079.35027 3636.90316 3441.44905 3151.74874 2834.64386 2634.80610 2290.09913 1916.89047 1705.88870 1622.65128 1797.97718 1916.84024 1855.58628 1751.45491 1743.12096 1877.07975 2030.80940 2119.51510 2108.49754 1875.21131 1369.75629 1067.04602 548.42753 357.95293 465.05109 918.97369 1504.15185 1877.74724 2407.17713 2825.48486 2891.93080 3060.83535 2995.42963 3302.84258 3275.65484 2995.39700 2694.21012 2550.06321 2801.86342 2673.96658 2534.25420 2633.22853 2912.57115 3033.76140 2989.51551 2991.21546 2984.41509 3430.68256 3756.09885 4184.87175 4304.42348 4270.99976 3960.83538 3841.72609 3857.97871 4008.06471 4039.41574 3994.08089 3790.36530 3759.40624 3666.20561 3679.61563 3933.61280 4240.91502 4430.56427 4825.46246 5230.07155 5722.90206 6093.90152 6306.54671 6645.21043 7404.76242 7620.26823 7478.33490 7102.58652 6708.28151 6351.22898 6094.44347 5825.48865 5577.16180 5376.19796 4937.93833 4452.06826 4217.04454 3904.43065 4020.99275 3744.07403 3701.50205 3597.80512 3465.41335 3348.10034 3462.81941 3541.26863 3425.83746 3254.52232 2834.57660 2382.35685 1998.98897 2013.47362 2263.88586 2388.33853 2197.21578 1798.89342 1462.10307 1205.04617 1071.25755 1000.77076 971.50181 1159.31329 1182.06323 1342.65194 1580.65851 2011.45716 2118.83629 2178.84941 1889.56524 1469.96550 1048.68414 415.41930 4.14782 16.58520
18.73245 15.41153 457.57301 1099.21472 1582.90907 1980.54579 2126.54950 1971.30268 1814.93644 1603.53001 1853.15359 1715.55919 1504.61871 1608.29041 1902.79982 1729.51012 1186.85526 1216.23876 1365.47667 1395.42839 1512.57872 1562.10215 1585.84451 1714.80735 2014.51830 1984.93365 2075.93610 2094.78542 2042.77055 2169.60353 2361.84368 2483.28503 2605.38370 2580.82266 2649.60841 2945.66912 3416.36429 3507.58857 3450.22761 3305.62495 3346.38353 3595.34432 3658.26255 3786.44676 4208.46251 4419.60001 4468.01575 4813.83070 4984.85552 5198.19766 5637.09879 6225.57893 6959.22465 7429.88520 7804.01511 7949.78093 7772.44560 7555.44546 7242.02730 7053.76180 6534.74036 6269.00500 5978.55875 5766.35051 5834.99135 6092.56867 6109.69794 5860.35955 5397.61928 4856.49024 4592.85676 3968.75569 3726.71662 3427.89138 3605.94521 3748.72283 4109.38835 4269.73278 4696.50296 4914.70666 4882.44302 4343.03345 4079.05957 3589.19230 3220.13986 2783.03618 2560.12619 2427.83094 2563.50940 2370.49734 2186.59295 2011.46497 2182.73848 2202.32910 2451.58014 2302.34047 2241.32860 2349.44032 2501.95172 2508.10431 2351.37191 2015.83858 1422.01954 1051.07738 685.37536 345.15332 458.68792 798.52882 1435.90530 2035.84794 2316.03088 2545.97626 2533.97027 2359.29612 2398.00253 2734.54291 2576.29809 2455.51703 2135.81967 1973.37384 2154.99462 1994.34988 1994.92183 2288.70002 2536.88568 2436.81631 2530.88967 2535.43405 3027.77105 3325.09018 3726.74883 3786.25051 3812.10219 3772.44267 3382.80150 3316.71062 3577.87250 3702.27188 3648.26432 3455.10609 3418.05278 3560.49735 3725.17990 3853.99809 4058.82303 4361.07170 4717.48166 4946.49879 5466.57032 5796.86341 6278.63317 6758.01665 6979.62625 7524.74087 7791.36999 7651.40178 7178.35647 6695.60239 6316.27269 5792.08430 5630.37054 5277.76262 4938.66895 4778.05790 4288.19403 4213.40867 4269.19371 4260.69229 4335.69656 4245.93337 4100.81689 3952.06336 3896.12310 3899.67965 3749.69606 3513.84344 3123.32489 2604.39462 2244.55200 2387.82506 2466.88033 2670.12710 2783.29937 2472.55228 2021.71482 1595.60944 1387.22737 1456.49583 1342.21787 1420.44033 1346.21531 1538.93092 1873.15804 2023.77708 2408.00001 2526.32823 2422.92035 1830.29133 1370.14257 922.78438 358.38860 14.67073 4.94125
