18.25126 4.38266 366.21415 1098.40503 1661.73334 1916.56188 2276.67978 2685.43176 2743.00711 2598.13361 2512.48216 2441.98105 2114.42722 2025.00101 2345.81155 2470.61151 2331.76649 1950.41772 1500.23333 1676.23263 1450.30280 1342.84390 1708.38857 2369.98873 2499.57102 2528.81219 2524.92249 2225.75861 1884.07911 1159.38562 744.84245 618.32791 1055.05063 1694.35770 2242.26161 2645.79022 2744.05701 2946.13462 2687.14080 2301.22926 1834.68111 1697.02273 2008.79298 2091.08115 2407.17397 2482.26664 2280.80654 1821.68998 1501.08053 1476.54613 1766.16179 1855.71072 1590.46305 1143.17535 690.99669 580.68826 1055.07303 1530.88450 2070.29802 2471.93436 2748.85884 2600.28224 2394.12937 2648.43657 2952.28547 2684.93258 2164.93598 1769.47797 1302.48487 1128.52517 1183.31037 1654.25584 2168.59949 2466.57070 2594.44170 2251.08658 1857.53676 1503.45143 1056.97859 520.21117 561.06130 1032.03403 1492.88497 1887.21628 2380.42579 2784.74084 2934.16286 2775.87291 2408.50473 1923.12330 1683.34792 1669.30220 1721.89420 2003.22110 2623.84997 2876.56152 2862.47802 2720.51141 2348.84554 1810.90089 1287.72274 696.03648 467.96555 1034.97333 1484.40233 2169.80567 2569.04703 2736.47977 2843.48362 2822.40441 2634.84029 2326.19926 2006.11238 1848.17209 2185.93212 2733.85958 2721.58536 2600.61166 2294.04120 2237.70193 2116.72573 2036.65493 2102.03180 1601.45313 1161.47098 720.31987 488.50555 872.58837 1613.56529 2145.98866 2520.62322 2475.32574 2154.99202 1774.87243 2062.72366 2205.28797 2410.61047 2454.43192 2167.56368 1644.69048 1187.16743 740.32615 853.77467 1189.32793 1640.18079 2160.71417 2526.30643 2704.36703 2538.43386 2103.01787 2174.46268 2508.21458 2829.72193 2796.54139 2376.60352 1856.63273 1212.30295 1020.73758 683.73444 986.41264 1334.07840 1979.76244 2375.75305 2751.55931 2885.24339 2504.53853 2456.37343 2411.89391 2328.74495 1884.80953 1358.25234 904.28040 1033.17976 1457.78694 1961.80699 1974.76305 1792.60201 1401.73603 1378.31508 1750.67440 2320.44551 2597.67929 2716.07894 2745.86353 2584.23004 2120.47894 1650.05729 1353.20337 1740.99900 2252.85589 2693.71242 2866.10186 2819.86972 2660.22753 2717.22241 2615.59406 2361.41972 2041.94609 1593.17051 1024.25613 486.00012 23.54887 3.67664
3.99357 5.95946 328.42649 768.05671 1198.01617 1600.64682 2195.52002 2577.18491 2929.23164 2938.52951 3006.67453 3034.57420 2709.59362 2371.68902 2629.55163 2752.93877 2569.52575 2236.13567 1820.38915 1984.60269 1769.23494 1533.96974 1931.50647 2420.09029 2875.87267 2831.51029 2554.94187 2213.34039 1718.38940 1294.24474 838.06585 584.18641 1029.75155 1632.77842 2032.70513 2550.73772 2853.96829 3175.53924 2980.62003 2704.34891 2374.47371 2302.69442 2288.44808 2768.86399 2898.42430 2757.38490 2543.99712 1928.61713 1586.07577 1475.85246 2003.59838 2084.90816 1897.36631 1325.80008 910.86876 530.38603 778.17951 1245.04691 1975.08778 2271.19161 2799.00625 2941.25241 3315.41516 3179.89297 3140.89816 2813.48427 2249.05619 1857.08418 1640.57152 1428.06221 1206.09570 1644.30863 2240.83915 2639.02636 2862.59769 2776.69641 2100.39784 1649.11666 1272.50199 737.70365 714.53840 868.78445 1579.30416 1899.56733 2459.87599 2722.23199 3156.16047 3171.11858 2584.22365 2312.05817 2281.07217 2144.12479 2139.65894 2230.82057 2633.56919 3038.22560 3097.90361 2850.68826 2257.86540 1723.27304 1256.73378 801.75978 503.01865 973.86536 1712.34397 2213.68206 2733.99673 3095.84110 3273.09406 3305.05797 3024.79606 2992.66345 2533.71175 2166.90646 2378.76377 2890.30355 3206.56177 2913.09525 2554.33170 2538.52800 2675.48139 2471.78157 2282.04767 1917.34408 1040.03182 621.09768 685.42500 1001.14944 1755.88140 2159.79582 2580.01623 2647.31878 2245.13412 2099.22949 2558.78492 2712.52463 2706.11536 2561.37891 2246.78200 1737.66811 1322.68632 660.65674 734.64421 1211.10523 1870.51378 2106.69786 2549.70104 2792.71847 2775.73899 2567.42059 2443.27724 2818.57798 3080.98075 3002.98244 2555.70264 2014.46663 1683.97852 1312.20637 778.38005 962.87086 1364.61235 1911.47733 2399.20330 2725.21730 2993.97624 3072.39002 2908.99622 2820.35180 2463.23938 1966.41598 1503.64284 1085.85174 1060.87430 1363.07899 2164.79780 2381.91254 2252.97693 1972.29677 1779.15326 1915.92637 2336.65694 2814.63437 3033.57315 2988.06582 2777.80565 2227.87389 1797.88310 1538.28194 1863.51520 2389.76426 2758.33220 3200.69190 3315.30540 3089.11865 2877.36205 2621.42929 2178.65266 1805.73490 1485.07328 921.21537 398.15375 20.31672 19.07693
-1.15442 13.11173 452.72256 1008.30084 1211.09807 1695.68173 1932.57440 2571.03112 2978.53387 3285.38722 3392.15638 3331.99672 3124.94084 2668.49744 2937.70809 3040.46233 2786.34194 2295.21270 2190.68511 2390.33781 2186.38533 1771.93012 2172.00945 2665.75320 3023.27936 2827.91899 2398.85899 1995.63305 1544.67771 1316.03503 1067.27963 687.12210 885.93654 1353.60126 1940.27115 2405.24196 2809.14427 3207.26750 3271.63074 3094.14488 2678.87795 2787.48086 2779.46639 3104.81801 3211.45966 3101.29546 2622.84401 2108.59746 1703.83807 1693.50439 2076.93685 2199.79680 1895.39817 1480.55077 908.16589 601.76654 928.22830 1373.68583 1672.13690 2105.99024 2641.81589 3167.51875 3443.32205 3499.05700 3314.26103 2814.34030 2675.89465 2412.55984 2026.76431 1745.26637 1470.95061 1787.92040 2302.07150 2738.62972 3015.37676 2919.15445 2500.37738 1906.87153 1126.62388 757.48858 794.00584 1115.62459 1461.03733 1924.77401 2498.94119 3005.54011 3326.43621 3309.71262 3023.83971 2766.67020 2739.77078 2767.35400 2645.26618 2741.39202 2838.86113 3250.78097 3124.76911 2782.25551 2114.96288 1657.56154 1143.93457 681.35829 566.90959 1320.25423 1691.89495 2267.25588 2801.40204 3149.18389 3410.68810 3530.90607 3441.13303 3254.17514 2982.88406 2576.81146 2655.72738 3155.78486 3442.10311 3290.65118 2910.55762 2924.72915 3096.23152 2770.09297 2414.63987 1793.82322 1393.81959 686.03672 929.00706 1330.91161 1737.99299 2122.90139 2450.47788 2837.15451 2643.60009 2460.81460 2781.52934 2929.65924 2909.75311 2504.54202 1984.63458 1441.59882 1167.56843 719.57581 622.28629 977.11430 1433.01374 1965.30804 2418.25612 2720.76252 2964.76873 3006.41664 2968.97884 3117.06584 3352.14443 3323.80748 2788.37844 2417.64128 1827.27559 1469.15733 1007.20036 856.51142 1329.69037 1716.03098 2239.52081 2668.47294 3075.54368 3355.40311 3253.95460 3014.03085 2610.49829 2136.51976 1596.26721 1306.97551 1278.40923 1770.88243 2101.21487 2521.71908 2526.54545 2183.14345 1856.40230 2052.27671 2416.73847 3134.61684 3351.14880 3170.61674 2932.50028 2389.80771 1949.93088 1809.78376 1874.16066 2657.82593 3012.57966 3422.12796 3642.95434 3359.20304 3004.22041 2569.94637 2181.89566 1807.06167 1094.57948 789.34665 440.11496 4.81795 27.41274
10.35894 14.39625 511.89439 994.02257 1353.19401 1792.28753 2066.59577 2430.43504 3032.84780 3469.71219 3699.55226 3699.54127 3464.11638 3197.28046 3330.05207 3356.26427 3015.46615 2629.80135 2566.05290 2676.74949 2370.98551 2045.90812 2673.06159 3005.49734 3219.06342 2904.17115 2379.26219 2042.15079 1518.25231 1409.74272 1365.40116 980.90729 804.40631 1251.71322 1707.77682 2047.22012 2700.55792 2998.39661 3427.71730 3566.02425 3531.66723 3325.99114 3358.21172 3403.79839 3508.79150 3231.37191 2619.43175 2223.03047 2131.21472 2034.06853 2084.41731 2279.30477 2069.67574 1419.96510 963.99916 705.35933 912.65658 1285.25332 1712.57410 2225.78660 2630.56874 3178.37572 3604.35893 3784.06819 3550.36015 3370.78158 3067.99712 2711.85141 2379.27459 1758.73827 1884.16844 1954.77156 2423.81445 2832.52967 3145.86169 2943.79714 2620.74823 1798.23909 1219.05122 830.97781 675.76327 1089.11972 1480.79675 2005.15182 2549.30488 2912.60085 3336.39007 3533.50700 3304.73251 3108.55827 3108.52079 3109.75393 3224.48260 3084.79466 3343.13331 3369.36458 3196.37135 2848.83743 2011.12080 1600.86099 1176.51587 722.83727 484.60550 1008.37440 1553.39053 2010.72708 2337.47580 2803.40433 3389.54003 3577.94873 3831.44293 3745.87449 3432.42313 2937.25332 2908.63495 3312.13171 3731.10055 3680.99025 3538.82083 3512.15463 3302.58911 2866.71329 2482.79911 1818.78680 1449.40755 836.44750 917.83803 1339.10328 1637.64493 2161.34611 2537.39163 2997.98868 3009.47107 2886.55151 3045.21508 3142.50429 3008.39321 2351.69114 1928.27345 1601.89147 1111.59865 1120.61469 866.15994 887.10393 1373.84099 1813.00739 2179.88812 2675.87094 3067.93642 3294.70451 3321.19780 3494.00218 3653.40262 3542.84530 3016.47172 2639.89019 2058.53862 1678.01427 1101.84095 813.42457 1257.57033 1719.81227 2153.03871 2544.21601 3287.22940 3532.54304 3511.51479 3080.27781 2686.49829 2181.56786 1897.83077 1824.18498 1307.01241 1543.72634 2081.49802 2514.33463 2625.37049 2249.18872 2173.38653 2400.35054 2877.39264 3278.97993 3608.37596 3363.72945 3291.57688 2798.59433 2173.83081 2139.10236 2312.52767 2632.77587 3233.47579 3601.04120 3777.02547 3564.28907 3028.55742 2562.78686 2221.11513 1798.11203 1288.73578 817.64292 467.15251 13.16857 14.02548
16.87879 18.50242 380.54358 820.30814 996.71660 1634.18026 1921.73121 2532.36818 2985.99141 3555.51731 3809.34290 4077.37705 3905.33427 3626.48762 3781.37826 3599.37888 3210.66153 2733.76553 2706.36801 2829.23183 2592.26241 2334.14062 2860.64482 3203.15093 3392.67308 3095.48454 2764.81256 2173.40895 1761.22678 1772.77469 1767.41142 1457.80320 1018.41014 1087.06486 1380.41352 1799.12174 2277.76995 2891.99527 3321.57159 3789.69589 3928.05304 3776.05544 3905.37096 3895.18621 3752.71401 3359.00273 2890.42632 2764.14315 2592.96058 2371.15797 2228.59517 2417.24165 2052.44738 1664.97756 1283.45994 971.93046 1019.88573 1387.35911 1892.62019 2269.66889 2749.45971 3189.97373 3661.59381 3951.48519 3892.50304 3682.97070 3418.51763 2872.96580 2354.86630 1979.64933 2216.85696 2315.40563 2588.27784 3144.71177 3303.23670 3067.03937 2613.73228 1875.73479 1489.16783 995.70736 650.45340 967.90768 1270.05586 1820.83232 2162.93414 2702.55306 3119.17120 3681.28258 3717.09057 3812.68299 3663.91903 3487.92714 3488.21440 3700.28610 3651.23295 3581.73324 3204.05081 2521.45045 2024.95818 1679.82504 1294.67034 1102.77274 562.84148 930.22535 1353.78403 1744.73694 2329.65745 2769.08575 3241.72563 3774.03344 3990.44718 3917.47723 3673.45499 3583.74823 3423.05342 3754.40119 3980.80626 3976.73725 3607.69147 3565.69086 3364.89271 2604.63341 2495.60149 1823.50042 1449.82011 923.95836 967.69056 1172.30137 1504.40328 2242.48130 2638.80328 3084.50883 3326.47519 3293.01327 3370.09810 3263.26154 2940.28427 2262.82154 1848.86758 1516.46188 1413.59763 1442.00427 1116.80548 777.86120 1061.39621 1613.52680 1956.24754 2500.33074 2796.04891 3204.91514 3595.92672 3925.49609 3977.89117 3551.01419 3278.13233 2453.30202 2037.51995 1484.43717 1123.46352 923.59600 1355.91628 1914.43598 2196.70877 2867.41312 3315.21559 3683.22390 3775.90530 3472.90843 3005.14372 2558.99917 2368.93164 1907.83871 1593.90857 1495.36965 1925.27662 2709.78276 2807.66126 2554.08700 2369.19927 2693.17290 3218.66858 3521.99954 3852.84129 3601.41879 3421.69920 2856.49923 2854.08689 2706.80560 2701.28144 2957.97970 3480.51393 3778.34670 3782.16438 3520.65446 3014.42315 2503.46186 1924.29971 1751.32494 1333.99569 704.56182 406.11865 15.41419 8.70810
3.33555 7.07366 449.33978 794.08268 1249.09727 1501.99357 1797.72770 2413.25402 2906.98417 3395.00050 3954.71940 4211.62990 4402.11820 4323.36916 4173.08816 3950.95483 3415.66734 3109.77322 3421.90033 3274.88032 2823.17967 2628.00380 3010.86097 3344.09840 3578.42212 3389.60336 2868.92725 2640.35169 2257.20989 2150.85826 2101.32302 1781.56746 1157.12463 1056.87516 1416.44618 1850.17550 2385.92331 2685.76137 3389.44299 3832.59503 4220.71246 4336.41908 4394.01603 4251.22350 3924.35814 3373.09224 3216.12329 3099.91930 2816.93226 2490.03103 2618.27818 2682.51575 2178.33862 1784.26820 1370.26775 986.72275 949.65989 1429.25636 1760.11536 2110.14470 2645.94074 3071.73650 3537.60984 3985.65159 4090.35114 3803.12099 3461.41965 2707.77417 2472.93765 2104.59365 2376.22531 2760.27952 3188.01372 3300.67735 3355.09930 3016.83636 2518.82879 1832.07859 1443.16091 959.91250 819.33466 1006.82569 1197.56244 1597.68348 2041.32549 2481.38430 2919.13313 3513.30907 4036.37987 4349.18960 4205.88738 4124.90090 4041.32728 4061.99553 3910.37278 3522.66333 3110.10182 2552.11952 1913.18455 1522.11756 1149.03492 978.94152 648.86712 913.68688 1348.71283 1975.27164 2444.56228 2922.26954 3175.02203 3511.15424 3965.99886 4014.96005 4127.38470 4087.50806 4017.88169 4230.81569 4400.66604 4294.05568 4088.83979 3598.63192 3149.11759 2584.99778 2326.31067 1755.75934 1217.78617 997.03705 1233.96954 1525.60491 1784.07469 2123.11843 2803.93732 3367.23390 3596.38583 3595.75599 3659.35418 3407.42954 2963.64105 2402.54095 1994.49611 1815.18300 1752.40838 1749.09143 1336.39408 928.23921 1014.02864 1298.73908 1699.70593 1986.82505 2437.07132 2898.11742 3526.26091 4031.06815 4072.63090 3730.56103 3250.79553 2584.34912 2182.39120 1748.83185 1229.99354 1031.05778 1628.72453 1941.32919 2533.32656 2999.96232 3532.26468 3841.72235 4009.16885 3875.14713 3275.73598 2990.64844 2675.33690 2254.00437 1819.94222 1579.98513 2150.98315 2734.72992 3018.23554 2920.66158 2928.56310 2756.08864 3149.01540 3507.20390 3993.35276 3974.12062 3541.21570 3267.32931 3078.69039 3025.28486 3251.19833 3298.93856 3719.09122 3934.95311 3776.05647 3376.18729 2866.46789 2147.03795 1729.04772 1606.47650 1174.42126 730.84549 416.25275 -3.00445 9.47392
3.83037 9.90104 615.51033 962.19865 1411.94885 1907.05881 2245.12412 2649.83375 2770.09785 3460.03028 3832.17613 4235.87289 4457.42778 4518.87661 4494.05829 4277.93256 3596.01952 3556.25260 3780.37792 3639.20919 3456.09884 2993.79277 3133.50991 3497.97701 3811.66973 3555.62144 3205.48416 2952.81205 2586.55747 2573.45911 2269.30927 1840.88307 1296.52453 1058.96862 1251.30778 1746.49383 2337.88455 2728.94429 3417.05974 3722.44003 4201.25281 4436.67921 4598.04344 4529.30586 4090.37826 3795.16700 3720.04416 3390.29853 3002.10839 2910.55131 2989.62260 2780.13874 2418.94615 1853.06627 1502.38705 1113.08626 856.85653 1217.29143 1590.06776 2027.52498 2428.67167 2836.35143 3306.47721 3800.23180 4087.73586 3939.06135 3485.41510 2942.09368 2519.68669 2386.41748 2549.72366 2886.21820 3447.93236 3582.12053 3432.69727 2919.12341 2354.41844 1669.55230 1282.26215 826.80188 900.88273 1358.62819 1746.93968 1685.91728 1943.76517 2415.64385 3097.46334 3592.76071 4157.25283 4414.72461 4646.79171 4544.52984 4356.39369 4111.17641 3825.39716 3439.75891 3135.87869 2574.38412 2089.96945 1497.49903 1056.99093 683.48508 698.22376 1065.80448 1530.76447 1873.26703 2273.83722 2560.73888 2892.30152 3316.96192 3482.55513 3943.62471 4188.44104 4425.03971 4515.10139 4428.97914 4378.67411 3977.89751 3896.14580 3509.48826 3103.67751 2237.92924 1990.69037 1587.11236 1056.80176 1211.64036 1457.93096 1779.65866 2074.46780 2427.38796 2846.77345 3408.52787 3748.29542 3997.26813 3787.26685 3681.04829 3402.98507 2487.71998 2258.09031 2196.91432 2289.14581 2025.60237 1647.87253 1321.81707 1094.37175 1322.74863 1640.18472 1954.26819 2532.46612 2979.06248 3568.91931 3971.19122 4068.05563 3757.84898 3323.66089 2559.71679 2369.13137 1600.77224 1312.51020 1207.01052 1787.42597 2130.62046 2626.52225 3157.06160 3527.76801 4081.57957 4342.58112 4160.53476 3652.20013 3373.26803 2901.57987 2254.85542 1805.40029 1849.29839 2424.08447 2927.41390 3317.83413 3374.97669 3339.48661 3268.81089 3243.65725 3624.11616 3916.88468 4168.33852 4038.87093 3833.27713 3787.21989 3728.48173 3771.13656 4043.66106 4164.38144 4050.67942 3590.96342 3106.15345 2634.46513 2136.72146 1985.14943 1625.26327 1129.94799 918.38301 463.04948 8.49086 7.42063
5.64741 -3.83076 549.50541 1095.47246 1613.26884 1886.71810 2306.12103 2685.85118 2961.73354 3247.17158 3786.20928 4043.99954 4194.97888 4591.48685 4624.14860 4493.01628 4173.29508 4022.82534 4092.48968 3934.65924 3529.41862 3347.62994 3528.34121 3804.57069 4068.67429 3976.93150 3740.47825 3286.83044 3047.26744 2848.54286 2437.73951 2107.11111 1676.94912 1152.68781 1334.82206 1656.97644 2143.27270 2583.94877 3099.04992 3525.02851 3869.30283 4451.79433 4654.96929 4763.90059 4534.21952 4284.20780 3952.04934 3455.29694 3169.71590 3259.45595 3249.13654 3001.24428 2549.52047 2108.57002 1817.40193 1530.26262 1058.06185 1012.72243 1390.71362 1557.28077 1913.04969 2549.88787 2878.79058 3619.19725 3968.06607 3983.62375 3645.91748 3188.22477 2954.87303 2866.09183 2761.04498 3222.98411 3557.41903 3721.96095 3461.06558 2890.92921 2417.65808 1750.69377 1449.67304 1121.53162 1146.51105 1447.99854 1927.07101 2072.87368 2327.68913 2852.38508 2935.51265 3489.93018 4165.81481 4571.18222 4791.07536 4734.47348 4421.43109 3887.78548 3619.93949 3159.84233 2812.36853 2412.76218 2196.66410 1656.95657 1102.38925 847.72546 763.19695 927.93744 1266.38504 1668.84688 1724.28456 2190.63140 2379.50736 2699.46975 3119.77087 3585.92348 4138.90446 4454.77690 4746.01336 4565.96879 4206.41122 3828.24589 3493.29155 3151.10907 2831.06189 2279.31242 1728.66416 1283.05915 1023.56234 1203.49014 1660.86891 2004.07648 2408.58676 2824.39407 3209.23370 3674.64695 4145.49705 4326.10591 4282.47508 3950.95975 3218.64484 2760.40551 2645.61955 2545.58717 2546.39086 2285.57783 1960.33365 1259.03057 1072.72111 1524.46599 1894.08430 2122.99255 2681.41759 3060.32012 3651.69860 4018.23966 4053.99089 3592.19389 3235.54614 2722.42562 2173.90349 1721.37829 1272.14753 1472.50390 1768.86802 2301.82433 2622.34137 3191.97235 3647.67893 4220.35643 4556.76256 4461.99457 4082.52473 3347.29595 2806.54667 2258.62222 1923.63331 2076.28186 2485.71210 2996.40523 3455.95627 3755.81270 3928.30435 3568.61941 3576.30321 3812.21711 4213.58382 4406.56700 4272.02852 4231.64987 4126.43838 4013.34918 4206.95544 4297.90640 4265.86521 4068.32109 3655.60279 3190.13229 2604.19266 2212.92193 2058.31359 1696.77528 1279.20076 984.17163 473.53901 13.48767 -15.02949
8.49304 6.33494 450.03649 963.97843 1374.82158 1747.44105 2011.02547 2329.87229 2583.70750 3083.59576 3391.61935 3555.44968 3884.44072 4427.25067 4737.39081 4808.05681 4625.90375 4608.50555 4526.91972 4156.93702 3892.09074 3744.52869 3833.68440 4156.66693 4337.58469 4267.93092 4009.29366 3564.82645 3372.16184 2992.72191 2558.23827 2086.62891 1741.86529 1266.34502 1488.96817 1806.48284 1939.97548 2301.48945 2705.51715 3032.98028 3466.61505 4228.36073 4757.77242 5030.58852 4813.14849 4671.54167 4204.16574 3699.81404 3750.36408 3688.42847 3621.13388 3324.01241 2803.85093 2476.46430 2145.42670 1701.69795 1404.92704 981.76068 1326.00751 1757.89358 2126.35211 2405.24741 2854.32164 3397.97237 3948.80404 4148.22128 3975.11420 3676.21336 3301.30313 3112.06220 3176.50256 3644.96548 3826.50184 3776.01132 3459.30159 2797.04231 2565.62286 2012.24434 1699.85783 1332.03145 897.91607 1444.09250 1875.06835 2125.27764 2582.58454 2889.82185 3285.70470 3697.68385 4226.67165 4622.45045 4793.20105 4552.92967 4160.93634 3556.73832 3306.12741 3058.71914 2478.95558 2165.55131 1968.73041 1631.72017 1206.06327 1026.09865 755.12569 940.52421 1086.90588 1344.78936 1465.29445 1738.62915 2027.99066 2463.00075 2850.17233 3468.96862 3880.19015 4532.29815 4779.46509 4405.66892 3983.08478 3541.19216 3129.20207 2799.01966 2417.43122 2017.22724 1638.30765 1535.90152 1442.90843 1164.46340 1533.97927 2094.34569 2499.40951 3005.33529 3327.15686 3701.30188 4149.10620 4354.45174 4351.64136 3904.82620 3602.96295 3291.25928 3064.13366 3000.47234 2664.47859 2273.63445 1806.06037 1577.45595 1148.41845 1352.95433 1786.89768 2203.58897 2602.09334 3084.52612 3601.49108 3889.51005 4119.62276 3895.65032 3300.60850 2956.76287 2492.31149 1962.25638 1433.37436 1562.87126 1865.63917 2354.83279 2765.73733 3351.89765 3711.22961 4237.28562 4560.49539 4495.70038 4037.92010 3538.14168 2946.49082 2461.31153 2357.54359 2151.18865 2627.08286 2950.25952 3676.17362 3870.84967 4259.04670 4165.96379 4120.50002 4123.79369 4408.64853 4822.81983 4866.18367 4679.77653 4635.08598 4540.18949 4610.36029 4475.99106 4274.04176 3847.99326 3556.68615 3142.90226 2354.03559 1955.30455 1676.36664 1495.41338 1129.06658 728.34938 515.81804 30.18045 27.39049
13.22416 13.31082 278.66467 761.71951 1122.08923 1401.41561 1543.93455 2024.33444 2146.88013 2605.43594 2916.91326 3223.33050 3686.75141 4292.73284 4694.56128 4959.46299 4940.60091 5000.09176 4815.83959 4527.44598 4410.89943 4444.44034 4482.01614 4643.45217 4691.68860 4414.26099 4031.43522 3686.26106 3307.57519 2919.83922 2373.13895 1992.15513 1575.69394 1292.03023 1672.96040 2026.45954 2217.83761 2604.67471 2835.38498 3313.12658 3810.76987 4248.32587 4775.06686 5275.43578 5170.50102 5082.87934 4656.48488 4195.04248 3967.87026 4110.74488 3910.45800 3555.95379 3078.59959 2669.81091 2251.92771 1843.83726 1209.57100 1159.94037 1467.09457 2019.16710 2461.19021 2631.97578 3096.33621 3432.84015 3993.43194 4269.26257 4128.43678 4041.53696 3645.08454 3605.81194 3435.08770 3721.66511 4063.73622 3891.99388 3487.43298 2996.08029 2324.71421 2017.43266 1597.69121 1392.58383 995.31609 1120.57703 1536.44677 1999.96733 2451.56923 2959.06026 3465.10308 3819.24256 4249.45578 4693.22596 4807.21995 4465.78562 3882.33067 3476.65142 3027.87406 2485.96733 2117.93768 1766.56233 1665.41544 1280.35253 1335.03447 1305.75057 946.82877 1133.63266 1471.02597 1658.50994 1735.47910 1808.98871 2106.23224 2392.57732 3068.04293 3599.56688 4099.39972 4519.70929 4780.62741 4584.68579 4039.37642 3411.64319 2961.38349 2648.65750 2252.86554 1928.21077 1791.71598 1725.23268 1500.64514 1166.38289 1325.72246 1981.88305 2374.68414 2781.25312 3085.38269 3545.35877 3976.26880 4137.99344 4390.52896 4090.94708 3969.96469 3740.33160 3436.05131 3343.04325 2955.33717 2638.69300 2157.24924 1757.01699 1455.16685 1323.11013 1604.33998 1969.50087 2400.07409 2822.17872 3237.34690 3852.64972 4160.23661 3936.49024 3309.63770 2802.62657 2444.71365 1842.65952 1510.19692 1561.77758 1752.06062 2347.00965 2765.77188 3281.00078 3672.25357 4037.52091 4480.86334 4561.74000 4136.59431 3504.42426 3058.23155 2726.92498 2521.67018 2235.69508 2599.84897 3041.80098 3666.15117 3995.88224 4514.97716 4567.95546 4471.98446 4552.04466 4665.06614 5069.94317 5191.56888 5290.13378 5135.48905 4918.35134 4781.42409 4447.54949 4132.98781 3515.31892 3308.08583 2868.15243 2251.37129 2028.53804 1563.46348 1191.10454 1020.09677 610.52170 382.10225 13.11363 20.86376
8.83476 12.62681 317.02887 679.23818 829.85107 1296.41601 1699.12922 1963.17172 2346.52301 2620.67176 2975.98675 3465.16245 3700.13294 4225.98525 4587.78108 4827.68244 4953.85562 5045.58692 5090.32055 4994.95983 4994.18565 5070.88337 4841.20502 4865.26986 4809.10484 4586.80280 3898.88602 3404.15925 3067.22359 2597.98453 2063.55422 1742.98385 1402.35401 1309.45139 1619.21669 1989.93302 2495.83927 2778.57298 3143.14252 3418.33278 4051.55083 4440.03030 4851.56252 5339.68665 5451.03048 5342.06267 4856.59697 4529.79955 4458.23854 4363.60813 4002.41300 3431.67347 3021.30452 2609.07783 2122.02091 1736.43394 1174.90871 1280.39539 1348.20960 2065.05264 2354.71841 2684.36214 3309.30489 3635.02324 4058.55183 4627.90649 4676.46462 4461.46750 4175.42475 4041.84569 3893.49707 4212.73886 4304.25083 4053.60354 3506.71519 3141.25874 2239.65386 1974.13464 1715.48024 1173.36569 1037.89552 1334.74436 1525.10442 1913.31036 2307.22588 2848.03207 3228.17663 3708.59529 4442.18929 4676.79354 4778.86237 4357.46420 3912.28426 3260.82643 2955.17957 2641.88654 2388.42246 2104.12502 1620.87999 1350.78351 1534.54693 1412.35219 1036.19026 1174.52900 1579.62651 2012.34919 2183.36366 2173.08294 2266.73369 2490.58444 3113.41713 3686.23153 4272.01029 4653.35563 4891.06648 4754.07737 4277.84269 3799.61562 3341.08815 2830.36624 2572.99923 2136.86704 1993.87934 1735.92395 1547.12818 1375.27506 1472.18872 1764.33839 1978.15563 2304.31011 2805.29818 3161.37944 3650.35974 3999.82313 4557.49478 4610.18462 4427.83441 4187.91317 3773.23006 3408.17433 3192.21896 2885.22876 2373.68479 2032.15053 1274.10317 1569.61481 1918.59273 2228.58676 2391.56753 2945.31330 3329.16206 3934.60720 4145.15571 3904.44519 3368.75860 2956.80489 2470.96566 1891.41468 1622.81503 1490.96395 1805.44513 2035.39513 2624.77359 3054.54490 3405.66554 4012.92915 4516.83194 4504.25962 4291.79102 3801.36612 3442.54156 3089.46002 2710.58705 2458.93932 2644.03429 2931.60396 3678.36390 4119.42117 4441.55809 4868.97613 4923.76969 5100.13109 5216.39204 5395.55314 5496.36250 5420.40777 5219.84440 4896.76873 4760.14895 4141.98803 3918.69139 3444.03408 3149.43197 3020.32233 2639.74285 2446.45060 2077.84054 1689.98209 1314.57807 931.40580 339.97338 15.96356 11.66313
5.88407 8.06193 518.45703 968.44718 1242.00092 1629.36612 1840.91762 2454.07486 2612.00402 2964.74063 3284.77645 3468.02624 3751.95591 4091.92893 4322.14152 4429.73812 4483.71388 4660.81992 4984.08995 5146.08203 5177.61480 5333.92510 5346.63262 5286.88637 5036.04754 4528.47931 3840.91436 3369.96047 2773.87197 2481.42351 2109.57491 1709.32962 1744.27446 1723.53284 1556.22463 1765.71250 2286.35943 2629.37334 3085.05678 3510.00388 4065.33236 4275.82184 4772.61729 5328.32885 5488.99872 5547.68161 5277.91459 4939.67531 4701.38341 4378.34596 3887.67287 3403.12160 2870.52075 2311.98766 1965.12217 1391.50095 1145.74103 1451.27218 1808.04986 1959.56143 2312.92966 2704.27495 3150.28942 3786.87906 4290.20061 4830.22752 5050.57401 4941.62779 4528.76596 4415.49916 4420.24735 4456.45578 4449.77503 4065.90875 3718.01482 3095.69272 2766.47021 2044.63231 1579.25968 1186.73275 1508.89372 1713.01875 1890.30385 1942.99822 2347.48309 2668.71968 3190.09888 3707.88578 4097.63832 4583.64849 4881.05262 4560.90099 4154.83875 3670.80758 3314.56838 2829.16819 2391.97040 1965.25820 1685.00864 1491.85643 1747.78201 1490.22047 1078.45000 1217.96407 1547.22166 2188.65659 2479.59747 2673.81152 2657.87578 2849.04579 3274.52933 3801.78845 4124.57570 4703.70587 5028.21460 4964.29546 4497.19212 4001.59249 3622.48311 3029.84318 2651.54440 2384.13548 2135.30917 1816.23929 1865.17951 1837.79460 1698.00983 1387.95983 1664.09389 2220.18195 2445.88740 2911.84951 3399.06636 4093.73095 4521.28579 4811.47386 4597.00520 4084.27235 3677.11711 3395.85725 3003.51109 2768.93265 2313.94697 2046.21743 1424.93589 1474.62993 2140.04249 2525.09791 2715.19533 3310.86291 3743.82132 4168.11855 4261.41747 4081.97411 3612.38775 3032.97368 2511.66117 2107.53870 1646.19516 1700.74780 2007.12054 2090.84470 2607.03788 3028.86207 3655.56141 3972.80861 4545.96164 4732.22861 4563.63938 4205.37837 3571.13162 3298.03953 2648.88377 2498.02169 2720.04636 2977.04389 3343.73430 3969.95531 4410.72124 4959.04505 5312.29638 5535.78381 5598.95412 5767.53418 5648.02377 5347.61876 4763.76050 4553.28275 4173.05840 3791.43836 3591.57087 3321.00275 3060.36830 2949.00147 2874.38354 2651.25624 2238.01645 1972.33903 1466.47220 1050.81850 495.04700 9.89913 18.26376
16.92202 10.52728 393.17959 975.10488 1216.44677 1802.00030 2199.77016 2734.15896 2944.48606 3080.13471 3383.47290 3471.83864 3623.53155 3761.29258 3876.72770 3996.73245 4080.18074 4230.82450 4511.17195 4883.95181 5127.18328 5433.84979 5610.65384 5442.92338 5022.43431 4524.71943 3915.11266 3472.21703 2864.35214 2400.97532 2037.44873 1774.56147 2061.65372 1989.81722 1793.14603 1618.19333 1942.54746 2516.23790 2990.59598 3363.09252 3897.22349 4348.68835 4719.76733 5089.77049 5441.63139 5556.20087 5528.52418 5212.08941 4887.73634 4393.47313 3667.89442 3290.68416 2716.00932 2392.06582 2098.22361 1758.78652 1259.60834 1746.93891 1988.83822 2121.75839 2366.58774 2700.01216 3133.11612 3642.40164 4403.87330 4861.60112 5277.80892 5270.08320 5233.39641 4934.85817 4790.17361 4624.89506 4524.34594 3901.65290 3660.69024 3115.34301 2695.17481 2071.39244 1701.84194 1223.27481 1479.54369 1794.71365 2375.74102 2460.24440 2520.54246 2601.31553 3473.75659 3664.85248 4188.07641 4845.71569 4909.47117 4715.44129 4333.44785 3673.62358 3324.87468 2852.23043 2301.51730 2049.34615 1862.71934 1612.23484 1807.39794 1640.71229 1230.99994 1402.35567 1857.85497 2184.06090 2625.80144 2974.91347 3169.62777 3037.77912 3316.74354 3975.39963 4399.74280 4669.76341 5163.57986 5085.30231 4781.00973 4178.12633 3553.51377 3184.03488 3029.35864 2675.11990 2381.63319 2241.20637 2291.32888 2174.55526 1832.10546 1567.36141 1969.58882 2139.82421 2429.33499 2946.01329 3665.49334 4187.90721 4699.33981 4904.02961 4598.98694 4176.07106 3614.76494 3154.13073 2661.54641 2520.21249 1996.60047 1658.44534 1418.23166 1610.35859 2109.72359 2555.77312 3016.04892 3305.83607 3870.67419 4362.35583 4420.31529 4116.27550 3748.64616 3026.28663 2628.49661 2316.37325 1847.80261 1728.65571 2323.93928 2267.18424 2589.42719 2955.67850 3546.06944 4049.52755 4518.35470 4815.47279 4703.76359 4282.44078 3675.59033 3355.93906 3033.37924 2601.06383 2761.58957 3105.68782 3498.62752 3937.43910 4525.53665 5015.93624 5619.97300 5826.87131 5853.35724 5773.07605 5617.56078 5125.54169 4764.98421 4220.32064 3946.57031 3460.16343 3103.39225 3122.75438 2718.22693 2666.51049 2689.70837 2540.65416 2187.78560 1927.89436 1341.56821 1107.72990 511.16363 26.10041 23.07704
22.57456 18.11854 521.85216 777.13997 1455.58202 1769.86584 2347.71452 2640.42690 2819.52209 2880.37720 2974.42740 3077.97935 3081.88420 3176.50062 3220.17843 3310.59865 3402.38104 3710.56086 4166.77205 4459.99583 4876.26376 5369.01083 5584.37505 5470.10819 4919.76796 4351.53916 3835.24028 3319.44205 3005.80493 2505.89457 2175.54278 1889.75071 2152.06863 2361.03428 1977.94979 1749.07955 2184.06267 2458.96183 2756.80082 3296.99011 3752.73608 4044.47457 4284.13451 4858.82935 5205.51986 5398.75444 5498.57568 5099.61840 4740.15933 4090.79611 3664.98598 2991.01578 2611.23286 2298.78530 1983.17348 1851.36694 1397.89695 1664.17003 2162.45182 2446.10581 2775.40866 3109.87247 3471.67657 4052.24796 4409.15682 4841.00088 5393.09335 5529.08704 5419.23998 5135.09462 4819.95084 4344.92394 4193.14249 3765.76845 3393.04897 2963.81038 2483.22249 2102.99288 1718.24581 1301.20746 1565.43764 2076.26362 2516.76346 2848.97020 2935.17317 3021.80206 3729.50597 4258.11224 4633.79817 4875.40544 4949.01123 4515.42979 4141.26177 3479.71601 3136.75707 2737.96480 2336.45842 2417.48624 2240.51470 1755.45228 1968.34394 1734.60628 1394.58363 1408.05456 1853.93625 2281.60465 2770.76966 2905.39570 3575.34587 3627.67476 3755.97816 4173.05524 4762.77139 5231.65063 5344.98113 5203.61917 4875.14697 4186.92283 3790.07933 3483.16051 3170.59435 2645.31176 2408.10510 2601.59250 2706.75013 2572.64564 1883.69107 1761.12751 1813.73827 2324.04508 2647.35345 2971.62318 3525.73140 4238.34640 4664.96623 4928.98139 4721.51292 4481.92071 3568.17186 3294.09624 2726.94128 2356.27627 1920.95341 1882.05943 1541.58495 1635.36201 2138.49501 2524.90176 3062.60032 3546.30502 4013.32272 4413.38928 4497.30251 4206.38180 3739.94727 3200.16041 2850.69669 2383.88027 1949.63932 2178.22535 2657.15855 2791.20545 2949.08689 3007.77419 3250.57667 3840.73843 4248.19343 4726.33431 4867.71109 4626.46052 4080.09209 3730.44818 3489.33137 2794.91397 2945.48230 3198.22449 3830.81361 4174.72894 4757.07344 5228.91803 5656.78364 5829.83596 5636.55008 5549.78348 5132.94355 4891.99074 4584.01071 4031.29249 3675.01994 3261.02856 2791.93251 2528.10041 2290.15505 2145.61716 2111.79829 2206.21463 2133.19099 1583.16440 1222.80674 809.21361 486.48625 21.92922 21.55888
6.33271 -8.91033 449.23145 1089.12490 1490.86672 1923.94525 2231.09247 2415.91402 2429.04129 2400.12166 2412.58660 2583.95538 2758.75642 2732.32143 2752.53612 2858.76585 3037.48762 3244.09953 3791.48232 4203.93106 4865.20804 5313.75401 5591.51839 5434.73965 4771.53214 4168.16636 3672.52823 3241.59172 2816.32210 2415.04277 2162.60359 2028.96077 2385.83580 2547.38454 2422.23768 2131.38550 2051.54823 2241.12888 2677.81440 3014.40501 3482.56150 3526.90596 3883.44663 4438.36393 4954.38877 5296.97959 5428.38024 5043.83974 4408.37870 3857.72129 3503.05499 3091.80980 2829.59688 2470.88217 1855.36688 1561.40198 1379.95211 1925.12746 2325.61122 2671.14637 2968.98907 3297.90092 3677.76444 4088.95268 4479.01857 4993.28794 5446.91714 5695.06119 5643.61987 5027.92339 4630.06333 4012.33962 3683.53493 3251.66366 3059.37595 2603.04455 2190.42709 1830.40884 1512.13007 1284.43256 1720.44220 2164.46931 2685.34668 3099.43875 3332.88086 3684.06116 3810.67678 4263.12847 4815.20905 5012.77963 4993.15121 4510.09356 3964.13011 3523.12766 3088.01721 2792.72814 2648.29402 2599.99597 2450.09418 2074.45605 2113.10430 1912.71192 1400.17363 1323.55086 1688.12069 2169.04858 2753.56005 3077.33478 3601.28621 3857.66618 4188.40484 4438.16260 4827.34845 5218.90142 5366.08274 5313.49847 4957.54781 4575.17471 4117.77449 3721.94963 3214.92698 2819.93928 2610.53343 2993.48882 3046.42523 2791.58598 2301.21810 2009.15936 1812.32087 2243.26770 2826.09855 3240.40530 3616.72160 4293.36949 4690.99583 4941.29130 4803.03782 4405.79884 3907.58872 3428.29269 2999.44463 2513.96080 2194.22155 2060.77253 1766.71745 1790.89595 2210.05845 2647.06494 3076.01074 3603.02094 3875.98450 4318.42242 4519.11226 4291.48880 4034.30590 3499.48260 2953.60186 2467.09848 2162.84761 2300.13526 2864.35289 3163.60271 3189.83451 3412.28986 3564.65182 3816.43984 4341.24509 4829.79341 5051.10745 4885.39578 4438.52549 3932.27073 3514.50036 3149.44817 3192.55112 3455.30620 3803.79146 4246.38300 4880.17264 5399.62697 5666.51935 5545.90821 5209.61976 4976.78795 4840.27450 4725.69496 4545.02895 3963.44214 3643.55885 3229.54070 2890.25955 2777.90131 2484.50819 2016.58893 1777.61680 1744.83006 1719.37146 1282.97019 1217.54816 914.45871 431.97711 21.99158 14.45064
10.67788 4.74380 479.32024 1028.45985 1422.85083 1704.59070 1959.90251 1918.31486 1983.30610 1898.62612 1871.53388 2127.67712 2091.84753 2391.38172 2542.44666 2712.59711 3053.51839 3592.89676 3986.36481 4351.51708 4801.47953 5106.22653 5576.57731 5370.41979 4716.31213 4204.67989 3691.82515 3164.52625 2861.12300 2525.98947 2406.47638 2446.33794 2746.67365 2882.64725 2718.59216 2356.24176 2108.80790 2146.19127 2462.99004 2655.85474 3016.31448 3447.89847 3798.35742 4400.88263 4835.27121 5248.87597 5391.38638 5202.79664 4664.40640 4212.66034 3966.16848 3629.00906 3319.56529 2812.38627 2084.15339 1819.73511 1526.09732 1863.70918 2365.00086 2650.17563 2903.88997 3352.30360 3789.14347 4049.49227 4655.51829 5013.60781 5278.28398 5584.17254 5494.28751 5008.66316 4401.84600 4052.17337 3393.10444 2837.42958 2687.01118 2397.48843 1994.68836 1784.27896 1614.09601 1539.17428 1800.37038 2326.69431 2750.39029 3106.72454 3388.64108 3684.27726 4019.17571 4240.65982 4604.41993 5074.49220 5089.86008 4552.45996 4144.94167 3692.53419 3357.39256 2960.77275 2866.88125 2852.30034 2512.76448 2308.42910 2412.22754 1992.00733 1619.07257 1315.04981 1600.30916 1976.50895 2496.92981 3094.83717 3494.66653 3669.46684 4144.77903 4370.85834 4743.84674 4992.55624 5192.27160 5405.31367 5145.37664 4671.28562 4257.59760 3901.34151 3342.85399 3072.75004 3227.45496 3339.06121 3178.01710 2946.39169 2514.72162 1986.10852 1854.15855 2201.40850 2621.22742 3166.39212 3894.25052 4252.06431 4669.21977 4931.61843 4943.22695 4159.61504 3750.80034 3326.84256 3058.64062 2544.12786 2608.93642 2213.27180 1882.02154 1811.74232 2173.55039 2685.26195 2941.70994 3264.98238 3643.74222 4220.72805 4518.06433 4527.74602 4072.24732 3697.40259 2948.54420 2663.27197 2214.20326 2256.08798 2930.70237 3324.07337 3632.42871 4014.96607 4111.95260 4221.36460 4474.81808 4931.25977 5203.09400 5042.49879 4584.87801 4182.28388 3588.04989 3490.83223 3525.25668 3662.15692 4161.24334 4465.27751 5146.76004 5450.41416 5698.74740 5286.58841 5006.37925 4370.20667 4339.66231 4315.33493 4354.07638 4240.95874 3924.72677 3693.93163 3372.67455 2990.37668 2682.14617 2305.23560 1658.68517 1384.91290 1094.28490 906.15050 904.82101 709.78202 286.04566 5.93641 11.74107
16.30897 16.95246 568.91937 868.75791 1053.02506 1366.88808 1286.64711 1241.29146 1468.35257 1261.43060 1575.76112 1741.07473 1891.99779 2481.60297 2755.86815 3113.95041 3495.20359 3749.30314 4171.02453 4661.55820 5099.68305 5387.67129 5659.25856 5419.54717 4534.39467 4209.97212 3738.63376 3313.03248 3032.01214 2826.68000 2638.28109 2580.15454 2944.19207 3072.44926 3039.84145 2634.31215 2274.92639 2242.89568 2433.25729 2743.56663 3138.35630 3420.24620 4012.97584 4380.86633 4807.02123 5363.56911 5449.11825 5204.05462 4882.53018 4429.00974 4130.80895 3790.77628 3431.80906 2780.93214 2424.42947 2021.33843 1479.82420 1648.17364 1868.96936 2360.80384 2843.58862 3224.73088 3642.07284 3913.48799 4442.51554 4751.48819 5048.87398 5477.14633 5508.75288 5019.99932 4392.54055 3844.07964 3378.46966 2965.87211 2497.48853 2268.18824 2280.34454 2174.85057 1776.34325 1512.75141 1863.26101 2293.79906 2666.35251 2991.12003 3215.54023 3500.25681 3802.56989 4139.16719 4582.37755 4974.50431 5075.23674 4901.65981 4365.99783 4176.42429 3680.10947 3311.94133 3133.26283 2993.67585 2540.62581 2701.79772 2585.53100 2371.37071 1904.05881 1497.38683 1425.57588 2032.25645 2432.73258 2720.97935 3108.59420 3391.28305 3818.11677 4005.56843 4458.16506 4490.80184 4941.62635 5306.33608 5269.57771 5137.58656 4488.25272 3943.18985 3631.12398 3341.90427 3627.62010 3728.07719 3507.28882 2865.25565 2497.48479 2046.62180 2057.18875 2126.12493 2592.30085 2950.57882 3284.11544 4107.06967 4446.89089 4884.73267 4785.08954 4406.48558 3992.33341 3421.07920 3048.16943 2922.34460 2780.67729 2362.36127 1778.55762 1624.41792 2048.11475 2400.33208 2611.12626 3059.52668 3482.14168 4073.90568 4513.59059 4557.49179 4159.95976 3606.72049 3175.52677 2707.84075 2322.17808 2322.84868 2948.27426 3244.57628 3710.84311 4124.69812 4313.08417 4691.75792 4911.67415 5155.30343 5326.60874 5165.02154 4710.29921 4083.70887 3808.01139 4133.24893 4200.97545 4117.15309 4455.08730 4831.68418 5271.54096 5649.24567 5588.25901 5301.11935 4691.20020 4287.47012 3851.46115 3900.06924 3920.80493 3983.83506 3835.26765 3736.63323 3374.70413 2924.17173 2715.72199 2172.69807 1867.04994 1526.78235 1133.22114 853.21095 667.40504 454.11535 275.04626 13.67132 25.89205
19.83259 16.92479 350.88332 517.84623 692.53381 954.26568 830.65669 863.76625 966.76100 1188.44344 1364.65312 1676.28667 1927.28454 2310.44748 2736.67381 3093.43591 3493.88615 3786.67890 4164.02341 4701.95882 5058.41110 5497.91729 5700.78770 5456.08036 4921.13445 4341.35137 3897.06551 3599.16820 3454.73141 3160.46882 2887.84983 2710.41284 3064.43092 3420.95296 3413.59815 2967.65016 2552.56781 2323.84366 2518.77467 2845.71138 3113.01736 3556.63934 4027.62204 4462.44286 4896.92692 5447.16476 5508.29786 5177.30025 4897.00427 4468.15556 3956.21422 3654.92456 3296.50776 2819.05537 2417.64620 1823.08896 1583.86589 1778.58642 1983.28147 2331.79768 2770.33410 3030.17627 3321.06890 3739.67866 4067.07928 4581.60572 4902.49996 5313.20230 5498.83080 5154.56944 4768.57734 3979.46313 3373.53919 3109.21081 2752.19183 2796.16217 2614.31530 2268.05445 1815.27423 1524.07168 1898.82107 1953.20632 2282.21638 2509.50616 2758.48746 3264.03974 3436.08119 3785.04994 4482.19825 4934.22575 5235.33962 5157.11415 4796.13056 4469.31499 3882.71777 3768.94400 3436.68122 3195.42944 2723.08591 2927.17160 2962.24130 2522.29297 2081.72354 1689.42225 1485.77694 1795.33906 2061.85247 2200.67314 2477.28862 3037.34085 3225.86262 3461.71149 3630.57698 4031.58160 4709.12299 5240.32330 5320.88478 5272.17238 4764.46152 4259.11286 4080.63221 4465.81922 4222.51019 4086.04196 3536.36584 3208.82982 2834.92137 2270.86569 2044.41036 2332.41097 2712.81759 2982.60288 3424.17680 4043.63381 4555.31347 4913.56871 4920.09066 4603.30528 4241.38550 3711.36507 3386.54010 3096.25640 2944.22000 2412.97994 1889.24847 1869.29994 1872.20825 2091.20568 2515.48054 2900.24325 3450.44696 4032.18086 4364.51106 4568.43121 4184.28009 3770.06423 3156.84542 2783.13363 2616.43879 2394.22988 2952.72558 3242.54501 3633.42235 4115.78469 4465.34199 4814.96671 5125.72893 5436.06171 5555.50910 5303.64392 4765.02960 4185.05437 4075.60200 4536.83006 4740.87200 4716.61431 4965.73334 5220.25761 5569.35246 5664.02931 5570.36157 5017.57796 4548.88698 3851.53648 3438.07562 3331.38044 3405.93602 3365.35403 3479.36091 3424.54126 3159.28279 2640.00725 2258.63509 1838.29106 1590.48441 1365.93835 1013.12257 799.09635 562.07462 382.45478 251.68613 20.10571 1.39694
7.45128 11.85581 286.01641 498.33303 696.65727 900.42591 1022.64011 1142.59307 1189.04429 1181.09652 1312.93616 1516.21595 1718.55809 2125.70068 2321.65924 2665.24731 3291.38166 3474.50853 3851.51744 4472.15768 4861.37928 5499.90046 5885.62796 5669.29231 5180.32671 4746.13616 4253.42173 4038.48572 3732.97021 3383.52153 3064.28256 2968.14304 3363.15314 3655.12402 3462.61344 3169.56097 2697.07396 2355.12088 2671.53824 3073.07408 3498.90189 3773.82699 4129.90308 4703.36523 5177.29131 5414.18363 5368.54744 5149.04226 4430.30180 4112.64857 3748.80979 3340.53978 3096.73563 2650.53471 2162.48065 1719.68681 1757.65453 2072.47887 2070.72610 2233.81421 2361.71651 2647.19563 2812.04587 3332.99706 3647.16399 4058.19036 4571.61188 5504.57876 5560.27610 5466.69365 4705.14145 4440.67203 3719.15950 3485.23970 3286.45737 2992.63068 2673.32773 2324.43470 1823.87333 1762.37018 1934.69197 1815.57690 2006.48141 2221.06573 2668.74979 3172.21523 3616.53517 4021.92976 4418.81148 5081.75897 5481.43114 5519.60446 5070.02898 4693.56263 4357.83555 4068.14127 3891.29765 3402.58951 3004.29102 3233.58940 3134.83104 2698.43352 2450.72431 2025.70468 1693.15075 1584.56778 1803.65134 2126.38652 2329.59134 2669.51461 2897.15811 3355.49437 3850.08684 4291.67133 4846.90631 5234.74656 5507.86808 5405.23602 5138.27302 4782.72234 4677.40521 4728.27214 4478.44569 4106.97428 3775.18954 3253.49257 2998.73386 2430.93538 2119.34737 2452.35901 2972.06563 3295.09680 3681.42942 4184.63776 4604.84255 5091.91485 4984.68954 4745.23100 4336.64185 3849.71878 3493.92773 3056.30872 2674.66007 2220.58401 1967.73212 2238.94257 2183.80477 2045.59506 2363.94407 2720.27700 3330.61994 3968.11671 4344.98697 4645.87113 4438.84319 4024.01545 3751.45846 3083.66991 2888.39740 2554.83566 2729.01995 3065.62731 3515.88258 3728.82070 4298.89350 4585.93769 5265.30794 5567.78146 5714.18860 5357.79743 4880.97137 4664.21941 4500.23972 5001.26695 5264.40801 5349.81805 5481.16739 5539.41650 5638.11377 5559.92472 5376.71284 4833.99975 4307.26848 3947.63420 3370.76324 2996.07050 2880.51506 2877.73125 3084.39943 3097.79703 2869.27379 2442.15331 1907.04927 1615.45124 1126.18923 1013.94472 770.58206 775.57422 703.06859 539.24989 331.82025 18.15809 7.66230
14.07254 10.69798 464.77625 897.66226 1245.28309 1316.22535 1260.72416 1642.43467 1631.11316 1631.13437 1587.55353 1768.83313 1935.92114 2253.33227 2242.82635 2605.55012 3004.05595 3293.85307 3694.04631 4418.47315 4826.28666 5535.51625 5886.56260 5856.91726 5369.84959 4887.27165 4717.06356 4484.50023 4049.74548 3563.99896 3373.69414 3507.62703 3869.04582 4038.13478 3634.68646 3266.62384 2987.70625 2660.76025 2831.09496 3242.05212 3691.21960 4087.93388 4606.95646 4901.16614 5358.04618 5435.81185 5238.80212 4790.64438 4240.94882 3870.35304 3533.50836 3050.44901 2823.29978 2523.39905 2070.55156 1725.44980 2179.57814 2555.86328 2715.91465 2533.65215 2539.67359 2857.48223 2915.60757 3256.62696 3620.39724 4191.42932 4869.19077 5410.89675 5573.92044 5450.45720 4981.52764 4560.16394 4073.06666 3791.12690 3402.63738 3008.07468 2450.38888 2070.88978 1776.80481 2006.18327 2205.62709 2270.83708 2093.89755 2335.98951 2753.94197 3315.81108 3752.77976 4225.88929 4775.94990 5215.55748 5601.38946 5739.50530 5477.85439 5205.68086 4749.53064 4447.77929 4033.99920 3503.52279 3274.80159 3396.95476 3346.30358 3043.21938 2678.97930 2302.75210 1867.19513 1591.04650 1854.11038 2311.44990 2641.12963 2841.76335 3158.63618 3629.76113 3964.54022 4368.63753 4906.97802 5185.43431 5505.19825 5633.10831 5487.88184 5178.37702 5190.27746 4976.71263 4422.91190 3901.00494 3585.04857 3207.69635 2584.10169 2409.93157 2325.82396 2557.16965 3047.61388 3396.05613 3880.33765 4271.56104 4714.02419 5112.24293 4991.72407 4530.90223 4147.77710 3761.01976 3259.15410 2750.45125 2437.71564 1936.38049 2230.07868 2366.56136 2359.67245 2132.01184 2241.77317 2641.58060 3320.79982 3689.61149 4292.58846 4718.61360 4650.22983 4278.60497 3995.49903 3465.04842 3100.10132 2882.28141 2663.00569 3018.26171 3520.85100 3863.30942 4078.21377 4775.56387 5098.01578 5632.47026 5788.36404 5570.33341 5460.12955 5315.00636 5010.65445 5419.89603 5649.95925 5790.40465 5707.74829 5460.60013 5345.44964 5370.63456 5238.04560 4744.01303 4342.73430 3916.44491 3595.36002 3168.57712 2850.95122 2444.46212 2526.05848 2578.92879 2341.18529 1924.08778 1615.50226 1345.74771 1070.24375 951.79659 1107.68139 1223.99982 1141.14001 844.33467 396.79196 -0.60038 14.46631
3.59974 15.42751 555.83827 981.91986 1446.96529 1760.10888 1960.57506 2009.50884 2178.53316 2202.37792 2143.60226 2046.47895 2218.12590 2562.99767 2549.42197 2604.87192 2899.93199 3267.88094 3812.37842 4409.44236 4844.03445 5590.85985 5868.30167 6049.64710 5664.08353 5404.77230 5205.91496 4766.75062 4286.05414 3975.99125 3737.31510 3837.96664 4123.82795 4232.89821 3945.46769 3600.28214 3339.31812 2974.95233 2714.46203 2933.70322 3593.54445 4094.62313 4459.31737 4992.40524 5390.59687 5442.68111 5113.99325 4627.31371 3985.89186 3593.78414 3151.27698 2782.16153 2619.78134 2262.71700 1980.88022 2021.36362 2477.66717 2946.55564 3051.09818 2946.72171 3111.53302 3079.14989 3336.50122 3672.59849 4036.70623 4328.69039 4882.63298 5561.52627 5695.23318 5537.89953 5246.09496 4610.87921 4169.77132 3656.10950 3354.42674 2774.44448 2419.78862 2086.09680 1727.63509 2081.87916 2421.23478 2489.43270 2200.52882 2444.16757 2896.72851 3416.78843 3937.80444 4196.17078 4787.60125 5089.39485 5552.19338 5818.51753 5785.15854 5527.91157 5089.06041 4604.90929 4372.39422 4065.02812 3552.24058 3833.08240 3806.81588 3500.62088 3044.10046 2715.78872 2075.53176 1653.34888 1987.30025 2512.09115 2848.03848 3044.60859 3445.31841 3715.45912 4110.43710 4342.40341 4743.43221 4879.08668 5343.62639 5594.71641 5752.98163 5537.80712 5259.79301 4922.23921 4331.28116 3813.06698 3406.92990 2818.07096 2643.84693 2624.43827 2432.71892 2345.82039 2846.13130 3260.69500 3648.53368 4053.18414 4705.98384 5058.86950 4872.10272 4348.82570 3855.53765 3361.91628 2844.06331 2466.04931 2291.55539 2009.88990 2390.64808 2611.83750 2701.60152 2292.47495 2375.10547 2838.62626 3208.45171 3698.05451 3988.38493 4883.01510 4890.68511 4630.92052 4331.27828 3849.86332 3475.54408 2939.48087 2777.18186 3142.54223 3537.87668 4020.38938 4407.26941 4838.75236 5320.37821 5777.32059 5976.50123 5941.56762 5866.98674 5770.66990 5629.49247 5752.96265 6033.15195 5895.45251 5580.04325 5338.07166 4995.74821 4696.63257 4650.22152 4445.05025 4392.92639 4092.49065 3712.48947 3419.70433 2960.81082 2457.43535 2127.56108 2114.88377 2060.86426 1628.77134 1382.19474 1537.03218 1595.13080 1507.39027 1485.48443 1559.01317 1385.33071 969.95529 458.66830 -2.86437 12.39438
9.83311 0.33036 546.26034 1090.45300 1510.76297 1831.47995 2212.03184 2396.10853 2726.90710 2666.93584 2519.67223 2264.42901 2446.89495 2975.74989 3104.98909 3054.81487 3269.14408 3600.04787 3944.63144 4428.16280 4756.81648 5401.95116 5749.27059 6032.45017 5917.90945 5692.46195 5512.52298 5154.37207 4592.47493 4301.16965 3968.79206 4231.88422 4425.01781 4512.17144 4133.10562 3913.14008 3546.42372 3220.77937 2767.35685 2992.23657 3323.62581 3947.51694 4284.39096 4778.44388 5178.57552 5461.52781 5268.40258 4397.22461 4203.15661 3889.97290 3590.66720 3133.40468 2817.42702 2484.86990 2050.66714 2106.18046 2545.29350 3171.05021 3416.10677 3607.16435 3614.97490 3488.70328 3891.46851 3950.46989 4205.82835 4715.47138 5116.37107 5559.28863 5800.59462 5669.69109 5173.57886 4815.45557 4046.80586 3643.69070 3244.67028 3035.68255 2675.34628 2354.28696 1868.66429 1950.73430 2456.90824 2535.18441 2510.79933 2367.78276 2813.43616 3207.83597 3641.11557 4034.07054 4442.49066 4927.69849 5270.76515 5803.56465 6110.37311 5858.42094 5491.85277 5092.73532 4790.62688 4422.74054 4109.43170 4272.19723 4108.39883 3727.14118 3133.30121 2806.43073 2239.82038 1779.38430 1950.38516 2109.92106 2606.76018 2987.99806 3270.10979 3593.38569 3966.58355 4045.11037 4356.08899 4514.37781 5057.35736 5563.63955 5831.32213 5624.82379 5175.41022 4789.46600 4110.50450 3734.53150 3392.82521 3118.54127 2904.27015 2792.49206 2470.58281 2687.84736 2769.05257 3165.56951 3755.42034 4378.03585 4672.36515 4976.82005 4782.23805 4326.68728 3637.57823 3194.49805 2832.50699 2777.00568 2749.40756 2292.92987 2397.86762 2862.21288 2912.22950 2659.11287 2425.64095 2903.45258 3383.18144 3838.42486 4312.54126 4730.50349 4999.90222 4884.76323 4659.91035 4013.34455 3558.79038 3208.25802 2989.07627 3042.17914 3450.19552 3908.52807 4255.74655 4892.85745 5243.67543 5706.72645 6071.75586 6292.74216 6400.01132 6336.02218 6224.44546 6196.90075 6293.02745 5843.44490 5341.91141 4905.92737 4489.47189 4406.89931 4120.36323 4158.67716 3807.40386 3667.55227 3667.75414 3389.63711 2981.11567 2578.17645 2172.37147 1710.62965 1662.41014 1535.43850 1808.43315 2033.33184 1980.46868 2019.14364 1900.66619 1856.93910 1509.61912 1101.72878 494.81554 18.79151 7.94127
19.94470 17.60005 454.53789 996.81275 1520.94378 2028.51564 2472.17104 2799.50735 2980.25734 3220.14378 2931.74510 2960.49287 3053.78369 3259.43962 3593.13986 3631.99831 3826.40941 4259.46889 4422.96047 4615.16553 4960.75839 5341.98140 5638.63840 5772.95537 5787.97734 5776.08047 5624.24151 5422.55388 4952.40186 4740.23783 4521.58608 4545.74831 4962.59699 4991.10964 4536.28495 4245.63270 3773.31780 3339.58729 2953.93637 3171.03365 3291.78132 3862.70547 4114.91194 4639.41253 4997.55643 5485.42862 5435.82598 5336.20685 4738.57461 4326.67128 3818.76556 3628.88172 3001.34655 2549.97541 2230.02526 2303.27405 2643.84847 3254.33181 3693.51453 3840.51532 4044.85537 4187.32363 4210.04620 4571.18645 4716.65382 5131.09775 5481.33267 5826.94455 5811.12144 5540.25938 5012.60479 4824.33142 4159.49747 3969.36516 3550.19164 3207.11480 2770.45921 2368.48038 2216.95144 2074.19199 2309.87222 2715.78589 2874.31103 2746.36259 2669.25101 3089.13688 3423.70019 3832.62849 4141.43808 4847.46797 5200.74335 5720.86159 6142.06416 6127.55869 5851.27429 5682.44689 4868.99668 4700.35849 4432.01403 4563.44852 4098.82033 3830.34870 3195.51358 2819.56632 2427.71147 1775.69692 1898.02394 2001.63968 2320.81321 2749.05889 2985.10021 3328.87683 3467.00196 3657.85676 4173.47955 4657.62704 5067.97808 5577.37592 5899.06019 5687.01128 5164.18073 4940.55164 4207.73568 3923.00078 3568.26864 3249.19787 3190.92165 2680.51093 2625.59733 2902.39790 3058.12824 3318.36479 3865.16188 4353.79301 4817.80981 5050.81688 4821.52399 4329.48802 3673.58391 3285.75151 3258.70481 3150.25865 2838.61556 2585.72524 2420.25590 2872.54041 3149.55563 2940.86505 2580.55058 2874.12908 3382.28249 3971.20725 4434.89717 4759.43964 5097.79499 5114.98358 4875.81540 4348.31690 3978.36949 3612.38073 3307.65312 3283.37964 3464.23870 3743.08193 3929.13057 4574.80634 4953.47539 5506.76483 5902.24906 6335.39442 6574.66939 6819.01479 6780.74717 6663.97502 6354.59748 5843.67006 5370.81588 4749.29548 4289.87624 3930.94614 3689.83018 3428.88952 3372.98936 3344.67778 3152.63557 3071.62958 2829.21002 2454.56609 2193.07163 1858.30288 1954.70007 2214.62769 2246.04943 2511.98034 2622.01074 2492.02285 2194.48851 1946.40696 1490.98174 1148.51134 535.54332 -5.06300 -0.11691
19.08755 -2.68728 410.44100 1007.98951 1385.38780 1755.01342 2451.67764 2733.71188 3359.74570 3527.92884 3483.06690 3368.13552 3532.28302 3645.51431 3883.74286 3963.51549 4221.62853 4380.97801 4530.92173 4585.83438 4704.16382 5035.14965 5250.31766 5271.12229 5440.09686 5561.31663 5516.65810 5591.75324 5400.80196 5228.62711 5093.27759 5090.72309 5283.69838 5135.37719 4961.90841 4599.25869 3855.81681 3504.61291 3224.97663 3434.41485 3501.30548 3611.48769 3795.17312 4676.36936 4961.69484 5534.80053 5643.11692 5413.71380 5061.62469 4737.47009 4212.31383 3776.22431 3238.29603 2876.10144 2584.90906 2283.95367 2747.48555 3165.86955 3644.29951 3983.78062 4249.79168 4456.55484 4651.44532 4769.67583 5197.88846 5470.46944 5848.85001 5882.02974 5867.51441 5380.74937 4966.74304 4612.35958 4298.89479 3891.68857 3584.00199 3150.55350 2719.52782 2302.28241 2506.09545 2155.46010 2233.57292 2675.45152 3015.57795 3065.94989 2852.91219 3107.75077 3419.97278 3780.77414 4044.24158 4656.34995 5287.30277 5774.75584 6108.19243 6358.70109 6204.16698 5729.10410 5391.77154 5167.70919 4973.46924 4747.33120 4261.85852 3676.33639 3455.97333 2523.04812 2263.25343 1861.63836 1885.41230 2332.49095 2487.88751 2687.59534 2703.43311 3005.22975 3258.53096 3795.51628 4230.69853 4639.98082 5043.24941 5583.92143 5886.82000 5821.26152 5266.19995 4901.92855 4450.92380 3939.55840 3668.25308 3629.10588 3277.41016 2847.31235 2925.82610 3242.41811 3432.55224 3600.04979 3890.76219 4519.58844 5084.43843 5143.12442 4885.28006 4363.18499 4109.20305 3679.12934 3451.10804 3156.23461 2957.34211 2474.40450 2681.92615 3016.59212 3346.69457 3196.55989 3020.29581 2864.41901 3445.85729 3775.57425 4155.27002 4448.97840 4903.99832 5241.95368 5105.14591 4817.70220 4277.20743 3841.32292 3460.48024 3465.45254 3822.70267 4081.84670 4106.56513 4361.74810 4647.60100 5205.27884 5753.20505 6201.92238 6776.59222 6994.10027 6944.39854 6771.78112 6272.21421 5815.29175 5257.60131 4975.20818 4436.52290 4226.26401 3946.42616 3572.38730 3277.13956 2975.65533 2759.11996 2531.22599 2412.54566 2202.92277 2341.56474 2245.03346 2373.37531 2507.86459 2923.82177 2897.78771 2906.35057 2712.76864 2336.00053 1680.67653 1327.91584 871.01356 420.85876 -3.43619 14.22206
19.79803 -13.32847 512.61482 901.86494 1319.68150 1871.91657 2426.19675 2901.07321 3369.24557 3659.72320 3812.92053 3960.74977 4040.74661 4073.45628 4249.05043 4332.86233 4295.87558 4319.60619 4176.21891 3932.21448 4171.17984 4583.11057 4755.23555 4882.51453 5006.98621 5024.77599 5054.67546 5427.02334 5530.75796 5479.57749 5562.92740 5618.95855 5630.50668 5532.95441 5309.13004 4422.20153 4101.75052 3617.85970 3590.56977 3782.36680 3757.50422 3747.73797 4230.02082 4820.88165 5092.59706 5697.18123 5797.80314 5630.46701 5156.32118 4883.46600 4238.90561 3897.41775 3331.77050 2979.12417 2565.75162 2290.69985 2724.84281 3074.51399 3413.60430 3857.82080 4132.27342 4283.22376 4504.36386 4739.29192 5269.10135 5638.98783 6023.66659 6026.71119 5758.06451 5270.43393 4718.97173 4277.17512 4016.78935 3632.68302 3375.11908 2893.71107 2547.72395 2360.87940 2791.40402 2637.49315 2422.64657 2545.58442 3120.82709 3317.86369 3133.44051 3056.20078 3383.22620 3727.48724 4108.16018 4635.40397 5248.45795 5664.67718 6146.59209 6401.93413 6342.84726 5918.56241 5680.28040 5327.87421 4963.65590 4641.41535 4242.06342 3639.52981 3295.59858 2629.66437 2398.69058 2061.71444 2078.41019 2425.38777 2783.72043 2985.08130 3137.38535 3117.87199 3245.81810 3621.19414 4065.42102 4632.87820 5149.47710 5581.54534 5981.41486 5955.44923 5376.90452 5023.52519 4369.69792 4126.12808 4106.48898 3842.71682 3474.10026 3031.88584 2812.46189 3296.23606 3626.74671 3892.13079 3964.11303 4867.39634 5176.77054 5386.06788 5151.72378 4653.44240 4485.21916 4054.56906 3721.89137 3113.81492 2941.12215 2627.13048 2681.67877 3238.54221 3533.07258 3467.79279 3332.82158 2853.59929 3081.05906 3393.82609 3908.47946 4137.91600 4858.68788 5171.24493 5304.06070 5031.10287 4526.33580 4107.43485 3808.48048 3694.85477 3822.77211 4204.23479 4361.26740 4674.66316 4802.54232 5243.90338 5713.84013 6120.17026 6771.30982 7027.46843 6967.68263 6692.36737 6360.92112 5878.93754 5564.67493 5325.10270 5070.77244 4680.28898 4427.06274 3820.14203 3498.37398 3153.38071 2926.55079 2980.58521 2744.54464 2660.62768 2698.03705 2787.36998 2932.12719 3066.29343 3439.63829 3514.35932 3080.84499 2664.07492 2126.69018 1764.17380 1080.88283 903.36064 361.39029 19.42171 16.94159
20.47671 11.99735 599.81746 1026.09951 1563.77979 2036.47638 2314.61811 2694.03004 3088.39243 3469.94067 3705.07159 4087.54425 4176.86255 4057.42072 3988.67911 4092.41078 4019.08593 3996.57380 3665.09528 3431.46218 3935.52191 4080.30429 4388.12301 4505.33340 4414.59775 4459.32065 4739.74147 4921.93725 5345.08166 5594.96266 5828.13590 5908.09738 5911.81939 5659.21935 5118.26079 4626.23839 4237.49637 3806.92127 4091.06575 4187.28029 4019.42584 4161.27913 4617.85267 4966.89779 5403.42782 5866.48114 5978.50221 5773.19334 5279.05601 4865.97958 4202.21272 3752.19365 3104.96774 2760.96775 2657.66944 2450.55474 2390.46110 2895.36097 3107.72236 3444.44399 3863.59932 3932.91725 4151.17557 4636.85068 5173.63399 5698.37532 6014.44599 6080.57006 5645.78728 5086.09191 4636.63355 4067.25494 3808.00816 3329.77328 3013.45654 2749.19690 2448.58035 2731.99676 2951.36999 2993.20679 2792.73719 2567.14330 3101.84042 3473.61692 3403.96973 3282.75801 3692.20110 3982.08934 4218.55248 4607.58419 5392.58824 5742.61391 6117.82441 6337.74123 6188.53408 5814.93467 5473.78371 5174.45338 4610.87571 4327.75666 4024.31103 3558.65958 3255.67811 2730.49341 2410.02481 2156.53858 2334.92263 2667.25076 3105.01284 3329.94297 3648.98034 3645.15549 3970.74234 3757.56785 4106.23612 4731.29432 5229.33864 5443.41507 6062.05307 5935.50334 5559.28459 5107.31735 4498.36242 4645.71124 4493.36099 4205.50434 3730.58175 3415.05631 2990.13818 3217.93483 3662.45003 4076.90108 4265.44625 4820.61844 5259.21378 5567.92714 5405.70111 4954.52993 4665.35923 4181.66115 3732.10528 3251.47990 3150.22367 2926.30294 2635.90287 3020.68405 3618.30763 3773.96164 3590.57372 3179.28148 2989.40525 3175.61647 3535.58467 4036.44259 4447.42001 5204.30822 5407.43716 5329.42742 4736.11080 4487.69531 4041.93863 3703.37927 3798.47470 4110.64107 4622.52536 4967.95864 5246.43071 5476.19706 5903.44201 6284.46110 6855.24474 6864.52583 6746.23878 6435.75774 6234.86581 6023.25332 5788.17568 5586.63505 5339.86633 5022.15494 4749.84473 4183.00273 3894.06426 3708.98672 3600.49483 3330.03460 3311.23669 3276.74830 3406.43273 3280.48676 3320.19093 3596.83819 3743.10846 3562.44040 3250.40781 2853.04837 2454.31700 1961.79478 1362.60244 1061.53988 569.59040 10.37956 -0.45809
16.17759 19.46485 489.52152 1073.76811 1566.24597 1905.51032 2058.89860 2399.21885 2703.24254 3099.55738 3613.96984 3847.00618 3844.61932 3829.99388 3600.82089 3560.36179 3491.26820 3328.72517 3206.71308 3096.28213 3430.45318 3646.74538 3907.85400 3934.84260 4081.15648 4073.04708 4312.70135 4548.33849 5017.83950 5402.74975 5729.95241 6063.41023 6128.56171 5810.82259 5391.37459 4637.51982 4355.13072 4242.40171 4538.88250 4577.44423 4396.70986 4364.27019 4781.60315 5372.95147 5825.18495 5981.27604 5949.24375 5408.61751 5025.38709 4444.39806 4181.43122 3487.92990 3131.23620 3153.96908 2987.32707 2707.67467 2339.04954 2549.35804 2762.71692 3113.08912 3420.30585 3705.92974 4123.50262 4753.19628 5348.03697 5800.36135 6020.88107 6073.32699 5828.18462 5168.37577 4778.89431 4313.54934 3576.59310 3266.71473 3092.44316 2871.18841 2670.23574 3061.81133 3266.21171 3329.90902 2939.78209 2716.64916 3123.85898 3510.69598 3657.25095 3552.39036 3721.40164 4130.55699 4545.10682 4904.93594 5313.67504 5733.90211 6036.80007 6030.18069 5799.08897 5419.56520 5129.06966 4864.81749 4483.26825 3983.25100 3620.45275 3557.12332 3058.20759 2593.64069 2212.54886 2043.28347 2173.02937 2541.80039 3152.48108 3560.12604 3903.41985 3990.86637 4193.82880 4273.77560 4672.81009 4822.73798 5222.23759 5851.94309 6148.37597 6141.37476 5665.45573 5119.97978 5008.13278 5068.64828 4884.12569 4454.51974 3981.29738 3548.60935 3183.79585 3359.80113 4045.54387 4304.13851 4733.44807 5009.62925 5462.17801 5787.35046 5597.50605 5266.26252 4699.21103 4367.66389 3703.60786 3586.72961 3445.55137 2942.15474 2835.09568 3382.00005 3664.26459 3983.54052 3768.50269 3493.96718 3193.04776 3170.04721 3700.46483 4029.21986 4476.88444 5184.64982 5525.12143 5469.59414 5058.61154 4536.66769 4115.07503 4067.69006 4089.79879 4214.33702 4513.45258 5037.07207 5578.47640 5893.50290 6280.34222 6574.90833 6802.56402 6716.54194 6447.55114 6085.99720 5996.66184 5722.15410 5580.92653 5578.34138 5470.39487 5276.30910 5031.44301 4784.15063 4409.72704 4316.14562 4135.07330 3988.60243 3762.75108 3825.82616 3785.58596 3731.14884 3855.52020 3837.60692 3774.77265 3350.44364 3233.60350 3083.26989 2638.04714 2105.63771 1763.17040 1386.68762 500.92672 3.60294 5.93506
1.68577 6.25447 365.66587 749.44229 1106.19792 1449.72869 1633.59705 2136.96743 2403.55483 2960.74598 3291.27310 3421.08709 3266.11409 3343.31915 3121.45314 3060.84599 2872.09851 2877.13892 2734.28684 2687.74869 3073.16536 3164.60371 3494.37350 3400.12272 3457.36537 3698.33804 3890.86683 4322.81045 4643.30763 5014.52066 5579.22354 5849.26662 6115.33543 5935.72551 5254.00051 4787.69471 4513.21659 4689.85351 4887.05065 4918.85538 4794.83939 4743.93629 4963.55905 5527.49784 5857.26970 6092.04010 5859.88504 5559.89927 4863.14186 4378.52936 4075.84231 3636.43199 3518.46032 3389.90144 3039.75659 2779.94257 2571.64014 2851.44777 2780.90262 2920.18286 3427.35980 3899.86330 4271.17741 4765.31256 5041.67748 5753.87644 6045.81402 6123.93770 5653.89998 5301.21326 4806.97357 4311.36005 3906.56830 3639.99399 3195.91072 2723.03881 2887.88588 3414.79664 3648.94907 3490.91589 3079.66077 2840.37710 3129.40696 3731.44523 3712.21077 3955.34024 3957.15696 3925.02589 4365.08491 4747.91725 5267.69663 5825.28594 5929.01706 5844.14583 5442.67455 5073.14215 4612.74324 4460.19748 4325.38461 3853.11555 3427.35497 3053.96099 2697.47039 2324.05474 2163.57081 2396.11363 2290.50645 2659.55492 3171.41236 3489.92456 3987.20028 4325.39306 4490.80912 4644.97888 4890.60259 5215.32420 5441.19286 5970.92362 6173.23662 6345.53826 5898.50156 5540.21807 5449.25339 5353.81319 5006.88555 4459.91935 3964.06640 3529.76555 3230.52204 3473.46082 4194.84270 4524.48025 5076.22977 5254.67842 5724.95330 5915.78991 5593.25294 5292.56070 4861.86391 4193.94447 4016.82805 3886.57463 3393.27291 2970.43256 3130.72384 3472.34989 4011.59724 4311.12195 4189.95965 3946.66581 3417.00436 3337.70168 3733.33082 4264.69918 4755.34404 5076.65073 5544.09726 5618.04907 5306.46621 4875.52968 4542.46994 4326.44354 4528.41494 4668.82345 4857.53868 5056.96437 5636.73389 6132.45053 6440.61258 6688.79700 6616.46672 6353.79274 5907.18490 5521.85369 5233.91589 5295.87943 5163.63320 5280.68462 5311.48043 5260.63914 5085.23363 4972.92701 4758.41366 4544.44871 4405.69668 4229.84717 4206.91682 4152.46112 4142.09184 4047.61612 3946.34227 3844.30388 3456.57526 3276.80135 2923.59106 2831.93175 2491.03976 2152.51834 1733.98408 1213.58839 470.92790 14.46046 21.15983
22.65324 1.93691 378.99379 814.98466 989.32340 1196.42892 1717.74376 1971.15729 2357.06979 2760.05538 2996.95814 3016.11695 2896.62369 2694.79457 2617.63198 2451.65920 2488.98646 2331.48620 2366.97278 2406.58091 2528.56458 2699.25680 2967.59472 2951.99758 3228.14675 3436.99911 3569.11621 3942.07194 4334.64200 4758.05344 5345.45098 5715.00117 6055.49376 6099.86185 5564.15759 5505.45616 5244.31390 5320.13575 5491.18443 5366.10922 5119.76162 5016.17791 5416.40285 5881.20440 6197.70559 6226.65798 5967.85044 5339.62249 4875.51155 4619.92102 4381.61480 3965.93554 3865.79495 3589.31767 2992.50135 2683.60349 2929.05284 3194.07069 3087.77429 3132.53772 3536.58858 3805.24718 4127.03819 4589.52858 5025.48257 5672.11848 6097.37688 5987.02402 5681.56242 5099.05335 4713.59605 4280.03339 4016.41919 3554.40334 3267.67372 2952.89923 3449.08897 3643.20262 3887.26218 3693.52565 3208.02033 2989.46171 3539.58926 4015.88921 4297.52798 4249.68567 4324.76639 4388.93050 4602.13464 4929.78661 5632.45287 5897.09091 5958.63848 5469.61490 5012.81362 4675.46748 4151.70705 3847.89414 3774.77904 3615.16982 3253.15657 2939.74335 2478.13711 2260.62466 2421.23021 2630.25404 2465.99390 2485.17833 2859.54783 3385.73124 3783.83447 4140.82291 4294.95567 4650.78015 4717.29233 5091.41088 5372.66779 5971.86103 6268.74102 6456.31527 6295.36410 5903.07076 5816.97864 5346.58260 4875.08093 4469.21247 3880.15991 3465.89389 3399.44085 3755.28928 4043.39500 4516.74590 5135.19198 5642.94407 6032.29165 6047.91418 5865.52052 5630.11124 4768.66104 4418.21005 4128.17398 3846.55437 3253.28968 3180.13376 3467.45411 3669.22285 4449.99374 4590.55476 4597.37337 4190.35463 3838.14485 3536.24148 3692.51682 4329.21072 4742.39553 5155.40571 5651.39575 5781.41231 5503.50975 5175.46073 4976.46956 4873.98247 4774.93132 5178.83220 5247.61348 5414.85307 5800.87307 6304.34370 6629.03113 6660.20370 6421.09935 6116.43369 5540.47519 5176.62842 5049.80419 4705.03541 4675.05431 4853.87378 4695.33427 4874.18305 4898.99417 4886.36388 4685.72192 4522.88664 4276.00836 4067.71656 4056.48860 4120.76864 4069.19330 3964.51701 3735.97884 3125.10476 2957.21912 2857.30169 2588.12289 2273.09089 2035.75914 1792.16014 1490.20656 1174.73203 523.78610 29.72839 14.88751
13.80823 -7.76690 444.08247 822.01408 1033.60800 1172.84254 1532.22132 1708.44402 2033.19777 2341.23462 2572.71393 2551.21991 2447.48691 2220.53532 2041.78044 1949.11046 2051.68945 1996.28290 2127.33680 2381.21126 2404.48581 2633.74741 2895.64045 3060.47938 3165.03146 3440.80194 3759.80779 4109.84829 4248.75830 4611.89907 5067.01070 5685.26787 6088.36299 6199.72800 6120.89056 5840.12821 5695.07878 5857.64607 5834.58799 5803.08154 5490.78608 5490.91890 5680.48689 6026.99928 6487.87513 6331.34337 6108.58578 5551.36145 5211.60679 5017.92785 4631.86622 4291.97431 3971.16696 3513.99386 2910.00502 2717.95198 3007.36034 3573.49677 3600.19152 3423.11215 3432.34434 3631.84296 4105.59275 4520.44565 5086.80921 5724.89583 5966.19799 5908.78348 5358.51581 4986.00538 4507.75686 4079.67704 3710.33913 3278.41748 3128.49911 3133.94685 3503.96945 3870.37089 4107.21185 3668.09621 3481.01337 3171.08446 3530.10010 4165.96895 4508.66816 4608.97335 4681.88328 4869.99881 5126.15070 5456.45890 5710.17106 5976.90137 5772.00825 5303.31903 4767.08185 4409.16591 4022.62414 3499.78222 3327.82991 3302.80211 3164.96638 2787.31832 2389.28835 2328.47393 2679.18228 2949.92612 2742.47381 2705.92332 2595.12903 3121.00955 3322.68743 3745.09319 4030.92744 4209.98318 4460.81678 4898.46501 5353.82857 5866.89938 6246.03455 6467.66108 6519.31148 6239.53750 5732.27880 5418.51530 4879.17294 4204.52135 3858.95312 3530.02592 3483.62002 4050.25194 4343.31051 4797.77833 5173.65052 5918.54206 6230.20881 6362.70732 5764.51354 5341.77101 4948.77873 4608.47847 4198.92462 3656.99940 3197.77174 3359.95492 3691.22677 4277.23720 4549.94831 4942.87491 4876.16588 4520.81364 4187.46542 3763.05300 3746.51595 4147.40699 4887.97994 5228.37818 5633.96215 5949.97659 5898.76426 5563.41325 5400.81780 5289.87787 5070.56749 5298.73774 5676.87244 5759.90870 6243.17341 6577.23625 6666.00804 6392.29058 6108.27207 5706.03742 5426.68732 4922.39113 4523.12043 4332.66005 4331.02165 4450.06283 4375.00388 4301.30777 4398.95730 4574.19412 4402.71332 4007.62884 3917.80889 3715.84545 3746.53576 3565.01893 3651.28798 3570.95355 3317.67136 3037.64529 2615.07538 2490.65242 2457.64639 2214.00635 1870.14878 1659.59301 1236.68379 801.41801 418.45907 -3.43346 13.33423
2.77297 10.14722 261.19722 654.90514 669.73548 1016.41705 1183.01153 1348.07458 1751.16655 1871.07258 1962.16192 2151.74098 1983.20983 1987.39424 1782.95901 1629.22853 1959.02127 2203.40348 2630.46469 2873.33627 2948.95008 3227.40391 3494.60976 3530.81002 3594.25863 3721.16576 4086.61615 4451.06756 4591.67911 4864.10756 5347.75780 5977.86750 6346.82621 6579.51977 6548.28679 6413.66731 6345.32674 6233.77432 6352.33274 6107.79245 5927.07919 6079.84272 6336.33412 6557.35522 6614.36638 6538.49315 6010.55580 5737.59489 5486.22414 5091.05876 4571.84958 4416.82131 3948.41783 3581.19652 2952.22186 3026.64402 3278.15422 3838.92151 3996.22549 3923.48989 3937.00254 4048.26267 4172.09856 4551.91927 5255.68138 5687.43260 5977.42568 5835.20334 5209.64662 4732.52006 4257.03017 3893.83903 3702.46954 3595.70221 3493.28494 3175.25490 3536.20734 3993.17206 4254.47670 3920.14206 3532.11813 3336.05823 3916.81635 4418.98630 4695.32331 4965.44147 4966.41030 5227.62870 5589.01308 5807.15500 6101.81588 6051.05023 5771.04003 5255.75065 4785.89569 4247.63996 3840.00752 3555.08889 3180.11290 2954.84302 2773.45307 2581.95209 2641.67083 2589.54159 2733.04470 3133.26598 3144.93850 2993.93939 2653.28355 2874.34136 2990.89241 3265.52240 3448.87401 3811.85953 4134.89037 4657.27002 5094.62831 5582.15549 6065.55209 6353.60738 6469.56395 6203.30639 5748.16969 5283.41153 4832.81224 4266.20357 3772.55844 3645.00942 3628.71227 3933.65998 4356.85159 4843.43106 5351.48856 5997.87476 6309.09711 6431.51648 6025.36840 5557.26309 5032.42034 4671.55735 4171.60417 3622.55066 3360.09735 3401.41762 4022.35622 4495.75865 4924.63997 5238.87222 5246.85966 4808.67547 4364.24029 3870.33623 3815.97277 4246.63038 4747.14192 5212.22357 5597.66351 6060.93307 6197.84320 6161.23915 5953.85201 5622.44191 5447.43948 5667.81221 6056.82291 6207.55204 6722.61433 6816.01678 6612.51279 6146.25698 5814.21960 5369.64197 5112.71865 4771.30767 4466.80118 4079.11126 3864.79721 3857.53813 4032.32141 3887.25783 3903.37355 4171.71679 4002.02728 3791.36390 3295.30159 3032.91636 2991.59706 3114.78016 3229.65300 3054.49299 2818.26371 2618.80669 2319.19102 1842.32946 1957.64057 2083.60307 1995.21805 1506.90005 1181.70527 836.62833 524.81808 10.01053 18.49319
14.13678 15.60744 196.95980 366.16733 406.74814 524.87592 793.62790 973.21287 1194.06972 1329.70563 1559.42262 1726.37998 1515.02937 1404.47804 1516.35456 1860.76797 2379.63240 2667.57670 2974.51527 3278.18914 3628.87422 3727.10517 3950.74767 4046.60381 4131.83673 4073.23420 4347.53430 4718.82075 5123.46642 5175.08937 5763.85452 6132.11117 6630.88052 6715.04265 6733.78553 6580.31564 6542.32306 6573.31087 6612.81588 6598.66980 6568.02109 6632.14483 6830.28478 6783.39674 6718.59434 6359.97775 5979.33710 5598.44473 5180.25817 4872.62194 4583.75253 4268.48329 3769.58027 3417.30610 2944.78338 3150.40249 3508.34609 3936.84817 4316.66631 4458.59495 4352.76910 4522.67863 4836.30889 4925.51293 5344.60226 5690.89151 5974.97358 5810.09541 5200.07686 4880.79160 4421.83268 4127.72918 3896.37511 3814.13521 3788.63927 3290.20285 3729.24203 4256.75542 4327.84220 4131.62794 3708.79703 3703.81886 4065.83503 4578.62995 4938.16890 5289.75190 5468.78183 5656.89341 6059.48661 6007.78599 6297.11088 6147.75936 5652.41431 5057.85723 4669.47165 4061.77824 3742.83956 3518.50068 3269.26162 2845.32499 2941.30370 2944.39368 2914.09585 2698.42518 3055.07298 3408.45284 3601.66962 3387.61181 2986.16656 2947.32863 3253.03420 3246.13441 3310.19976 3655.35162 4105.66956 4527.49020 4981.22854 5415.01754 5875.84685 6394.05216 6433.60867 5987.39071 5331.43853 4967.97456 4475.49418 4160.28519 3839.16114 4012.54585 4048.04348 3915.09202 4274.91751 4842.21364 5323.85786 5941.94732 6331.05955 6388.33612 6144.37194 5653.63328 5262.63812 4657.97541 4106.83476 3649.89319 3381.99383 3549.01810 4010.41166 4868.13203 5186.69021 5508.99941 5422.89325 5053.63290 4487.04359 4173.66764 3905.98607 4093.15262 4538.64429 4972.10502 5371.10411 6056.63450 6342.91194 6439.20237 6264.14472 6120.65193 5889.44424 6143.44210 6451.16397 6742.30481 6864.65291 6951.15198 6688.83697 6105.49521 5619.16949 5256.72090 4719.59128 4425.63791 4244.77599 3957.33201 3703.06241 3579.10127 3410.47591 3375.69386 3432.78217 3517.85676 3694.19225 3452.42622 3033.95481 2754.32897 2601.52390 2724.57131 2874.51818 2710.05724 2381.31154 2114.46716 1909.53687 1574.67828 1492.70523 1682.76431 1772.87421 1666.92751 1336.75299 1056.85877 518.62936 12.83635 16.37919
25.95511 0.04581 414.19259 688.18983 635.83263 777.00726 693.91938 706.16910 836.98983 986.93373 1172.08905 1272.88494 1206.54965 1307.80478 1625.35287 1939.07455 2247.68741 2810.96176 3252.22552 3602.03510 3923.01631 4252.92877 4354.18035 4516.72258 4618.91543 4755.14735 4816.21572 5140.93806 5455.34564 5755.40163 5905.48044 6371.30809 6675.76284 6679.29847 6528.70059 6327.08050 6166.36568 6284.49074 6435.46911 6606.68085 6725.68117 6840.15898 7003.09200 7051.34445 6679.13070 6129.37326 5591.62531 5149.32933 4834.37629 4438.65233 3993.27988 3801.12892 3388.19588 3172.50872 3186.46347 3109.93837 3649.12723 4159.43709 4487.86220 4772.32067 4920.90081 5148.14157 5318.22997 5564.27866 5682.57741 6119.30038 6188.29656 5969.86187 5524.07978 5167.22082 4894.64639 4535.50434 4496.90633 4248.14751 3638.60804 3516.82349 3748.29611 4338.37404 4561.78328 4169.32458 3702.53188 3836.04010 4155.96256 4612.61752 4892.86975 5434.06364 5676.83150 6069.52440 6342.78898 6556.52563 6501.25785 5842.52750 5516.38096 4932.17878 4529.85528 4093.20034 3610.90005 3346.27555 2971.31894 2940.39151 3248.46563 3267.89577 3080.85556 3062.60714 3449.82481 3820.52308 3971.46835 3616.78981 3206.13441 3043.11945 3369.00332 3524.76637 3534.83680 3708.44275 3923.52033 4399.49006 4604.64816 5021.36269 5843.70624 6187.77693 6390.31661 6090.04285 5528.69860 4977.97234 4651.82263 4156.63067 4163.40851 4267.11950 4262.14926 4008.66984 4494.28394 4803.39506 5432.93182 5876.84408 6346.00370 6446.17496 5931.55088 5653.36660 5208.36832 4769.82737 4210.92920 3783.08161 3598.43845 3542.41185 4089.59724 4754.72394 5232.60446 5648.92196 5603.13759 5186.97732 4631.81463 4355.46814 4131.63770 4275.15439 4523.96828 4770.28147 5255.28344 5735.41762 6340.70265 6618.78533 6733.21939 6564.68620 6515.75485 6482.30716 6717.17545 6867.85711 7076.23285 7006.32835 6719.49989 6290.97873 5895.69994 5546.88281 5122.48391 4859.97378 4512.81942 4355.76353 4086.96537 3807.46351 3566.03808 3181.96713 3058.75731 3161.79647 3218.15114 3127.01094 2859.97718 2386.47659 2193.98275 2211.50447 2334.00846 2352.23556 2033.27851 1629.06635 1549.67152 1221.68475 1094.43723 1227.06853 1401.26623 1397.67785 1138.75791 924.14316 621.36113 10.85278 17.78753
1.99672 10.22520 515.43945 934.53199 1109.75216 1161.58430 1191.63228 1049.60037 1127.48236 990.82265 1239.87347 1431.88831 1443.49684 1516.10648 1724.17102 1943.09006 2325.43862 2695.96781 3205.04784 3586.85568 4236.38814 4524.04845 4970.00565 5111.44109 5156.78605 5056.27501 5399.95338 5697.96660 5868.41565 6111.25393 6159.43092 6363.22572 6359.69418 6289.97099 6192.48053 5874.24463 5788.65007 5863.13258 6153.48006 6235.53058 6446.49145 6697.09628 7005.47783 7052.71259 6804.12788 6384.18052 5895.12024 5381.26913 4788.05670 4436.12643 3860.82632 3626.35871 3422.96740 3325.86720 3469.51648 3411.39390 3620.60420 4127.02671 4552.43860 5021.60299 5235.15263 5616.11199 5633.20292 5985.34786 6178.40822 6412.78678 6501.57412 6372.65836 5867.99391 5525.60422 5086.23532 4920.40947 4699.25299 4271.13283 3998.00010 3910.11130 4216.03057 4694.91400 4774.03071 4247.84706 4008.48675 3821.55932 3902.71663 4287.69606 4751.72418 5279.51972 5942.23263 6245.22608 6627.34141 6724.15417 6535.05487 6000.87981 5414.09925 4946.78417 4515.03073 4135.40562 3904.11995 3579.62648 3103.27313 3327.52867 3564.53899 3646.48507 3318.52658 3242.46603 3740.23705 4117.16448 4202.60389 3988.08294 3562.39964 3292.42631 3566.77947 3741.37304 4085.74136 4094.63542 4168.31748 4219.06934 4557.72403 5029.71465 5598.07417 6158.15038 6345.24235 6157.25706 5564.95909 5056.27105 4629.13466 4511.47741 4560.49396 4579.81324 4344.89275 4105.61724 4460.83528 5043.56083 5407.13737 5952.74159 6329.16253 6264.33769 5714.61622 5324.80081 4975.22925 4466.92689 4154.18865 3815.16459 3733.29835 3743.99550 4092.80049 4548.59124 5315.19771 5715.84050 5858.31701 5455.44954 5002.66561 4754.55161 4332.65074 4616.87182 4769.19099 5012.03998 5352.74123 5878.06799 6552.25008 6824.31983 7033.07569 6893.81083 6823.03316 6767.84223 6843.09241 6851.31067 6935.97376 6843.37356 6653.18694 6386.58655 6089.76076 5806.01486 5403.11770 5238.39683 4885.08710 4816.56989 4665.53617 4255.77602 3833.75324 3479.67194 3045.54199 2892.03171 2778.24825 2727.13171 2572.33974 2080.32907 1952.87087 1888.93626 1817.65947 1845.66264 1677.31229 1483.31191 1219.81438 1081.75640 995.42481 812.28210 970.37124 893.89796 793.04840 583.56599 388.94905 11.00088 11.87209
0.55753 19.84860 455.78878 987.47254 1332.15733 1451.55510 1785.16635 1734.80745 1610.22368 1510.78600 1499.87682 1859.95211 2071.47824 2125.52806 1937.11969 2195.69775 2751.32802 2901.61634 3116.52121 3890.21985 4159.49357 4850.61745 5149.42478 5339.10862 5374.50308 5491.50679 5511.23534 5600.89863 5902.21337 6101.41452 6169.02178 6193.12335 5975.06628 5891.87576 5820.78379 5468.87815 5174.80273 5388.61797 5553.93183 5857.97034 6080.92546 6493.88602 6792.62275 7029.35413 6935.81551 6596.12015 6081.50351 5630.21437 5061.50743 4528.81931 4138.38923 4038.54826 3615.40066 3533.64464 3832.15585 3656.89997 3549.47709 3941.12944 4243.49773 4766.03826 5326.05486 5564.32011 5990.25788 6307.79525 6611.93534 6788.43888 6855.78518 6618.05091 6286.06384 5861.55961 5305.19570 4915.17617 4497.60014 4134.97140 4024.68421 4272.82842 4662.61714 4875.41858 4875.99203 4894.85518 4324.62811 4069.17140 4160.37129 4230.38875 4861.29290 5281.94481 5921.91421 6347.17530 6768.67687 6802.04886 6517.02525 5968.18680 5482.59199 5221.50300 4777.61065 4402.59407 4000.59294 3524.96117 3346.70125 3684.82817 3848.92309 3816.71984 3392.74894 3389.55910 3847.18877 4322.13375 4406.27206 4242.23571 3677.28466 3421.31232 3543.41112 4002.56180 4336.09664 4407.94928 4626.63707 4456.17549 4789.77670 5231.95437 5808.81852 6315.49494 6332.07849 6028.72847 5461.50033 5052.86902 4758.59248 5019.22081 4986.38583 4883.53903 4397.08139 4331.68576 4434.77919 4909.97076 5469.60817 5994.55318 6379.50163 6425.17662 5796.40119 5254.16763 4736.19339 4400.96652 4197.96346 3936.56741 3931.60345 3929.63514 4378.99339 4839.96348 5407.11703 5860.84130 5993.65291 5780.29484 5220.95612 5013.33466 4541.52760 4752.73234 5171.86402 5388.18494 5851.54663 6019.61534 6644.38650 6979.69402 7072.68518 6886.19063 6653.60920 6390.03680 6294.94837 6338.13672 6293.47786 6272.58962 6207.40653 6075.69180 6026.76953 5942.92155 5739.61721 5593.72712 5383.36776 5178.81050 4811.27277 4668.08956 4276.77474 3838.93573 3509.58823 3127.08339 2831.34577 2669.16327 2314.14955 2393.70501 2235.89658 2037.34149 1844.03037 1662.19615 1376.99096 1267.24175 1491.74561 1473.86721 1375.52941 1063.26132 835.90035 568.11853 530.76835 314.88317 236.62322 -9.88429 6.93179
4.28883 2.78747 413.86586 914.10208 1472.22044 1886.75059 2136.15787 2233.96769 2046.45817 2024.06046 1914.72076 2263.98650 2541.35303 2510.03688 2425.03970 2529.02549 2941.82296 3306.61677 3537.60142 3974.70875 4485.47853 4925.84896 5109.11501 5236.00301 5207.92868 5254.58011 5272.60994 5211.11003 5575.02306 5906.62951 5909.04388 5687.04004 5344.27252 5438.43587 5247.83077 5052.11456 4801.03813 4950.89534 5095.03952 5270.73746 5611.34378 6180.78830 6415.52593 6669.27695 6797.00799 6680.00895 6232.98765 5688.13419 5165.49016 4669.76621 4494.90393 4186.89971 4018.24503 3807.36935 4091.53795 3876.81491 3629.18777 3892.19475 4243.68189 4539.14159 4975.43454 5302.02873 5743.06567 6182.42126 6674.90717 7130.17660 7058.44580 6815.72906 6546.55598 6148.35708 5599.75981 5147.16028 4556.07459 4114.86485 4225.86466 4597.00577 5150.31996 5248.59947 5257.78886 5176.90066 4642.81028 4250.78084 4502.49430 4450.95733 4949.24182 5334.05170 5849.86813 6339.26945 6861.61331 6864.39229 6360.09168 5964.23184 5458.98677 5045.16206 4651.74430 4281.52672 3855.36388 3488.12534 3427.01278 3991.31814 4107.05783 4009.88008 3624.64552 3578.67686 4046.73949 4411.82396 4550.96690 4352.62707 3818.02011 3745.81956 3651.65794 4078.12914 4429.86736 4780.69829 4817.10084 4718.23520 5166.55747 5374.56009 6203.40395 6470.19312 6373.75290 6114.56438 5515.45822 5239.95695 5013.63963 5143.75415 5213.71539 4958.22404 4813.36039 4535.73939 4599.20222 4938.09489 5317.89200 5890.56111 6371.67964 6429.66847 6067.61466 5392.17884 4788.36407 4620.57798 4520.24936 4277.94783 4074.65529 4050.17022 4427.14291 4888.36613 5330.34653 5925.30844 6201.50756 6043.88101 5708.89008 5234.64785 4857.05204 4783.32576 5245.21074 5720.08331 6097.90917 6496.86104 6853.79300 6948.83036 6733.29536 6516.71988 6192.76717 5981.14402 5855.07597 5768.38663 5692.58797 5657.32777 5840.99459 5673.47856 5651.20000 5475.88644 5520.01379 5525.64203 5417.16402 5147.85259 5078.55293 4872.72604 4635.68032 4287.16377 4027.76089 3528.97417 3123.35959 2995.01657 2823.66068 2747.38648 2788.86961 2342.43037 2197.73741 2007.20049 1717.59180 2002.14775 1938.24034 2052.90793 1731.33457 1542.08730 1198.91937 967.09823 935.12788 573.19361 296.48336 10.12423 -4.74645
3.66022 7.93283 500.17463 1031.57959 1461.26320 1887.42925 2436.69283 2611.29739 2499.58955 2631.19611 2491.31809 2618.94057 3014.97980 2948.85442 3041.95457 3128.32768 3235.02615 3589.06791 3906.06642 4299.30885 4610.10883 4847.78664 4919.45547 4782.09046 4878.08574 4894.95442 4872.04103 4832.17247 5385.08769 5597.13168 5583.03727 5439.28066 4948.73404 4649.70709 4935.89316 4807.33880 4559.63503 4514.37531 4616.60652 5077.30988 5328.73924 5779.52139 5985.99360 6311.59080 6675.33257 6795.98257 6477.73176 5724.41488 5374.01165 4875.12809 4653.92996 4466.63459 4234.52707 4059.06462 4165.09921 4063.00582 3857.72582 4045.71626 4453.57992 4671.91254 4934.58517 5288.74703 5750.59957 6355.92265 6785.56345 7210.22802 7274.11900 6983.09131 6609.53578 6117.49166 5664.89753 5165.15842 4544.16550 4251.32402 4406.89633 4869.81272 5306.06949 5678.86303 5640.48309 5438.25789 4888.85414 4479.03077 4700.33271 4797.30024 4849.48567 5424.32996 5880.78539 6371.94077 6837.03647 6760.99677 6207.27128 5906.44313 5201.96585 4938.27921 4488.22050 4014.08742 3776.00977 3510.83903 3758.60043 4287.01515 4450.86359 4144.00752 3771.01424 3947.23100 4218.07349 4633.02780 4860.80109 4593.20576 4293.56717 4081.71405 4026.45642 4024.51007 4395.19766 4851.60342 5072.90118 5015.91468 5438.57215 5823.45648 6353.97827 6721.35777 6602.52686 6184.09451 6005.98171 5625.31429 5525.51368 5609.71333 5438.02046 5243.57603 5151.61249 4752.64399 4823.21711 5296.67201 5507.57398 6053.64853 6390.31181 6478.65689 6151.36787 5493.20915 5045.94684 4838.40868 4625.20319 4516.07302 4386.41836 4352.74540 4433.49009 4846.18341 5446.09874 6019.75657 6297.51089 6330.15837 5860.28793 5260.64349 5001.83298 5088.64529 5283.62096 5662.64819 6083.17860 6574.99848 6890.64799 6791.63362 6387.43050 6188.16586 5800.03669 5394.89232 5354.09186 5344.41742 5159.56441 5042.40628 5307.53625 5103.09018 5013.66128 5038.89058 5187.93724 4993.77358 5052.20742 4918.84573 4934.67411 4685.20826 4637.10620 4479.60364 4194.34968 3894.18280 3555.28114 3417.73508 3440.99189 3252.61167 3197.14516 3089.12426 2769.61237 2628.98133 2279.51207 2226.66603 2359.92534 2375.60525 2194.22652 1863.05597 1765.00108 1410.54422 1244.75101 752.86951 485.73008 17.01384 11.21624
12.37522 19.43858 520.26016 1112.73878 1552.87624 1952.37923 2495.91458 2889.63742 3107.75992 3194.08874 3137.33641 3282.97940 3319.62736 3518.61875 3517.40653 3549.83183 3821.82957 4043.77060 4238.76125 4467.00072 4637.39762 4590.37308 4463.87836 4219.64868 4448.54491 4445.52546 4406.07513 4757.99632 5141.28441 5305.05987 5310.64893 5096.31730 4585.30692 4442.42939 4567.38708 4522.53871 4164.65964 4235.84746 4405.74335 4660.21223 4922.21768 5328.78488 5554.27376 6191.25417 6552.42498 6768.23299 6370.96094 5978.75772 5547.74802 5113.33805 4927.24771 4682.39864 4292.96158 4303.11293 4457.38130 4226.28601 4237.77398 4351.41179 4455.00304 4669.18229 4991.60644 5564.81370 5899.83916 6336.46140 6875.54522 7367.77013 7310.04860 7046.81937 6503.10474 5840.33642 5581.69392 4999.45882 4736.73358 4490.64774 4611.79737 4812.33614 5706.86823 5853.25723 6024.36704 5581.91335 5103.47849 4799.77750 4966.14313 5021.14771 5189.81067 5470.35203 5789.54888 6598.96977 6821.46959 6711.22883 6150.69672 5809.91358 5127.85757 4705.55569 4280.90934 4039.74358 3723.42298 3761.91433 4263.98581 4568.21060 4600.74696 4289.59085 4140.93711 4467.25129 4590.05968 4884.89060 5121.99537 4907.69454 4383.49783 4549.87670 4422.69947 4441.93326 4452.15036 4832.26353 5323.13253 5315.18562 5721.68934 5937.54511 6647.91217 6918.82192 6970.77933 6610.96637 6306.22271 5897.00528 5822.04340 5802.61972 5679.31846 5757.41252 5642.48961 5183.50720 5130.70180 5514.47810 6052.01695 6289.10870 6704.07175 6667.24346 6261.99897 5700.73190 5239.64720 5024.18266 5113.85919 4957.74727 4778.69142 4791.63540 4776.14912 4952.46072 5497.11105 5932.99237 6483.31120 6480.43257 6184.93113 5639.63915 5369.69445 5342.49237 5506.10898 5939.93624 6424.64377 6836.99556 6863.58931 6542.65240 5960.70659 5674.65001 5343.96645 4895.91332 4909.18795 4818.74438 4763.30558 4778.95482 4876.47440 4835.22738 4629.05702 4331.61280 4336.34824 4643.63597 4697.33166 4439.62719 4242.69080 4227.98005 4435.25775 4459.47582 4394.67129 4346.69302 4095.02704 3913.86576 3807.35571 3819.98337 3636.56716 3480.10091 3205.82968 3062.11966 2903.36442 2860.22206 2839.49370 2791.32700 2622.45815 2420.27736 2113.78386 1786.36719 1490.07943 942.83938 415.76954 6.15936 13.46514
-5.66280 19.71990 694.46637 1035.33209 1535.79151 2092.49502 2623.47288 2989.88722 3264.55611 3452.08799 3440.91339 3515.20891 3678.19094 3761.40984 3806.34711 3881.50776 3928.05314 3989.61658 4202.06188 4283.07850 4333.79227 4227.73225 3850.18991 3748.75254 3819.71948 3929.29618 4034.90561 4676.63653 4879.66899 4808.01124 4800.44743 4630.12771 4237.63980 4201.74807 4171.78652 3913.96022 3861.19335 4106.04377 4358.04855 4560.31673 4812.84564 5142.14065 5423.75483 6065.48796 6492.41768 6816.41808 6643.47673 6338.71063 5897.99235 5568.13821 5207.96238 5121.83877 4710.44602 4624.27343 4714.63978 4494.06997 4474.59566 4756.01129 4662.36444 4984.11958 5150.14655 5412.60059 6057.04728 6510.71808 7005.28627 7403.23004 7375.14046 7095.72207 6396.80064 5955.91377 5393.88721 5166.91109 5060.01359 4820.40390 4865.49226 5235.05773 5541.85827 5951.35719 6074.62710 5860.64922 5485.89300 5065.85150 5221.51261 5559.04949 5448.71621 5855.82292 6190.31374 6638.92016 6922.79968 6784.18422 6295.60769 5654.75788 5025.38080 4654.83815 4284.59908 4162.35380 3969.88324 3922.74744 4401.64620 4698.56498 4716.18468 4555.13409 4345.43240 4837.64928 5128.49234 5354.66400 5371.90854 5258.90668 4917.87690 4909.02935 5029.02749 4828.29177 4807.80694 5049.00172 5561.78172 5626.72345 5958.63778 6445.92018 6987.14847 7198.52864 7204.32049 7026.36514 6722.74925 6313.98955 6153.59576 6220.07253 6147.32672 6166.00039 5901.59347 5459.08618 5498.78976 5620.06115 6217.12055 6765.21810 6996.90115 6815.77155 6315.03275 5862.14274 5453.86864 5337.51475 5453.56269 5496.10210 5158.71709 5227.38811 4987.88666 5084.98239 5566.17299 6134.91382 6642.82277 6696.43320 6478.29024 6157.60020 5876.41426 5829.28038 5986.59367 6155.04373 6680.97709 6771.42866 6819.86577 6362.22885 6018.42012 5601.86575 4866.16347 4644.11022 4376.68908 4368.01135 4364.51499 4163.89109 4449.51695 4571.66420 4313.00563 4099.26073 3853.17395 4052.10975 4042.36469 4148.96255 3668.07195 3651.61439 3909.62467 4104.83500 4355.78550 4318.12175 4303.17472 4282.86291 4242.47875 4216.86875 4176.64304 3951.34261 3629.52443 3463.94374 3149.83444 3121.60476 3027.61308 2958.70669 2824.76628 2615.53713 2335.22178 1962.17303 1532.65953 986.30009 429.92243 -0.34766 10.45712
12.36075 18.22992 459.95216 1012.43879 1601.89176 2185.20825 2518.81628 2903.42430 3135.27997 3404.29249 3519.43051 3504.35062 3656.73582 3776.29651 3814.49400 3816.04507 3692.79057 3697.74984 3746.39939 3747.77169 3765.38125 3834.54711 3354.97504 3177.71254 3522.80673 3506.21450 4005.53014 4347.22729 4457.13738 4124.62959 4234.12281 4115.30024 4090.67930 3740.56880 3758.05091 3733.82991 4075.67059 4467.62717 4745.79342 4999.00043 5002.63795 5285.83676 5668.19410 6213.94400 6643.84489 6980.03928 6907.46761 6710.39926 6250.15065 6015.66328 5621.32948 5432.11736 5054.87610 4966.79688 4936.73255 4852.42608 5009.76137 5238.78584 5190.36469 5360.01681 5521.15339 5659.56155 6048.15876 6548.91846 7053.09859 7463.87965 7509.95915 7156.48347 6616.59551 6073.46111 5665.94277 5700.29140 5386.11891 5157.12168 5023.17698 5512.81811 5843.14399 6231.81654 6314.85547 6081.57152 5557.79649 5415.60179 5675.69763 5876.77467 5891.06755 6265.22982 6421.86813 6865.04026 7063.78438 6824.35355 6247.97290 5804.75899 5091.16097 4750.99919 4564.98747 4561.96802 4270.41722 4058.59027 4555.35956 4859.44142 5119.38954 5013.78598 4785.42002 5276.83797 5597.76805 5825.30790 5834.30428 5693.51194 5516.18460 5341.47966 5430.38091 5250.20661 5048.43965 5339.26955 5598.01328 5888.57678 6118.12902 6557.60984 7154.59392 7499.23878 7628.81843 7354.51384 7084.18806 6720.39749 6825.60457 6820.02013 6516.35688 6537.47953 6270.16146 5848.78148 6089.73885 6012.04264 6448.00807 7041.25327 7243.77601 6969.97733 6544.77517 6124.04912 6027.18804 5776.50047 5948.94197 5828.25643 5538.24919 5428.53723 5408.17985 5313.65759 5675.63309 6108.04452 6750.23687 6953.91233 6861.75146 6584.56543 6514.23063 6280.92524 6365.32879 6514.32091 6842.95361 6764.07764 6518.25738 6070.79822 5687.44164 5312.87390 4874.02422 4359.36424 4124.95706 4087.43567 4091.77559 3813.71337 3802.71669 4094.00969 4060.68942 3765.20241 3476.94042 3418.00871 3623.20650 3656.86424 3335.13156 3240.60595 3471.79143 3845.14606 3980.29759 4145.44848 4068.15413 4037.25775 4071.33769 4203.96690 4225.74756 4087.62295 3800.61928 3493.34814 3230.50281 2978.18261 2798.19036 2870.50524 2589.64575 2586.62267 2357.12524 1979.52482 1586.83029 965.41636 574.85174 -11.38693 6.87990
20.76658 3.03285 406.06544 1076.06039 1491.74743 1878.58837 2097.27138 2439.34659 2879.78215 3106.54899 3098.33831 3067.33855 3053.89404 3317.56877 3403.19110 3348.31842 3070.90400 3070.75381 2961.43049 3184.79796 3325.29231 3177.25197 2914.20087 2899.09037 3168.42732 3390.76328 3845.38948 4035.51491 3968.94540 3874.98066 3648.89132 3838.29321 3718.46925 3479.79481 3455.69046 3887.25408 4160.74646 4538.57452 5075.51412 5329.33055 5841.26557 5865.97585 6072.17721 6527.68517 6868.04899 7299.10783 7365.63584 7084.04931 6769.03008 6397.37792 6244.78924 5899.94222 5483.07893 5379.48329 5485.43132 5423.06361 5381.54561 5513.59432 5792.33044 5702.95259 5929.48413 6218.18379 6562.74519 6723.24559 7334.01233 7583.01452 7633.32854 7405.68543 7010.05434 6492.16478 6510.13463 6304.42669 5896.49235 5455.77150 5426.89651 5773.82968 6215.27991 6462.56098 6392.30522 6104.96984 5753.17875 5787.83105 6198.59183 6424.31010 6306.03885 6513.43409 6920.80570 7221.61702 7312.67127 6904.42510 6438.68302 5628.90713 5223.52195 4932.87726 4900.96198 4840.38314 4637.54338 4335.03893 4686.62203 5112.18874 5369.05530 5302.92302 5021.67227 5493.64164 5945.85053 6087.78345 6278.14078 5916.25267 5770.07635 5787.84679 5768.21144 5836.35112 5708.44022 5747.91302 6083.51115 6265.71427 6638.18912 6979.99368 7420.97882 7672.58318 7741.00857 7810.72486 7429.42069 7546.85297 7228.73224 7188.44445 6993.00862 6944.44877 6648.66540 6177.06632 6472.79801 6498.16011 6915.43319 7386.03258 7450.59421 7332.30485 6976.25828 6537.53605 6381.20060 6283.54199 6400.14011 6254.41028 6017.19372 5931.86444 5970.80368 5739.49603 5833.91207 6196.23086 6625.85352 7121.41511 7292.96523 7130.28984 6933.28558 6711.30177 6757.52106 6956.24613 7004.69751 6625.15439 6068.20717 5793.46447 5334.15205 5031.99423 4690.96942 4329.20116 3904.15093 3712.64523 3638.89925 3587.71918 3481.44623 3603.36223 3775.80597 3542.48076 3357.06458 3101.57323 3026.91035 3211.25294 2993.20703 2871.85846 3307.64208 3507.84399 3548.33472 3680.72298 3582.12866 3514.87667 3678.97624 3772.12668 3972.17644 3812.20544 3607.34370 3044.68884 2757.19669 2537.07214 2452.72748 2361.91550 2247.23305 2085.09402 1820.12539 1775.70850 1454.91137 948.81417 544.04924 17.53332 -2.36262
20.25029 17.41246 503.97231 955.50070 1129.57770 1647.49203 1908.48488 2377.28310 2645.86972 2782.24937 2690.13385 2596.67832 2636.96978 2895.45064 3128.28133 3038.49795 2856.98588 2482.24637 2633.98432 2682.64601 2890.65980 2649.97794 2399.76516 2472.68320 2898.33835 3364.87744 3550.02748 3560.56985 3482.03391 3227.69478 3295.10679 3411.86951 3197.35833 3312.55058 3602.73006 3937.38495 4525.28289 4875.20728 5439.86918 5767.98019 6052.43442 6294.36169 6448.70127 6551.88482 7085.58256 7364.99250 7453.53846 7385.10090 7249.42774 6891.53497 6619.03430 6296.95723 5933.65295 5821.35676 5809.53982 5842.61370 5992.33419 6063.45519 6261.20662 6209.13381 6507.32646 6850.59679 7038.51867 7191.05897 7310.02562 7473.07522 7676.74182 7563.16768 7376.70820 7051.48596 6864.89118 6609.48893 6110.15962 5916.78370 5808.91836 6162.73369 6500.40097 6665.07135 6649.58045 6571.72370 6279.44519 6319.62113 6584.81355 6741.14004 6985.87491 7042.61113 7227.39236 7469.32667 7485.30513 7096.66448 6632.49238 6047.80491 5611.89407 5561.38588 5491.81474 5170.10681 4945.74646 4701.37759 4839.01519 5297.21306 5675.76157 5732.21902 5418.63308 5668.06294 5971.98214 6540.88991 6631.31984 6563.30864 6231.27731 6324.26726 6447.04793 6357.85354 6131.03118 6014.67395 6402.93219 6631.63207 7053.68372 7323.90059 7606.04319 7757.39714 7740.47926 7837.64035 7821.43731 7765.58132 7650.54806 7618.36134 7478.31378 7318.39853 7015.20927 6634.56742 7077.87374 7146.93469 7328.66232 7577.19787 7806.76071 7668.43010 7265.66836 6987.58507 6944.55601 6863.31282 6768.69627 6576.91972 6401.37092 6562.32229 6257.01135 6000.32763 6226.77821 6454.72604 6949.40790 7188.61964 7634.39098 7620.97726 7415.69652 7289.47844 7242.27102 7186.43235 6890.95430 6349.43154 5929.90166 5351.44493 4935.03102 4723.93377 4332.66798 4152.59609 3800.06010 3558.11566 3287.76133 3222.19090 3197.06548 3286.68335 3415.40892 3060.68715 3023.69151 2791.93564 2647.38227 2677.38369 2636.53734 2524.86899 2819.41385 2992.41011 3060.32058 3210.58871 3122.62507 3081.21312 3003.83242 3345.00421 3558.02098 3703.16230 3420.57417 2954.19039 2377.69295 1959.32504 2024.83304 1854.34335 1818.45732 1501.89036 1285.31766 1362.25719 1151.26049 819.88737 416.20811 11.63526 16.62880
1.02671 14.92428 406.29946 790.36071 1113.21572 1516.07813 1863.52386 2085.83793 2128.92935 2308.02561 2141.35662 1960.83011 2194.93997 2480.58255 2528.15862 2426.76151 2285.44149 2106.53844 2308.72478 2447.75275 2460.42803 2124.61291 2176.30337 2556.92060 2917.97307 3061.77313 3167.15699 2946.02978 2939.09959 2857.38479 2917.08495 2915.79071 3104.50792 3577.54840 3903.47706 4322.25075 4616.02155 4957.31572 5572.73626 5895.98459 6187.96958 6218.55583 6623.30280 6709.43002 7060.43641 7210.22568 7395.96143 7596.13138 7552.08601 7365.05831 7157.00461 6759.05398 6496.66682 6500.40728 6558.60792 6397.37534 6544.87102 6473.10868 6662.23247 6954.93040 7006.20375 7113.29478 7127.22784 7078.16629 7078.42345 6994.99679 7306.17247 7540.22291 7566.15819 7553.79474 7169.21176 7043.39590 6457.94952 6377.26264 6232.67407 6513.46350 6822.85341 7179.50338 6971.64421 6916.57783 6957.33165 6839.96430 7086.94550 7228.78413 7295.57629 7457.44972 7570.01525 7724.81976 7684.93310 7424.02883 6909.44285 6310.35510 6125.10623 6005.03620 5688.62595 5445.38240 5271.13565 5031.20993 4984.92494 5394.38226 5895.61765 6134.02316 5944.47106 5755.89503 6370.42357 6766.81337 7072.60508 6751.13316 6846.63077 6827.06617 6743.42745 6707.89422 6647.38493 6677.19656 6842.92790 6916.61045 7352.57678 7444.22656 7517.29132 7419.25457 7421.65867 7621.84863 7504.00187 7767.62386 7763.17451 7824.83944 7921.18922 7685.16045 7438.10996 7239.36171 7470.87648 7601.27813 7805.13462 7889.39110 7972.63083 7784.28554 7647.41040 7431.87874 7300.10358 7271.08781 7314.68360 7127.33431 7139.28434 7025.52568 6718.89488 6657.64497 6767.99849 6889.71934 7318.83141 7562.12485 7923.87686 7960.59459 7795.51642 7639.12292 7290.27208 7103.01164 6897.90857 6268.12059 5886.98014 5456.26786 5093.24195 4705.00151 4298.52472 4001.52927 3686.09761 3469.01019 3234.36932 3088.74331 2981.25340 2952.13212 2845.82992 2836.07907 2609.52316 2485.60648 2298.26159 2202.31630 2131.19375 2211.13933 2443.33401 2642.18062 2810.48855 2797.54228 2650.68373 2535.38635 2700.90766 2823.85659 3231.39286 3261.33628 2941.61592 2614.37955 2264.94310 1832.67041 1519.24826 1214.91730 1162.22520 1052.43795 874.66496 844.93361 711.28188 533.25986 228.36623 7.85550 2.21970
