5.96044 3.60207 59.45878 96.56117 149.78477 214.07492 240.21284 322.97554 329.32435 362.69117 309.98458 290.55875 328.62749 401.29361 440.72387 427.85718 388.42763 347.67139 369.98904 423.51661 420.97882 359.27449 406.92751 488.89826 531.58185 566.99736 604.16450 608.86020 601.82854 663.74804 676.08650 715.14929 785.45511 820.83217 819.73950 840.26163 834.92756 843.18868 834.41537 812.23051 771.04856 782.64817 817.15672 862.95668 910.56843 933.72546 947.45622 952.36116 978.95697 979.31714 983.02939 976.32078 974.54359 966.90990 955.06091 960.91152 968.92944 972.41368 980.86192 982.98368 966.41999 950.86933 939.55096 912.08719 909.64644 864.74752 861.46320 868.67740 839.01326 845.21608 805.99203 782.73281 750.10952 719.75091 696.12234 671.99358 627.48379 590.70449 545.47022 519.07314 474.73724 431.05625 422.29328 390.83750 362.20340 364.03357 337.26568 343.56192 325.97358 302.32969 289.48112 305.57277 290.95404 303.03264 231.74502 283.37775 311.98425 314.46559 286.14229 235.15810 224.40735 188.36227 183.09509 148.96101 99.94796 83.80648 106.78450 179.70326 232.99811 294.80977 355.00974 455.08992 503.86164 559.51198 635.41775 700.47874 726.84644 738.23985 734.72229 764.86974 767.13720 772.26645 786.96966 781.00878 803.13771 808.42286 825.28449 814.33260 807.36373 833.93625 848.53522 861.47072 882.26764 894.39879 913.59304 918.90406 919.06677 916.85547 914.14945 896.52650 884.85758 852.34877 871.48451 849.40764 825.95374 839.43100 827.97653 836.93929 848.91742 877.30008 900.57922 944.70947 964.82139 977.96422 983.26424 977.86269 962.21145 937.54540 923.30403 893.24262 874.12778 842.59346 795.90993 768.95297 728.87193 741.28481 718.15126 684.20596 662.49721 600.38691 566.62111 565.27595 538.90724 479.26959 468.74525 448.83506 401.43992 381.92018 374.25057 386.71292 483.44261 514.87941 482.46044 479.77008 471.71792 475.13136 555.88150 547.97293 498.95856 427.97036 359.72828 277.46986 220.21995 213.92591 184.86715 131.57517 108.27708 87.98976 94.17006 102.17974 65.54825 10.49779 13.27445
5.97215 13.95422 56.80746 70.79596 85.57022 116.65202 153.47436 205.29490 233.42736 266.62881 239.19797 212.62533 306.62530 360.55381 382.80523 385.38476 314.65951 291.31970 338.15404 349.66184 330.20947 327.62112 400.82645 419.43455 464.68092 497.76938 502.87957 541.55646 621.53721 672.80502 729.14796 744.89080 770.81546 769.90548 782.46319 777.19999 762.80001 801.33726 788.67066 734.66233 738.91816 794.85211 839.54465 895.46638 910.56977 925.75090 930.00680 951.09737 960.29950 970.95741 979.12617 983.99920 984.11837 982.10050 968.47506 978.63238 972.17320 980.57466 980.69409 963.07178 957.76499 949.09436 909.00452 887.86621 882.03554 856.44398 818.97205 809.78698 789.67111 777.37029 753.11512 717.53807 693.27477 672.31479 627.30360 593.90616 560.24262 536.42346 542.66313 529.17856 514.10744 496.20469 463.95020 441.79957 414.25035 427.05899 452.55132 427.76515 419.23392 369.61943 327.06213 285.45524 262.66322 251.83073 215.86309 227.57999 262.40119 226.58079 212.15459 180.87746 153.16716 158.06248 127.97968 110.38663 86.01519 82.16446 108.20260 211.84932 270.45499 345.32408 419.27654 453.00812 496.72498 560.16645 633.45169 707.64836 725.45161 730.80732 718.93492 721.06844 730.33180 723.03205 743.94985 744.29173 758.83566 778.42798 785.28386 759.73856 762.79332 809.27109 811.20679 838.27062 863.02589 874.61520 899.89626 891.45797 898.71572 894.01754 867.12832 852.61652 840.45183 812.27994 826.23515 801.83919 763.03531 785.36202 779.06846 808.99840 840.11771 857.21724 912.52946 944.44572 965.30669 988.14936 983.44889 986.20777 969.86120 952.11393 935.61072 898.04051 870.80063 847.54993 849.29194 828.87080 803.71700 778.76254 766.61692 748.85139 701.99006 661.22872 638.37163 608.51027 552.25919 492.18784 461.10239 430.38720 400.96598 373.80408 354.67760 358.71905 386.40828 400.44834 382.83836 385.98718 381.16626 394.08710 463.88275 458.65889 396.94552 354.72969 304.40434 266.85822 199.17637 163.36010 124.02128 166.31644 147.68008 167.93544 196.02567 151.65541 111.91335 6.26029 6.59306
12.62418 8.25579 87.62836 138.36977 104.76946 75.38038 99.48263 114.72774 162.10441 186.47463 150.94934 182.83541 241.19968 255.57168 280.53701 307.73699 252.32852 262.37304 293.26217 275.55069 304.19372 327.13312 368.18305 406.16868 447.04295 472.58483 535.71649 568.16679 636.42324 672.48355 692.32531 710.96484 716.41616 710.78568 714.92306 709.12947 714.27857 739.03532 724.09300 689.04386 759.78344 813.45094 865.56353 881.77403 891.40673 878.25844 907.88057 938.70527 943.54822 946.77967 954.08200 981.58838 981.85188 988.38005 982.55084 982.62211 986.16111 985.68827 970.89827 954.35599 936.65485 918.41698 901.71781 869.47718 829.85548 823.18330 798.37074 754.13165 737.68233 726.42025 707.11599 673.76714 654.08817 630.85867 592.84453 603.90577 599.60274 594.99612 609.35101 598.01144 596.82474 561.77533 541.25765 532.11824 503.24373 508.31134 511.45943 484.76046 444.61906 420.09031 371.43623 325.34599 289.24163 241.22715 231.61676 233.11627 199.03857 202.93818 234.88321 248.96288 238.92449 225.50317 241.67413 172.23389 114.53266 77.53990 114.30728 201.23416 275.53673 370.43124 460.26002 526.65150 558.96063 606.54798 663.14187 684.30328 687.63396 661.43838 643.15651 622.81800 650.54665 652.04658 638.14829 659.15820 679.40210 708.82170 727.57144 703.77414 681.77792 692.45635 739.08652 778.62128 836.26816 854.79875 856.07043 844.77547 838.01592 839.79475 816.45156 814.90390 787.03728 767.54897 786.53830 762.94958 732.44401 755.47524 762.37188 798.21148 830.01671 860.12961 910.81919 936.84462 959.63874 980.08070 980.43119 988.88145 980.30223 953.75455 938.52925 938.14797 915.80051 897.59183 877.75212 862.20141 837.14159 815.03585 796.64792 755.96112 731.23054 664.01242 637.32749 608.27667 535.00006 498.12392 523.01003 524.66020 488.54015 455.17640 421.26469 381.59649 336.16851 329.28765 304.82625 304.30643 310.33146 323.46621 374.37368 358.60563 342.77833 314.42799 219.26749 197.01714 167.25801 173.54248 239.38452 252.58520 273.69926 267.16984 276.44707 207.84418 134.82499 15.14437 13.53375
14.67467 9.50019 104.18919 178.52654 231.89904 184.44930 165.82374 172.90983 150.50811 133.70698 149.32424 162.30286 173.05659 170.70432 222.46137 220.37096 210.34829 222.48724 245.25511 302.12667 363.98584 390.05380 420.54307 431.72382 421.22460 468.32348 498.61340 554.65846 589.99925 623.05839 622.70423 652.64886 620.09932 622.69688 628.47232 639.97615 646.24849 674.59167 649.17442 686.15218 747.99731 811.54012 844.95944 851.89032 854.53920 853.81862 892.18767 910.19400 919.35861 931.30698 947.63009 958.36093 981.19941 988.05829 995.35802 993.01578 989.35013 984.47561 977.32403 959.47815 931.57393 903.12553 890.53233 844.99346 822.71000 791.83447 796.18074 774.15034 766.79153 764.05537 767.01173 730.38072 699.12948 690.12258 625.86987 681.80348 688.01171 681.43391 708.79237 688.42929 664.81277 661.64294 624.75611 601.63304 585.01521 550.64955 523.72034 483.38807 432.75324 397.86313 334.81601 282.29275 273.62364 290.67239 299.32077 295.42463 287.75826 288.29677 309.76524 323.74959 337.07704 340.45207 286.41428 215.55302 125.86014 80.73789 93.63087 185.98512 243.75097 390.65539 457.45577 532.53471 576.73471 601.17716 641.62290 639.81912 651.81588 637.27478 575.67468 551.51024 567.38812 557.92010 542.78381 588.83681 619.18182 646.32520 670.82984 636.77594 639.28935 659.92069 695.47495 773.46670 792.94500 809.73661 803.17519 803.16503 787.64194 803.77439 779.56546 745.38611 723.74204 716.87217 731.01363 719.13622 699.67643 729.93964 777.50210 814.98571 866.22261 865.28095 901.66192 930.45963 949.20548 979.29757 987.22343 990.90913 987.41491 968.79980 962.46242 937.68043 911.17186 910.44155 882.69240 855.33088 817.76226 793.92113 762.34015 744.06802 705.25325 640.42843 617.06016 577.20792 568.85428 608.16361 587.99807 583.05554 564.34286 524.95577 466.79276 387.66474 376.00058 372.74780 355.97925 331.09287 274.93994 258.37959 285.36952 279.91353 263.09094 204.78977 177.98578 184.65693 182.01937 252.41834 296.68728 335.13919 384.47260 348.00573 311.61631 201.81893 125.91220 10.11943 15.09569
7.14781 17.14038 108.36378 184.26738 276.50550 305.06806 312.94365 285.48039 259.48566 257.43070 252.54318 217.90439 234.01933 257.59910 289.28248 230.24900 204.78779 245.99784 291.79008 327.16665 363.32612 389.70743 386.19299 360.70880 355.61099 387.20062 417.81402 486.29110 528.51337 507.68005 536.63018 538.49266 550.28039 572.33638 574.44568 575.20089 608.88809 628.60698 614.57750 664.22022 721.97893 781.84001 800.47963 786.74265 818.60749 841.62405 856.74169 845.56874 896.36210 901.55721 927.49464 943.25651 965.31695 975.99234 988.31870 998.10039 1001.42724 992.41525 976.93329 961.50192 933.91362 899.67891 873.26140 856.28954 855.43213 864.04474 858.92769 813.92520 794.59764 788.37933 815.17481 790.74078 763.24282 702.38037 664.13297 720.23677 742.09071 744.51437 762.93046 759.17064 718.99489 693.97069 667.09399 597.99273 576.49781 533.91473 485.40412 455.92183 399.54828 342.76411 307.58959 296.02726 333.22167 366.98832 366.93412 356.26942 369.96585 354.38600 403.58226 426.13452 409.64391 367.47161 267.42738 209.22529 113.92194 84.10875 94.89357 177.79149 292.66078 360.32570 447.48646 524.50847 539.22439 562.48974 541.85730 593.99357 587.59809 548.61758 492.54495 467.26359 504.71276 475.87129 494.16263 527.80344 559.68087 580.86148 573.72355 569.85997 561.60664 646.70938 686.02445 734.56978 742.32947 758.29016 742.12505 739.54962 739.59515 735.80653 711.70425 700.16038 668.77207 687.65096 674.24372 676.08107 718.42795 761.24666 779.84068 819.76142 862.14169 903.34875 926.33846 933.34904 953.15099 980.94669 991.49381 992.56638 986.35677 971.91411 950.13647 932.19009 913.77156 893.89693 871.47394 826.63311 785.81126 766.93476 756.57963 752.46537 717.01076 714.68139 685.60218 661.07948 637.03163 658.20308 669.50125 643.81823 617.15433 538.19312 465.52712 400.64710 412.53655 457.30198 464.16492 416.55482 327.81550 287.31947 257.22956 217.79694 206.36498 208.04231 248.45989 249.63746 265.81111 303.31935 399.93121 419.22135 444.45886 395.83761 315.19160 225.56638 97.28330 3.74502 6.60935
9.64326 5.64474 104.95108 227.93493 311.32009 381.97786 376.90466 355.61789 360.57419 340.00404 382.65590 345.12303 309.14539 333.53798 382.46549 353.05070 244.80113 253.74639 276.23889 290.32320 315.68406 319.53041 331.71938 347.75082 408.85901 405.42883 430.37208 441.06941 430.28095 455.58969 495.61214 516.76409 533.69753 534.95422 538.98120 591.94296 672.05116 690.20723 684.41925 667.33977 662.99762 730.62055 747.61991 747.43367 781.55878 800.85800 811.51545 839.88668 861.91113 883.81658 919.02988 941.96829 972.04647 986.42269 993.00447 996.27973 991.47691 983.06777 971.03868 954.44981 928.60688 914.16458 896.22612 869.29941 873.36884 891.35780 885.48629 861.71049 848.08833 855.46152 842.04312 798.30932 759.65770 719.02107 735.05481 760.79981 794.73974 813.45978 806.11837 797.12830 745.29491 684.85871 632.72695 570.99682 513.83996 460.78190 422.43407 416.14573 436.22024 411.66447 398.12294 375.42271 405.40716 406.86886 474.73049 460.27024 448.01523 448.83247 485.04683 489.78200 456.98638 390.09673 270.28114 199.27358 133.02053 76.78769 94.90524 161.35955 279.38487 388.78301 440.01040 484.99322 482.45582 439.57173 437.57232 494.28764 479.67838 463.75356 401.85963 377.52040 401.90743 374.92446 400.47163 457.96920 497.78862 473.36535 491.78395 499.96752 578.26766 624.37720 681.47541 673.25716 666.09518 670.19977 671.08450 655.01782 672.55279 681.05335 665.26042 627.62589 626.78753 655.37625 687.23450 702.68084 738.51019 791.12453 821.51227 838.69343 882.94862 906.70416 940.28298 951.39655 965.17896 980.36260 989.61197 991.94125 986.71988 980.47620 959.55416 937.14668 919.19214 889.58778 852.57547 834.10276 800.06304 805.92554 808.02256 795.16000 791.84028 771.96452 749.24094 731.62571 721.28441 720.29394 704.00909 661.13855 594.50243 507.45061 450.54147 470.11604 513.55463 532.36423 524.89504 411.81095 362.17717 328.28251 280.84172 279.38495 251.63656 284.22606 290.33851 320.84640 365.37693 381.65481 462.65516 494.75909 480.99808 393.61040 310.44939 221.97237 90.26576 6.08504 11.19777
15.51800 8.36219 88.87790 213.48211 303.65121 371.77577 444.93295 456.39066 455.61838 406.52992 460.97607 447.90764 434.01011 445.30760 445.62467 427.66234 329.73643 319.62307 301.91332 293.92783 321.39391 310.04049 337.24955 421.88737 469.03984 500.99232 506.60976 515.47780 478.20079 522.30416 517.56931 528.40820 605.10827 620.12006 617.94519 674.97665 701.79258 748.45160 748.23337 752.97774 684.67982 695.28809 710.56377 731.94255 772.70706 786.59892 817.96787 844.00561 867.83281 910.61857 932.18545 945.16990 972.37942 983.79893 997.40356 1002.89481 995.47625 982.56795 978.32596 960.53214 957.87586 939.31809 926.83190 907.11726 907.41561 926.44306 914.22834 892.63070 884.26450 884.54261 847.34534 801.24631 770.38027 771.01841 804.98780 828.97744 858.28127 854.18899 819.29153 789.01810 723.63194 665.71298 591.77883 549.30149 483.19747 504.76403 498.12232 504.54593 497.44047 504.18730 478.30241 407.42660 472.64129 510.49022 537.93880 540.28851 535.39989 536.95043 536.91141 525.10045 462.44546 392.92749 279.83420 197.76868 126.55046 77.32788 99.71184 213.04620 294.11220 372.78452 424.99714 411.09911 404.98103 344.62418 370.84428 374.22498 374.04085 385.41875 327.48184 345.12601 319.70350 315.11544 386.74951 420.81387 438.55523 412.74928 431.66234 506.27168 550.55013 551.24171 584.86293 594.63860 596.15041 617.72253 604.65318 604.46190 602.77085 578.61291 588.61343 597.98230 617.04042 719.97581 736.29893 771.30199 805.13254 809.23816 853.11320 872.66410 894.33331 911.86257 936.99029 957.93857 977.43197 984.54056 994.36839 993.62937 994.38193 981.53769 965.21960 947.29818 918.48054 895.27566 860.88820 843.18638 837.89140 864.00336 858.03510 858.84481 842.58682 814.59427 770.58567 758.15058 722.50549 699.80690 655.02596 602.38295 554.45896 483.86899 486.64684 528.81826 572.16007 592.80822 539.38474 452.23723 383.91392 398.59062 365.66909 345.79122 334.84074 355.53210 339.25475 409.25455 454.97958 476.67392 521.60272 507.34471 447.04480 393.52402 254.99763 172.10696 105.71495 13.22948 6.81530
9.73852 6.00160 118.39879 194.42219 326.77528 393.92978 460.69715 499.69355 509.65152 533.43937 505.64456 546.57836 532.72451 506.57627 543.36910 470.64073 439.68693 430.99407 342.88975 352.62339 387.48573 370.81201 331.92245 446.35782 502.95038 561.39616 593.66452 600.00356 568.58158 531.81276 549.22837 571.10035 650.67445 685.70834 715.22285 699.13422 727.02802 791.84064 808.21944 774.55217 767.30455 747.20351 761.06105 772.13394 823.41240 860.74969 855.96396 890.13222 901.58069 917.00570 932.35374 962.04576 978.51826 986.26014 993.70812 993.69980 992.78732 981.11686 983.14618 974.24120 964.21124 958.99827 947.98570 940.25303 934.80708 949.39447 944.75876 927.83237 904.12357 881.54245 844.27935 838.40083 849.49078 846.22118 850.96010 864.62614 871.13297 867.38841 802.23199 763.59604 686.62964 630.75730 602.87368 514.32029 510.40029 539.62107 574.11032 605.52717 604.48964 571.23939 500.81826 501.09154 523.64777 588.43429 613.59874 601.34928 599.00443 608.50187 574.65940 522.74169 438.59558 369.62112 284.04738 188.09793 106.48314 65.13751 105.89921 199.48674 275.22038 343.27752 368.28921 329.40337 291.27745 262.23195 286.30792 305.33874 302.10665 289.95633 274.80609 262.26868 269.91164 284.54632 334.99404 327.64823 350.19471 348.91197 421.58202 474.73882 458.27278 464.15139 512.81952 505.01682 553.94657 570.45779 524.57804 538.36791 543.49384 575.90384 604.70024 624.33275 677.55519 737.79097 791.15698 814.19904 831.96258 857.06340 872.91421 913.25012 923.09293 935.12808 949.31151 966.19656 980.79640 992.18236 989.38440 989.90293 990.45375 989.18387 963.58898 950.42275 933.07941 909.03511 889.97230 876.31408 880.50823 900.19182 900.79952 892.07719 856.39584 820.53293 749.17885 698.80438 641.46846 611.28368 608.08260 562.94229 511.74415 507.03272 559.40182 579.69105 635.71862 638.51557 602.17615 491.54295 443.48008 445.22124 459.18703 424.09939 445.77942 453.06394 450.00690 452.44457 544.21470 550.47955 564.68665 527.28817 460.65332 353.31818 255.30567 182.49031 98.52806 11.03227 10.62198
8.23989 11.60890 138.52070 206.44049 309.58621 363.31422 430.77377 464.99036 518.02761 563.00630 589.85558 610.63406 613.60229 607.00627 600.11524 582.43560 541.90646 519.24028 436.90330 427.64316 470.99845 439.33598 358.23074 411.06876 509.54336 559.91990 626.43796 654.15712 625.65624 601.47537 579.39791 601.07367 678.01032 717.54597 765.63494 766.28797 789.07774 825.02015 854.90938 821.44664 803.07475 801.21090 806.24771 806.72624 844.73226 875.13837 882.44182 900.23482 934.30116 936.00486 962.68598 978.29654 987.98508 992.59040 990.31445 984.26124 979.29527 975.78585 984.81678 980.70089 974.46756 975.56400 973.35166 971.35845 958.18177 967.35690 962.04741 955.31485 924.81446 892.58947 873.74962 881.80748 890.60819 889.85468 888.17077 888.60882 866.60491 824.09421 766.19852 711.68721 670.55971 576.61696 560.55394 510.10781 539.87341 591.06331 648.45483 669.63474 657.53957 627.26745 592.52254 564.10403 586.67349 637.37875 696.44022 683.09876 674.62707 633.13712 572.62700 503.57266 409.60713 318.99988 268.99505 187.16118 106.61400 65.74014 102.34865 167.46671 226.41966 262.12365 266.47223 248.09158 217.28960 185.07241 195.87209 196.55384 206.76161 242.96823 314.76893 310.11704 339.82227 351.24340 359.02369 380.22952 351.28026 350.48966 363.13267 424.05499 411.01264 413.74264 428.70319 442.39972 474.44872 501.31304 525.80226 548.77491 597.43651 627.48145 643.93774 635.99281 684.16067 741.37428 803.68588 831.04258 859.63712 884.42234 910.54208 930.48903 949.23846 968.04001 972.92572 975.99470 986.68748 980.63051 980.82108 975.65776 982.34099 981.55525 978.74110 965.51769 944.46383 946.30710 926.81902 917.02837 910.43589 922.43683 910.34774 895.31201 833.64353 793.04218 736.35717 709.41288 688.97896 634.47771 587.23030 582.69796 558.73611 587.62110 626.05383 668.55976 692.77526 659.94787 588.44100 536.16276 497.69506 512.46696 530.57958 500.00400 513.28917 513.04036 523.79449 570.31531 601.10010 628.38966 616.97522 548.06014 467.30660 392.01514 292.64639 170.30360 75.38101 11.16673 6.38114
14.93346 11.17972 118.33031 168.64270 258.79649 298.54705 334.49500 416.41511 472.03167 539.01389 584.48454 604.20706 623.15738 649.32361 634.55048 634.37379 611.73908 568.41614 535.48981 548.16103 542.75749 486.94132 427.24552 416.37439 456.50563 553.42664 629.96909 685.90146 697.79233 656.51191 593.43441 638.86919 682.18371 720.68599 790.94004 814.54721 835.39710 861.76477 886.21070 886.68306 853.06507 856.13934 836.96329 848.59386 882.75479 895.92847 931.96982 953.03946 953.48811 966.91617 966.37159 984.47276 987.37492 985.86318 976.68510 965.62218 960.23609 955.50169 967.60510 970.12747 962.62928 968.28940 975.37899 973.35408 977.13772 976.83006 971.22460 958.99627 943.05172 913.71451 916.65433 922.63770 926.57369 896.22270 890.69114 876.56688 830.28522 800.49360 755.80277 690.97733 617.21337 572.88007 564.08010 572.40224 643.41981 661.41876 676.90653 710.54104 728.73389 685.21189 644.75877 638.35542 665.54171 721.27377 716.28868 722.55792 697.17973 627.59336 547.91508 471.07703 387.49713 314.23748 215.10217 144.47986 84.58501 64.12675 80.99129 98.89861 142.60620 188.20738 204.62654 154.94219 179.35962 204.63360 231.99704 253.26873 259.52689 259.80562 360.49859 376.48266 427.37892 459.22789 476.02216 453.43798 442.16003 461.42029 398.35666 400.33105 455.90598 496.32023 495.56150 500.24977 470.94353 501.18006 568.71699 612.11269 662.09036 675.69365 701.73784 679.86082 703.90090 714.71434 777.49567 830.17783 862.68111 877.50082 921.89006 945.74834 962.23815 981.77979 976.40745 977.72219 977.81126 973.31060 956.20019 952.10862 967.35133 972.06690 977.04512 972.94726 967.59385 948.40520 943.63665 939.01414 945.79567 918.87894 894.65325 869.00168 818.18226 756.98469 747.30740 762.11571 734.56523 677.19891 650.13771 661.66541 626.54617 639.39500 699.98895 737.64101 738.66371 695.59706 634.60526 580.29387 567.29717 609.84667 638.02338 580.88077 560.49844 587.82910 623.16566 633.00320 660.13680 660.71123 629.78058 585.05679 450.96430 382.48362 253.97241 179.65002 82.64583 10.46417 7.24951
9.76209 15.82006 79.26105 133.46767 156.14041 213.02268 301.65367 363.13581 438.06545 519.28491 515.45165 563.84099 590.30282 628.59992 653.55416 667.11913 669.96966 648.05088 617.87891 628.30527 598.95159 529.73052 471.81638 452.56375 464.45016 525.54963 639.65955 691.59425 724.31414 737.36353 682.02197 694.29324 719.59755 746.01527 789.85456 839.56388 877.89351 904.82341 910.89027 903.12069 893.04666 903.79814 882.62083 899.97073 913.59793 933.85428 945.76803 963.11477 978.55901 982.41942 985.03418 989.85280 988.28717 987.51692 983.09410 942.53315 925.49124 931.27656 944.37330 943.46662 939.41800 961.52313 968.62991 966.10393 974.09477 972.66378 973.37868 973.03344 952.24331 952.12310 945.31326 938.72953 930.42205 901.84853 861.03380 829.94275 807.61904 758.74726 728.09727 665.03488 643.56934 618.57220 625.88523 651.55721 693.37714 729.77821 761.10646 783.33986 764.85242 744.62931 709.19502 718.29479 716.63234 743.62763 755.30523 726.24310 669.64834 580.10934 502.22253 427.36643 394.26631 299.81069 264.16744 184.74359 96.39616 63.68195 99.11864 143.21632 163.35561 148.33346 144.91492 157.99519 222.00778 286.49356 319.14918 311.20369 365.75990 327.93273 361.19938 433.89307 481.94222 493.55364 528.45344 551.46953 518.30979 501.06981 472.52189 430.36490 478.35474 535.47633 574.12680 564.02179 521.48754 547.18884 601.48673 670.75168 707.86783 718.40272 732.11737 741.71666 735.60225 765.19995 762.70495 802.27193 839.83504 871.60093 922.40733 951.37858 972.99214 981.48692 976.23984 971.58399 964.54003 951.14419 934.35402 920.83105 942.85212 937.51771 967.27400 974.60373 974.97265 971.23503 966.00868 951.94342 941.69329 929.45172 880.73010 835.33472 803.82890 765.85943 802.67287 810.90513 751.87648 711.10093 714.25761 726.38677 687.19198 712.08335 762.51075 797.80830 785.65440 728.97853 657.20142 641.03221 642.60297 679.78783 681.68609 679.36160 674.98762 692.14028 679.00412 682.02862 669.87617 640.27118 616.34389 560.61924 458.32359 389.04965 268.65807 199.01884 95.79011 9.13892 9.33888
10.07511 5.30283 86.87623 124.77889 131.16050 185.18523 216.98044 302.06164 335.13083 358.05859 438.71416 467.04517 500.85014 552.22348 606.66485 679.92453 721.90281 718.76656 743.42727 687.02782 636.80072 567.90230 552.32200 529.17922 535.78671 533.82154 631.29616 704.64077 753.01896 759.23261 725.53231 698.88751 730.86884 786.56262 833.96670 834.86603 876.46148 924.98617 933.35166 947.23088 932.40161 933.60691 939.31104 926.28738 945.37397 958.00482 969.39985 967.15774 976.81493 983.93153 981.92971 981.69945 987.99183 984.38481 965.10837 944.62948 900.09079 911.79882 930.86657 920.56582 919.74048 944.96089 952.64900 947.14996 946.47181 944.97357 969.36204 975.03986 961.92001 970.42294 959.28668 945.81376 921.98613 890.05078 832.11855 803.46770 785.90688 747.80571 723.00611 695.63717 671.73871 642.46968 650.86559 700.22767 711.82238 785.95369 807.70808 815.03317 822.85861 791.37026 780.09440 767.42384 769.11519 754.41756 741.03583 692.81449 654.14855 576.45422 487.05971 396.76706 337.43074 260.56541 219.01456 170.92314 68.37116 61.59156 95.17316 178.06829 205.65553 263.59056 293.16381 274.81476 294.62899 342.69531 396.10387 401.95853 421.64028 401.64522 411.67437 493.51535 540.16120 607.36631 617.76949 620.93019 577.69776 572.90285 538.06880 492.69215 539.97359 606.20789 645.61488 656.09403 562.07933 572.14644 647.40018 682.43269 768.56909 776.17971 773.25557 780.04335 806.79130 805.84679 844.43025 848.79162 857.29592 894.39600 927.81265 962.95313 970.02802 981.23011 975.34165 957.94300 944.23094 923.76734 904.69388 894.95719 904.30051 930.54844 937.79120 962.99108 982.48025 988.85691 977.02463 964.04977 948.31406 917.94499 891.50785 872.61351 850.00090 816.28121 834.38023 843.62775 805.86132 769.40343 792.40992 795.30430 771.28116 772.25670 800.92727 829.89472 810.51662 791.60533 765.02554 734.65570 733.02706 740.44424 737.25446 725.55793 734.00742 747.17252 721.07592 681.05783 630.42376 594.58083 544.82519 520.52207 448.96240 399.20029 286.77790 172.94683 81.03567 13.05795 8.40599
9.69711 5.12458 98.01811 189.63563 224.39126 224.29464 225.97869 251.91581 277.67838 313.99578 348.42715 405.70690 451.22367 489.23500 615.86578 638.65734 699.60002 749.32728 757.03070 754.03755 668.02984 655.93577 614.18111 606.65639 598.74696 601.56185 613.98851 700.63352 763.26770 795.73780 784.94256 761.64108 759.09500 818.52650 849.28116 877.13046 887.92634 936.12998 955.45871 956.96144 952.93445 959.00446 955.98725 960.34964 963.50769 971.64031 979.90507 979.25267 973.68027 967.18741 969.21944 967.32238 968.98223 968.38305 955.26838 929.44288 895.38437 868.88335 893.04889 878.25042 887.68499 926.37973 926.89336 921.73390 911.07210 928.81679 954.13264 966.53802 974.69389 970.15071 961.35443 944.80976 914.63116 889.95353 854.48014 834.81910 809.45877 784.03300 771.91658 737.70029 681.56243 721.22090 726.18671 754.81989 800.32968 836.47065 845.12472 835.34381 830.85381 791.78147 761.24396 753.96149 750.91680 731.95696 728.07840 685.77092 606.16821 523.51481 442.09318 384.78462 309.94342 246.95864 208.92885 146.54095 85.95923 65.23676 98.36331 185.48239 265.82678 343.63597 357.42988 360.51978 377.57002 387.50533 445.55046 502.91853 509.48273 492.58654 495.16398 554.94040 639.59719 683.37569 689.50268 677.23718 653.62066 644.99544 604.25976 588.23778 585.02191 673.00367 704.25768 680.93212 603.05760 588.41542 621.39311 713.35963 767.79029 782.53163 812.04647 829.83452 853.60922 853.99950 872.52545 882.49559 901.94144 919.43739 933.96359 961.43060 975.62611 966.80549 956.90351 944.05496 913.55352 905.26646 892.59795 862.44984 874.12470 887.89048 921.85397 957.85791 972.87899 979.49820 985.22922 968.72842 957.91809 934.35762 916.37189 894.37084 877.19903 874.71565 880.74263 865.02537 825.99624 817.02514 828.14562 845.19265 834.45318 829.96757 847.15019 862.45540 839.38377 836.44720 815.09368 786.81353 773.22371 774.58224 765.59733 768.26630 778.92857 759.45525 738.41024 658.87391 598.11600 513.70668 481.45892 417.59170 395.12379 324.31792 254.09415 190.03447 95.28502 10.73116 9.66798
15.42386 9.46049 134.46242 236.42845 260.12885 298.82246 316.91019 330.14086 349.16339 346.85188 380.86206 422.08877 448.72293 475.78297 541.03615 615.43328 658.15569 747.63373 788.47267 775.95406 768.90812 716.75168 691.03570 656.17443 631.93175 635.35501 647.05065 707.74268 768.53027 823.38792 842.21635 819.10227 819.53506 821.56694 856.03218 897.89357 924.12317 936.29672 955.79763 969.94333 969.84395 967.67211 966.52122 967.71008 966.67880 971.18681 970.57048 971.10438 949.41979 940.95700 947.53925 936.14433 953.49965 953.96267 955.16068 919.20685 885.80330 845.29502 831.21675 846.70354 876.27708 906.41391 896.88192 877.77193 890.02785 916.43714 938.78359 957.23540 973.88519 974.79583 970.03273 948.21627 936.60102 915.28664 898.37533 875.28490 857.78695 825.36192 793.98075 754.81215 767.46386 765.36585 791.50154 817.76885 834.76045 867.37425 859.37567 840.08160 796.93487 768.65169 717.11747 684.45719 674.40149 672.94568 660.13658 660.32329 626.97901 538.89985 465.83278 389.12283 371.73991 339.90346 261.59654 190.77908 84.46519 61.67928 102.18094 194.56767 285.18544 366.02910 428.91007 466.61920 494.80167 494.69709 526.28831 565.30850 589.02871 578.35231 584.26101 642.06110 682.82978 732.56080 745.74295 732.91897 713.15543 693.12506 677.64730 656.86029 667.46564 736.40516 743.45684 720.62829 654.77976 642.78943 644.57916 710.53778 763.17954 812.00575 831.95102 851.78288 872.65161 901.89725 910.24680 917.27633 919.92061 950.45500 955.02017 960.71442 953.55224 953.76631 938.78328 930.98079 904.75800 862.04090 829.55093 823.05796 845.46531 870.82993 927.84947 949.63355 971.29488 978.23524 980.14490 968.21119 960.88729 953.57119 940.52717 913.12076 927.65871 922.56164 917.38188 901.44236 882.24843 871.03102 865.06542 870.22984 871.15593 857.85354 868.06665 860.93153 841.16781 846.33445 827.33597 815.40828 786.67830 737.16300 731.71060 740.75892 757.35095 748.27257 709.81301 665.99523 555.17843 477.21384 413.42977 336.84142 305.09206 305.11997 247.26030 183.80095 114.94518 14.04686 7.21765
7.11356 10.58864 106.11761 228.39198 257.48724 334.34390 370.21708 416.11545 431.62059 477.33918 474.60518 474.03059 512.95357 521.03145 533.04696 586.02994 647.36839 710.56672 782.67859 811.58231 820.17230 790.80207 764.79656 720.37319 705.47626 711.78996 667.51362 695.07772 792.42463 833.31297 862.29249 878.43036 832.62054 862.32923 882.28739 909.41122 929.86081 957.18424 960.97538 968.72770 947.33228 947.99801 955.73374 953.61390 947.71186 952.07385 965.52879 956.44119 943.15919 918.12108 912.71095 913.01828 924.67150 940.19726 941.22032 928.22000 882.56547 835.31970 789.48870 794.37224 845.39234 875.44307 858.84529 833.54439 832.51821 866.02254 910.98145 940.57655 966.27420 971.97769 961.96272 954.92064 954.57664 931.22573 912.15889 892.17377 870.40657 832.81471 792.07994 764.75170 779.65471 825.63232 846.71486 849.32486 863.86321 867.22102 846.75888 807.08497 748.95985 706.69016 669.44619 611.75555 557.52061 575.85319 590.37017 629.28859 624.38239 567.63500 524.79065 481.26491 431.17984 372.15116 266.64230 195.75206 122.49581 58.89376 99.70701 149.21545 288.83412 347.33529 445.25295 488.78960 553.66410 583.83766 621.82179 665.21145 662.48597 663.64574 665.75182 697.34510 757.04807 766.66078 776.04561 778.66930 771.19931 763.96024 755.14859 739.91482 744.15908 765.95843 782.83806 760.19741 740.23575 702.00777 715.69805 712.95361 727.82454 802.37610 834.14556 869.04694 889.07579 925.70643 935.15493 943.54860 958.69427 959.87568 962.38830 961.01750 934.90593 909.10496 916.56281 907.28091 887.79679 848.20018 807.93353 801.52609 840.14430 874.68373 911.50605 945.29039 967.48213 971.59172 970.62593 977.61397 978.53735 961.49017 953.74746 947.71307 956.46159 947.62113 938.59406 920.92070 909.78495 904.82346 895.37595 876.13757 858.07469 842.77530 850.70162 837.87303 813.43940 821.32666 810.25730 804.19376 719.74378 673.24461 664.78758 688.92101 706.27659 706.93644 678.70723 627.42755 584.04654 462.09455 416.28454 334.01775 279.09873 243.08563 194.40179 139.89314 81.48150 8.37989 10.32558
1.03087 8.10280 89.41348 156.65084 239.19935 302.18830 346.50064 428.18064 465.38065 516.45080 523.52784 585.94589 604.35187 595.00247 609.05199 650.48351 662.71441 734.82718 792.37930 839.57352 852.87417 847.68016 810.09541 801.91332 771.78311 742.72612 742.72627 738.03355 776.28459 817.42249 882.70845 906.68468 896.42599 909.42643 911.60854 936.77247 955.38536 969.80413 970.25176 958.97080 937.91589 910.32824 914.96336 929.90024 922.09596 932.68767 942.94693 942.72549 933.37393 892.64900 881.33692 874.92108 895.56473 922.26643 934.30210 916.83335 882.14575 828.44853 768.24845 753.19847 810.25916 837.85550 835.81824 796.74832 826.92200 877.32830 911.76648 928.80023 937.46392 960.14801 972.19524 972.13701 964.39421 950.50793 926.56896 902.20492 867.27373 831.01893 797.77039 818.35146 834.46828 854.62877 857.51613 842.29896 829.43112 827.58716 833.46528 786.39399 753.14130 673.65878 610.57532 535.72077 514.11707 512.18832 528.68168 545.05338 577.95338 555.21958 537.15477 519.23543 442.59973 387.90499 267.88412 182.81171 82.39094 55.14956 77.32280 188.55332 249.40510 340.57837 425.46761 483.98734 569.61760 632.05335 655.20831 678.59594 691.46787 699.30966 704.74022 730.20859 746.78024 759.38255 777.93855 783.05986 772.17475 778.50127 783.68994 794.83156 808.97384 832.29502 834.76870 796.76399 781.07522 775.27766 778.04594 766.01199 775.49832 806.12055 843.94886 882.02127 908.52387 932.20849 948.83300 961.55874 975.44018 967.90028 950.97339 941.15168 901.15984 884.62611 868.63970 878.16474 878.91273 837.01805 803.27120 811.02509 849.75839 880.19357 930.26421 945.17483 947.89343 946.25705 956.10836 965.56354 977.14476 969.80608 978.08552 966.05227 964.31566 962.13080 939.04365 932.36506 927.70986 901.14797 881.73373 859.34098 826.04746 782.98728 780.04682 758.49902 738.69534 753.10941 770.01638 761.34482 693.86528 615.33207 583.68261 578.33574 622.82399 633.07509 597.31512 598.54532 588.37220 553.53201 498.06269 376.12639 344.50529 260.30094 175.28977 140.58887 79.25368 15.99475 9.01541
10.38606 16.46787 77.72312 142.92438 186.84183 240.50590 295.02607 380.86137 477.44988 537.27888 617.60870 652.67560 700.90942 682.86858 667.45758 685.57731 743.99038 783.34782 814.39067 855.69146 879.29051 875.12180 850.62215 846.60302 811.03188 820.39282 810.89844 805.64963 813.08768 856.08923 891.33359 925.01597 930.37030 920.43005 936.73746 948.15603 969.01241 968.65338 950.39694 927.29721 914.39022 906.27334 908.98446 895.88341 891.50905 884.21520 908.38635 925.13337 913.32355 849.51969 840.32177 844.81858 862.39735 892.82122 912.99161 911.43260 880.72649 833.59162 743.08562 711.57772 771.22957 784.45830 773.51959 759.93865 828.52194 854.11890 895.73289 894.86909 903.85494 929.34123 950.27393 968.14638 972.93942 959.83821 934.15680 908.67976 881.40139 861.65298 864.83624 871.56187 878.20014 861.16500 834.40654 798.53648 780.81211 774.68796 756.14328 758.17627 722.66437 678.87321 612.09693 535.84800 469.72131 453.22622 423.81568 444.94490 507.37777 470.10989 464.49897 456.47161 430.35226 365.14374 262.60363 161.19911 91.04934 64.53803 86.41732 135.18847 236.61034 288.42159 378.10452 477.20397 536.47225 631.74683 646.24116 647.62193 676.54860 677.04097 667.06651 674.81826 703.88648 715.00286 706.01876 721.08178 717.15215 746.82306 761.73825 802.82564 831.73972 852.00905 867.94979 855.78672 846.02250 834.09542 839.13252 832.06653 823.94520 835.44891 881.84446 900.11638 938.46898 948.94206 965.91169 977.71324 971.75277 959.47004 945.83249 900.81830 894.74641 858.83195 820.79194 841.57445 848.79025 778.39753 742.07123 784.56139 848.47103 892.37805 929.58319 932.86206 924.84745 911.26715 924.42821 958.36371 965.65559 969.04534 973.74621 967.86618 961.21316 939.86968 932.38484 907.07900 904.40869 878.14914 864.59205 825.90671 783.37415 746.34371 711.49433 699.48324 670.33054 678.67339 723.09817 706.69011 654.05012 571.42760 532.30453 486.31299 547.24745 564.89522 525.01455 534.26150 574.99388 563.81186 513.08513 470.26463 374.32162 309.61548 225.59742 183.05624 96.09889 7.15249 10.26027
8.20245 7.47388 105.39280 190.11093 260.56979 289.86328 341.40097 409.04201 475.61170 544.81673 617.49332 695.53108 736.88863 750.44805 756.56129 766.89303 789.34922 819.98446 846.92136 865.45350 895.99937 890.13660 880.14908 874.72270 876.35620 853.19178 857.99736 847.68412 864.57493 873.96784 905.13622 936.89426 948.83377 955.43475 955.42846 951.85340 963.25102 955.52584 935.95180 906.99171 877.66755 827.15853 850.44957 866.69468 858.54331 855.80510 890.68620 900.21758 881.78321 840.34034 811.92204 814.43207 816.69604 839.08270 889.25494 906.55790 888.91513 838.93084 777.01928 699.47112 728.78930 744.78979 724.73325 769.35233 819.12375 826.24625 871.67736 853.53668 889.85968 911.93903 938.06848 969.36305 979.51813 970.54344 939.72728 919.89441 898.37647 900.67024 896.50245 894.32620 881.63410 839.07531 808.04583 767.23671 692.34288 703.07624 715.04955 699.79864 666.62049 645.93046 610.77299 548.54195 475.55481 408.94620 351.15399 396.27488 416.26330 370.75419 353.43979 367.74149 384.61632 365.66154 279.47142 178.40852 104.05116 61.03798 85.32661 149.25200 239.24671 291.46230 373.97639 504.18164 550.67911 595.66444 598.24118 589.55032 585.18884 601.66184 576.26162 601.90491 620.41836 627.77797 644.70968 656.87174 631.15029 717.82049 733.37081 784.62665 824.86752 853.64160 874.71860 890.83911 888.48182 879.31318 876.87559 870.66041 874.57149 886.16836 901.87393 931.11797 940.70948 956.37613 973.26078 966.29869 966.68529 943.06578 920.79018 883.61381 853.17083 808.00463 788.62077 814.92036 773.79676 752.57263 720.11516 783.17745 825.71336 866.42737 907.41323 907.38458 890.91073 882.58291 903.25600 923.12628 957.13229 969.56904 973.43400 961.64206 931.85802 924.23981 887.77366 868.25459 849.28724 825.10670 828.36291 792.88421 765.21838 708.90188 633.85727 619.83845 605.26068 605.23554 650.54239 635.63721 608.69241 530.16071 456.69805 450.84661 494.21863 485.64824 429.37416 447.01342 487.49206 510.22618 505.30434 481.36883 407.19793 375.20314 272.40151 208.24874 106.41013 11.91166 5.07060
8.83947 7.55576 141.26588 229.83213 319.10915 369.16835 438.23782 479.58959 550.00891 586.50600 634.23534 710.08019 754.14879 798.06591 806.21717 806.02896 810.50131 825.91437 837.79935 852.91130 851.91403 861.58529 868.36705 866.67436 876.81557 872.83754 868.02197 881.43787 889.37512 916.91644 933.32669 947.34956 960.94411 960.19623 950.99108 942.69671 944.23221 943.06111 928.58040 892.62398 850.16727 805.52217 807.96715 842.52180 824.30239 826.53660 866.77985 884.15369 858.03724 815.22698 762.67288 771.64312 790.60806 825.59192 872.95595 901.43772 889.36636 841.35227 776.34204 729.39412 659.84603 681.55038 671.36380 753.55444 785.95982 788.62104 795.43782 812.60213 841.09887 868.24162 942.11403 964.50359 975.20896 971.95315 955.52365 938.45428 931.51010 921.55830 917.15775 895.45748 856.28405 810.33226 764.24009 715.06835 635.89098 649.25195 614.85045 612.05260 580.28681 568.24907 569.56891 500.47740 443.96369 406.90834 307.84171 309.31865 305.42295 293.43412 278.65944 300.67230 304.47108 338.66657 302.34636 184.86238 78.94658 54.80663 96.92688 173.57639 234.59691 335.85938 413.18836 443.39264 516.10909 537.79142 532.95969 450.47702 483.96442 492.27646 531.09642 538.11177 549.52322 528.55576 555.92756 566.46793 584.47881 613.55002 692.63310 727.94451 773.53267 812.17917 865.86541 897.29110 909.01400 931.29726 922.15715 914.67851 921.33248 930.34691 933.25375 940.01546 950.89623 962.70351 964.14825 958.45508 948.67343 936.08681 920.37982 896.92174 859.06836 792.84049 731.99649 756.55519 768.02515 704.11095 699.51615 777.99672 804.49717 868.20093 887.96943 895.12893 865.38585 850.14518 890.94615 917.90507 948.86555 958.79893 972.41411 954.25181 920.04325 903.49379 864.39781 833.64541 787.61465 773.30716 770.16532 734.86520 709.78554 680.83389 620.82150 571.95395 539.88956 576.65066 570.43064 560.48330 571.66142 515.32038 418.24912 383.35565 395.96907 388.84947 379.19167 344.33878 404.46148 450.94231 433.50724 441.48803 362.11679 346.57187 289.10154 193.15857 113.85020 12.71869 6.69885
15.22854 7.11078 100.45593 227.68528 313.57977 388.20412 469.69315 510.47233 581.96013 632.91568 664.92500 721.42051 756.80363 802.53608 828.36374 813.59668 799.94656 798.16899 780.88221 780.10961 783.70408 802.90031 803.97310 809.94151 807.95558 841.84257 848.50059 878.39497 903.22311 926.74292 948.20983 951.07655 940.59232 923.88160 912.41409 912.27322 909.43705 933.05660 905.42577 868.00604 839.27561 774.50419 754.30817 759.80117 764.58340 792.03248 856.24191 871.25055 837.31681 790.86882 737.74006 737.49195 748.91158 807.04520 862.75052 897.47582 884.87162 843.61933 785.04723 707.29507 648.25922 614.79239 686.91482 732.83221 743.07442 731.03688 746.71271 796.69030 830.02025 880.57567 924.34989 962.13787 976.41897 978.80453 968.98104 944.67015 956.61949 947.22881 922.19855 884.44671 830.02102 783.92731 721.83674 649.95904 616.04937 552.27277 548.77862 517.69439 501.49244 481.40161 444.52060 448.84197 398.97333 321.28166 280.12504 276.04931 265.69269 247.59735 217.01938 187.61300 243.00355 275.82042 254.03865 203.70028 69.08634 54.48613 73.67358 178.24561 236.86363 344.93722 388.04481 410.23901 448.91223 442.53300 439.21467 405.02665 433.09687 423.87232 446.64373 464.35692 458.60484 477.91563 492.37072 525.11019 550.04076 602.42987 655.71091 697.79409 748.43517 782.91353 861.69188 884.78691 899.33068 933.01401 934.85246 941.25235 943.70072 934.09062 930.12722 936.22170 933.79400 939.78230 951.67936 947.31217 933.61722 900.72499 902.02000 882.62608 849.72717 803.20544 733.02142 707.92605 717.83830 674.68387 697.23107 736.41851 786.54829 862.15351 869.52195 840.37721 806.24530 810.86176 855.73406 904.28901 930.52069 954.61834 972.33789 960.85829 939.35645 900.38425 865.60646 824.80707 767.98310 743.72957 720.47136 677.20507 652.21094 621.92105 581.29097 606.22800 571.77200 502.31282 460.57462 506.40938 513.64106 493.91385 426.33394 334.66140 325.04847 322.48405 285.09459 251.04241 316.17412 368.44535 371.43694 341.29633 309.50083 297.06297 253.90471 188.74662 95.54828 8.16720 8.89673
9.92928 13.78978 94.08187 197.21811 270.19299 351.61780 407.73041 488.72508 538.99672 600.43525 624.41817 679.57769 745.53252 795.41422 796.60774 786.34171 741.50644 725.28761 736.84114 733.58049 752.81512 747.23657 750.47621 765.19688 772.75519 779.84957 806.33156 856.84624 883.09597 912.07515 943.10346 944.12437 922.42559 881.85088 877.20986 866.19149 888.18888 889.34792 886.37213 847.50788 815.15963 766.86765 734.93244 713.97738 742.45278 779.10784 836.55171 843.32215 819.41235 766.97200 711.11393 701.18158 732.04928 790.30211 832.35787 874.49246 860.35443 819.32095 762.22793 719.89991 626.76432 607.93866 665.71715 691.64822 677.73807 709.44849 780.17590 806.16967 873.81387 904.32215 928.19834 953.44387 974.22873 976.44090 979.01045 972.33376 969.85713 943.90892 909.53418 877.71077 812.76714 765.78836 721.05404 663.44278 613.93712 548.85178 512.14035 495.94747 458.25483 430.61894 412.00636 384.13303 347.04230 355.60129 335.35630 349.69895 361.60243 338.18618 263.45046 227.27317 195.92375 187.50182 179.53430 138.32774 65.86121 47.80288 68.77158 150.75885 239.41536 305.32545 311.33302 326.24813 361.42955 352.69419 322.50192 332.77176 338.81686 337.42712 353.69221 367.86839 420.42298 432.75071 525.29989 582.22732 577.75168 610.91786 627.57820 676.72553 724.44707 794.07312 822.75079 857.59117 900.80546 928.48517 945.38640 950.81588 939.81886 923.81058 919.72601 900.78078 889.27670 898.29583 930.18382 926.01041 896.93861 860.76124 865.27132 862.85276 824.70481 790.65389 711.08564 662.36879 686.02914 664.68784 662.04612 733.88459 798.63482 845.11121 829.45397 807.54536 778.08765 798.49015 854.49040 890.44036 930.93121 953.38832 969.61168 960.06615 948.03556 905.30289 874.46464 843.28661 793.53940 794.67213 784.97934 768.85011 694.88310 654.55159 646.59646 649.29293 605.14530 538.90645 482.30293 437.95931 457.76500 464.13023 386.96539 300.42538 301.16081 294.82902 289.61760 240.61954 228.58602 258.49091 282.60574 243.81699 214.71708 191.67490 164.51675 129.62340 57.54957 11.39538 5.74423
7.06297 2.75950 79.41723 110.06087 217.26346 282.93815 362.81656 396.20866 482.22794 507.97092 617.97911 668.16745 725.37296 741.41384 730.51738 715.00665 692.97456 649.00067 642.42651 640.93792 667.85951 676.70660 678.48957 675.06307 723.63578 739.67012 779.12171 831.01618 864.39701 918.43551 938.85688 925.35782 902.91664 863.29618 823.53831 842.95550 840.20291 850.91657 858.96436 833.13931 772.00838 737.94409 678.94420 671.89729 691.28053 737.57790 796.98610 809.13071 784.04723 710.54120 675.01209 683.97525 765.14952 805.64692 842.16570 884.61528 854.63900 794.24436 720.91634 669.32030 599.36138 583.86147 644.91018 638.97298 652.21668 737.61244 795.38710 857.62660 894.92290 914.55419 926.63352 937.88453 972.66782 987.08629 982.23077 971.39452 965.16921 946.60051 910.36510 888.68536 834.44890 785.69420 740.90633 685.20964 628.91382 574.82551 577.47732 550.38475 581.70181 514.44024 459.66281 429.47288 431.95133 450.45242 448.40535 427.61325 441.54977 397.18697 345.72680 281.39265 194.81748 144.00294 95.89553 91.55962 58.73691 45.66316 75.66089 144.32333 170.26445 207.45908 251.67176 223.38542 250.96004 267.49594 274.49725 270.56896 280.30198 316.39802 396.71017 431.52776 498.65055 541.26570 584.11124 641.69503 658.81835 642.57480 691.51573 690.07126 742.96063 764.09787 806.07258 850.21828 892.49353 934.18507 942.62274 936.81799 913.67222 904.83195 883.23890 841.74862 848.83199 889.05240 909.98097 921.13651 895.02517 856.07508 806.75610 802.60744 814.05638 734.82625 687.62031 630.26239 641.24544 603.69391 698.20539 761.18251 814.90413 832.46963 824.93813 770.03469 771.96391 827.50569 853.18528 900.52931 928.61243 945.08787 960.12096 951.71942 949.82254 916.51905 891.75814 875.79912 842.54482 846.51255 833.00017 791.06553 763.37753 706.35089 692.33709 707.90626 646.01062 592.81190 520.87973 466.82760 368.69468 359.16533 338.20384 368.28291 400.42144 390.13719 361.21426 321.79649 241.82844 187.19504 177.85893 187.26920 135.78641 116.05425 119.11072 106.49320 63.82532 5.98401 5.93004
12.67525 11.82810 72.31485 172.84928 202.00536 255.00624 327.46486 376.69612 451.68038 527.85155 589.45404 667.75505 685.89314 695.88502 661.99553 674.04140 626.25622 571.07799 570.19850 573.35797 589.77425 625.71774 617.80726 625.51408 655.46895 721.89598 770.53050 808.86592 865.01427 920.73463 938.89545 936.05948 889.39106 855.35430 821.43085 787.49368 777.61862 810.17993 818.65155 814.29868 773.40810 710.18589 649.91828 640.25566 658.22644 729.80144 779.54205 768.70191 710.76654 679.05039 642.27777 689.63273 770.82929 802.23035 866.58849 877.15278 850.56441 788.58850 725.62358 655.79570 570.33671 557.07386 589.45835 612.26126 684.98709 728.98141 808.53575 852.58329 881.94503 901.99463 926.12558 936.18496 953.80088 971.79734 975.24115 964.08103 941.16883 929.48843 893.77543 863.00362 842.61359 796.25981 756.01650 679.04172 630.47587 670.23315 693.17786 645.62601 634.96340 558.24854 523.22244 501.29910 474.01981 514.30827 540.66621 545.18704 520.65226 449.08628 391.97548 322.58213 217.73133 194.03070 148.03402 119.43899 64.72394 44.82275 51.09619 86.32545 118.54282 159.14510 165.24478 206.93158 199.86031 215.88858 233.04459 283.21577 284.42792 344.03557 429.37131 457.56596 512.73084 575.08808 587.15363 669.45785 699.04360 726.05756 721.57457 767.43985 794.50942 803.60022 839.51497 848.82133 898.83928 920.89597 933.89441 909.38808 884.00092 870.90827 852.26723 808.93535 805.53513 861.29149 888.21549 910.00500 892.20839 851.52866 807.63003 769.30715 783.38533 727.85914 670.96256 581.66806 596.22686 622.69283 705.17139 760.14458 792.78180 793.44667 771.59392 719.00271 741.47557 820.61014 863.37348 909.61616 932.57065 935.27619 940.33678 936.00276 938.63946 945.73704 913.23377 900.80561 876.75928 892.48051 865.92957 814.19013 774.65723 770.65351 757.31070 726.79888 684.18366 603.70724 554.76771 469.75717 379.99994 411.40790 432.98478 457.89216 487.25139 484.90587 442.04526 359.45239 282.72605 238.42334 210.12199 214.98703 213.72804 222.44158 203.59376 163.90402 109.59955 8.59351 5.59915
8.86389 10.92383 93.51303 199.65526 245.23812 290.98895 329.28692 404.05894 482.34521 538.84308 580.99832 598.49749 590.92622 584.62297 592.64301 629.60113 624.52309 536.75623 462.29115 527.32329 559.50430 548.40431 585.93715 607.56707 665.23185 724.70038 772.87725 830.97952 886.65787 913.77861 933.27308 919.13919 888.50370 839.11282 789.76768 734.68548 717.17345 745.18784 779.31484 809.48053 762.23308 731.92657 661.81182 608.79202 638.08090 723.38584 756.86244 714.57140 678.76615 628.95431 625.85844 707.95366 787.35313 836.16676 870.32750 878.60767 816.86201 776.83653 684.73380 606.33025 536.63226 514.42476 535.43629 558.90510 661.47303 730.11146 791.75184 852.92808 865.68826 872.38750 883.79693 909.05364 946.29603 959.61659 970.33701 965.13974 941.00892 911.94208 898.39607 839.87635 807.93519 779.15083 728.99591 679.72612 686.41734 731.73754 743.77614 741.88981 698.44360 653.39766 604.49573 580.17368 540.44505 590.29264 606.96941 580.85546 533.15363 476.48803 416.62937 333.84238 253.05046 215.43271 187.03478 147.25041 60.67213 54.13399 61.47635 114.16665 196.51164 244.25017 305.61807 301.37858 270.52379 323.80468 319.68714 341.02947 360.01882 385.60166 392.61591 457.30488 507.25292 547.29294 599.70861 656.59576 706.82822 751.60264 777.60761 818.86629 833.64825 854.91063 877.29655 894.00998 916.28224 931.58331 922.80723 901.23646 858.42609 828.94042 804.90455 782.16956 748.58122 817.08779 871.25023 891.08868 888.14374 859.71545 781.36706 727.70651 731.09226 718.92230 674.28925 566.28235 548.84196 623.88304 679.32838 746.24842 756.10223 737.09903 708.32253 682.28930 747.18660 799.26144 864.97294 904.38631 913.02908 904.59996 908.02861 917.33395 934.91272 944.45667 941.39398 930.43696 917.66085 906.12377 873.86462 837.47184 808.48058 765.85328 731.48984 696.44739 656.25612 598.79002 539.61506 470.64395 456.93446 494.72544 509.38129 551.38998 570.17208 550.81175 486.30630 408.44566 362.20157 300.46321 299.21423 335.28436 323.36626 308.41626 270.39640 174.27640 110.46516 8.44252 3.25783
12.09985 9.19833 112.65019 233.18831 304.99854 360.51563 381.58904 422.80060 472.24763 499.11877 528.19021 516.02337 536.63296 523.62537 502.36461 564.27069 516.27091 498.96171 441.25559 493.99157 507.89268 550.23207 601.93478 598.35563 674.51173 717.91298 767.97785 831.36462 862.41983 913.38021 926.61316 910.95765 879.56052 830.04532 791.33753 757.24141 683.15208 692.89524 761.55364 776.04673 773.15440 713.82936 668.90368 588.25744 623.38075 684.59554 711.19924 677.10376 597.51164 586.15996 641.94786 732.71669 788.37110 838.65181 871.39344 862.21662 809.33981 736.03427 671.16906 582.56631 486.90305 473.30615 505.30767 579.56380 641.47616 743.44556 779.56461 811.08254 801.89427 838.59531 862.61013 910.74558 924.59729 938.33356 953.86060 957.99723 957.63798 926.63271 905.99238 872.31294 819.14380 757.20848 734.97736 736.34218 730.52597 771.55164 792.84437 788.25307 752.07890 729.15528 681.87296 649.20846 631.40827 637.23094 623.15788 585.38207 522.36691 471.42506 414.23281 360.74794 335.33430 288.37783 248.98766 173.27075 86.37095 45.46608 87.49157 142.52851 228.36625 312.12963 391.08033 397.32761 409.56257 365.61858 390.55452 439.16343 447.28479 427.42207 392.71198 400.08551 436.08645 490.42136 530.56653 608.55679 657.12552 728.95189 775.78021 818.11574 864.34766 892.37576 914.86629 921.85735 921.98233 929.02696 910.04594 853.39522 814.35450 777.70545 757.81820 723.69275 726.52757 802.35905 855.05622 889.23087 874.20945 831.42693 766.99664 719.26934 677.55304 663.78742 659.80625 615.95188 526.51004 576.32543 619.49410 680.30279 698.60158 669.83624 656.12210 662.45331 718.29420 826.88074 874.98205 888.05359 896.78377 866.73674 869.82555 879.95108 918.75238 935.56309 948.97975 948.88996 945.42365 921.56272 879.45494 851.45300 797.15491 731.80933 690.79934 642.63159 598.28756 545.25121 497.05817 505.44318 491.46899 567.99426 589.32822 638.74554 662.75423 619.07794 550.52123 477.42874 419.29446 411.81335 373.17685 405.65114 381.95547 343.88307 271.73360 199.72114 75.87366 6.95599 12.81142
8.75399 9.28392 114.97024 233.48752 299.46434 323.11582 347.09612 389.76002 405.33504 422.09946 369.22587 424.78286 439.65120 402.60624 449.74720 465.23229 457.26091 423.91562 449.77854 504.31084 549.10555 619.90442 650.15645 690.08738 684.17173 735.45594 772.66254 832.72252 882.78500 921.57343 934.12587 911.03620 880.64379 790.26083 774.48851 727.66658 667.41582 654.57710 701.21073 701.80786 734.40515 690.90243 624.62423 550.68660 626.73374 668.30931 643.33938 590.89187 556.33929 593.33387 683.38984 741.11345 798.02183 846.03758 858.12181 847.34488 806.99322 749.54288 655.10352 565.84286 511.15166 454.41426 493.21436 596.54553 692.28281 743.53006 766.03985 754.12623 765.35859 794.73718 840.64000 883.36056 900.90033 911.88589 933.54286 958.32894 958.86228 940.56633 907.13049 888.70245 852.10496 830.26555 801.07245 790.85253 793.44505 823.98240 847.38981 836.24688 801.76852 749.77669 754.30518 699.73438 680.77977 685.76704 651.03009 625.81283 571.08925 533.16000 495.87728 440.36374 385.33754 323.70068 284.19964 164.76310 75.24955 57.14871 76.13665 195.83825 264.48007 362.06219 436.29067 475.81523 480.97026 462.48833 488.14577 509.48948 522.31539 526.12084 482.47940 463.26580 458.17515 487.03996 530.53279 591.09893 661.56553 739.42118 800.74743 832.88531 873.59503 907.62946 922.50354 931.87382 929.22548 904.64554 878.34139 839.34404 803.51438 751.44382 692.21983 665.46047 706.68253 783.07971 838.31273 877.40909 878.16580 842.58330 790.45094 733.02182 671.47285 607.79798 577.48324 576.25671 525.62281 521.76101 569.05869 642.52958 656.59789 634.40469 625.98516 704.26264 750.69416 802.99562 847.89485 872.76976 867.08380 816.13058 816.48071 847.47900 888.10338 922.69969 945.98455 953.61722 953.25655 924.62871 909.14576 852.46084 823.37855 753.93840 715.98692 648.96773 592.58035 596.93562 578.14392 567.69837 549.06337 630.18656 665.75691 693.99557 704.12694 668.98805 584.13294 532.96762 518.04482 493.47658 461.61659 453.44911 438.88154 359.55489 294.39253 165.68213 93.71941 3.33223 11.19332
16.90435 13.83383 101.78698 171.00111 218.16391 250.71479 252.09345 278.10263 280.30040 336.84830 330.74966 338.44045 365.64710 329.38425 353.37638 390.83997 365.48493 377.10158 413.44587 491.22734 554.59740 599.51880 681.02338 731.95636 769.14470 793.87457 808.23712 859.89102 898.42949 928.37467 935.10596 911.49008 854.72526 815.49788 741.78120 692.07525 641.97645 594.37694 618.25345 651.13540 698.67471 673.03026 638.25137 554.32236 537.46633 603.35824 608.48849 526.44613 512.47823 575.33287 635.03543 709.07925 778.23259 843.31732 850.72249 816.04085 765.62635 715.99431 659.09356 590.81836 517.96982 458.13060 525.65288 601.62013 683.48593 700.45974 714.86569 707.46581 738.32096 793.17017 838.42309 838.08809 849.50408 874.65123 912.30993 941.91508 959.12173 948.28748 929.92208 904.48973 874.97875 866.91993 841.29143 836.74012 852.56312 865.45672 872.03906 870.91652 857.15311 844.30292 803.76759 761.10849 724.16769 742.55536 696.70743 652.20232 594.17863 545.60536 524.27074 487.02826 402.81270 352.15228 218.26807 154.03502 79.36843 43.38580 64.92756 173.32454 243.97958 351.18137 432.31172 509.92664 530.96510 535.92451 573.24214 584.36899 612.97423 611.21221 557.43749 556.04591 527.19677 535.74041 593.87114 630.99982 668.47665 709.38020 795.62709 836.19412 863.97045 917.47204 945.52967 941.21505 907.82577 867.89739 832.97826 771.35428 747.02236 717.50080 645.40579 648.30656 703.58627 762.08918 799.53148 842.96871 879.81406 860.26024 803.20404 771.96549 685.99546 618.97525 568.78947 516.29706 516.79426 476.17585 538.44715 588.10119 589.81902 585.25816 622.25736 720.56852 772.08402 818.42170 828.70079 831.27137 844.06643 789.92880 783.95033 830.79183 855.42567 908.59064 941.17293 943.83890 944.77525 931.34251 908.36461 869.23388 826.63182 755.84967 715.54556 668.51111 661.93653 690.00045 650.21367 605.58392 615.56568 672.73321 713.13512 740.64517 734.77108 696.59463 640.90413 605.30375 546.91183 517.09128 459.85948 416.40647 406.42812 338.66560 294.67340 167.36232 116.34238 10.81264 12.20185
3.68240 11.91094 64.49661 106.19854 137.81875 139.05088 154.05291 212.63336 217.73515 210.50918 219.90819 251.34965 279.01017 269.06631 286.58852 334.41270 391.77082 439.78896 432.93562 496.56132 542.10722 609.28631 680.09292 759.87310 810.42386 833.74440 856.88156 894.47356 927.72079 928.25297 937.88803 894.18595 871.80751 821.81329 759.56359 709.39000 637.14679 592.14912 548.75787 597.76633 665.11164 666.54198 633.93646 554.37203 494.01423 548.24027 529.54468 464.64937 530.57591 608.87978 676.39041 719.09202 802.85198 837.71365 835.84336 807.03400 709.27881 662.76005 627.91272 572.58200 504.13446 433.08867 527.21470 574.12786 641.58497 653.59790 635.45702 671.64459 747.86947 790.53109 805.76499 785.82828 824.29974 849.77213 907.51577 933.80395 949.07249 945.80629 928.97076 915.01109 908.27863 902.97970 896.96391 900.07429 899.59689 902.27349 899.86077 890.12852 879.15901 852.63931 812.57183 798.29346 774.51093 754.32510 696.22272 660.92888 610.95837 555.33366 493.77328 438.17018 402.79229 335.66538 232.56305 178.98080 97.11338 38.05009 72.15282 161.16089 229.04403 335.02978 407.11437 476.95468 524.30915 544.28421 576.41020 616.58532 657.18421 667.07316 657.83809 603.84337 568.39482 599.37098 632.34697 696.03619 705.51391 709.90291 761.61770 819.31589 873.95244 897.92470 941.96947 922.35816 884.69623 840.44189 780.78428 724.44356 703.40051 695.82720 613.23584 628.15646 686.65205 707.55424 770.22303 800.63898 868.36324 871.47142 833.64322 784.31530 718.24929 612.76931 554.51373 503.96444 463.62480 448.00092 504.61151 532.64386 517.10125 568.84994 639.37054 728.51598 778.18881 805.73654 796.20042 797.17861 774.07771 727.02968 763.13459 804.50080 859.37564 909.19509 927.62847 935.50834 924.09789 924.94100 909.57394 872.50533 812.64923 777.42101 725.28763 726.42822 736.05172 747.23373 723.11800 663.76134 684.35022 733.69614 755.63538 757.85603 738.11190 686.68305 644.00976 587.29326 539.52568 473.16343 393.48978 358.07922 279.23841 260.87477 228.58184 142.44960 74.50860 10.59815 8.34962
6.19403 10.50477 53.96743 82.35665 101.93946 102.07843 160.70447 159.17277 208.12385 255.36365 278.07381 289.13407 285.99510 324.39755 367.34050 421.90531 468.23739 488.85681 509.66720 529.37869 584.01199 620.28725 695.83448 740.31945 811.95159 861.68126 908.05292 921.73714 930.24876 927.01682 917.81236 911.29126 885.77742 860.31043 811.34191 762.05385 693.89399 620.66086 554.53024 543.92067 592.90575 608.95300 614.33941 553.61468 460.55281 477.90891 467.27497 457.73873 518.68623 579.98276 667.39166 737.65371 802.18640 851.06960 843.29000 791.47055 735.98390 620.04686 573.99972 499.89310 471.38737 405.79433 474.44388 541.84961 595.89446 575.70643 640.18344 701.14120 731.23740 739.51881 726.90982 744.37964 800.34930 830.33469 904.05346 926.77019 936.60323 912.35189 897.06672 900.01129 890.78570 884.97176 884.63055 888.81718 920.65982 914.86595 910.46814 877.38282 850.97134 841.85497 808.78219 788.12033 749.81383 723.30367 675.91558 635.23498 577.83525 488.47201 432.18964 359.52468 383.49399 318.79782 277.69963 209.23887 100.86556 44.69092 63.20909 165.62272 234.96236 315.24131 347.76744 376.88043 434.15030 458.63683 517.13702 559.52144 647.40872 685.89393 694.81418 690.94399 671.85575 655.29132 686.05017 730.07651 763.21502 777.17421 799.38328 832.92703 870.38346 912.59963 928.75924 918.63935 888.47802 819.96120 772.06886 714.92936 632.06824 622.67949 561.35438 603.13880 651.96461 678.93524 725.27496 776.70712 847.58426 857.92195 842.09078 770.63655 722.47902 638.50207 581.92980 503.93268 429.20583 408.76133 436.03018 437.86727 501.47558 586.60131 670.01897 730.89589 784.68059 783.25376 747.01160 720.44362 714.27913 694.93224 736.48732 797.55385 849.53921 891.76706 913.42446 902.50894 893.90326 903.49092 892.60323 874.82348 857.51015 837.08462 776.38020 787.70147 794.93994 807.53570 761.46394 739.22362 742.13669 779.31360 778.93097 762.63931 694.00509 646.47888 589.64967 526.13833 476.07402 428.92083 336.14125 255.45323 201.25079 178.10034 145.73368 91.63738 83.03941 13.09288 9.31044
9.16551 16.02322 83.85097 144.74162 192.93920 177.68175 242.60745 258.05573 264.82977 328.11918 373.31991 396.00626 352.69576 339.46265 420.55378 505.23383 555.23258 578.10261 608.26476 609.08477 644.00178 681.85899 729.00063 754.53599 812.32604 871.34108 912.93770 922.11025 914.10582 909.43543 900.99953 897.60519 896.69124 852.96543 819.35159 760.63310 715.36137 614.96305 548.78368 484.90315 518.50259 566.58190 572.55524 516.38414 453.12153 416.10208 412.08526 489.15265 586.91794 608.69341 707.74402 755.36963 822.21891 859.76469 849.73466 791.28355 739.00698 658.92916 601.14029 516.76208 479.55040 400.95562 434.66080 518.70051 542.87714 540.10696 595.56747 677.72982 690.82291 686.63028 697.90264 738.62866 808.72220 853.96067 891.61235 920.91472 924.26515 879.07806 860.17338 840.49090 848.50917 837.81307 839.17512 886.51210 900.59712 901.38911 876.31118 836.78571 830.13189 818.03218 786.50818 756.58784 707.35744 652.96219 637.13565 585.97306 531.83101 451.63000 398.78271 298.47150 283.40675 228.59722 207.42089 143.44250 85.75996 38.11209 60.53835 134.74178 189.17968 246.63059 253.61324 286.93463 328.45975 402.47634 465.54405 532.01082 580.46794 646.50888 711.08097 738.56240 723.03756 719.11420 740.20841 773.80243 813.61966 846.32742 860.41237 873.17504 894.73598 898.12205 903.14807 894.61116 874.65454 831.71722 783.73943 698.50368 611.72968 586.18294 528.63933 553.87303 584.08734 631.96503 687.46045 757.48117 823.46325 846.48927 829.88460 752.56157 698.37901 618.65188 561.13302 498.03564 429.43641 390.83715 425.46743 495.41868 564.13311 615.75833 700.81681 749.54080 774.09561 740.32474 690.68569 659.44902 645.30206 697.60963 755.51678 810.59301 850.69619 873.23719 893.93884 870.18732 832.94305 867.96619 853.38999 829.90403 844.53389 847.89850 830.84362 831.64363 848.92863 841.10506 832.06111 796.85308 801.28972 810.78804 781.78139 712.65179 650.92486 607.37196 523.98508 479.29358 397.74928 354.82719 312.52953 281.59089 277.53761 233.44214 182.95169 127.24569 101.10762 8.10217 8.76564
7.80592 7.35042 114.55905 187.20285 279.05998 286.63514 312.67858 349.47193 359.27505 398.89725 437.40366 469.57105 478.30775 447.83191 443.64848 487.77769 569.24313 636.68804 669.26909 670.89370 719.17840 765.59859 794.49814 829.69793 855.75785 886.42969 914.40513 904.91822 885.45077 879.04206 844.67799 852.86019 856.58704 853.24637 812.03094 733.59151 699.22499 606.35360 560.09189 490.12737 454.03917 507.38346 518.41578 452.80660 387.27417 375.59521 412.99701 481.41144 602.51778 676.55511 740.08714 769.74761 830.39550 867.99039 861.70805 800.76587 762.73661 691.65742 623.62294 554.97888 502.03808 433.36046 390.69571 471.73640 489.24422 516.11816 601.32656 674.05833 660.91068 636.72187 659.92949 723.87641 789.76039 843.04133 903.74256 918.93975 913.84426 880.57189 823.98934 787.66412 788.10652 768.53217 789.01981 839.91478 878.17607 896.91399 857.46837 791.88376 753.40423 702.22708 734.20572 710.81165 646.05487 572.07453 549.49990 531.30882 494.27684 406.18065 336.71417 288.33662 228.56312 164.72295 138.18354 112.50763 62.52870 34.16603 64.75109 95.90313 134.83392 186.18728 233.13858 278.00516 298.69826 336.16184 399.21681 490.02517 542.77133 588.34363 692.19833 752.65318 798.71382 810.19020 811.73995 838.49215 842.30238 848.13343 853.60578 865.33705 872.91363 866.60194 868.30377 866.14068 852.99780 804.79068 739.29757 679.76232 604.27787 543.55060 499.74545 487.53962 519.88578 654.90528 684.74944 749.17200 799.36104 828.08850 820.20516 778.00810 682.33068 629.06454 557.83465 502.40374 427.29952 404.17711 452.80270 529.39151 605.45737 670.03801 709.58933 756.10706 756.36424 696.59362 643.86049 599.76426 663.15341 738.21114 770.08108 803.64832 831.09697 862.16308 887.28938 843.20520 790.45564 793.56377 780.98724 781.76219 793.58684 819.95038 823.61555 846.16099 857.58626 865.87125 858.60250 842.34068 842.02617 804.53725 777.13344 703.62920 648.76011 563.58956 519.47917 452.58512 415.64125 406.51196 406.74349 376.88585 350.07680 318.51288 279.66642 208.23319 103.52917 14.83498 7.88749
7.79342 8.47023 132.26039 196.60097 294.99215 354.16423 370.34101 421.30602 439.11517 494.11957 541.48804 555.32209 549.63058 550.73248 504.71829 545.86369 590.08527 641.42254 742.63027 748.39596 771.51663 797.25659 840.22628 848.14205 868.00701 869.23012 896.17786 895.97862 852.40205 828.72115 796.30052 807.50849 820.87030 835.81308 812.99127 750.27991 649.56894 582.47729 494.58806 454.26338 388.83874 476.74602 476.20231 418.46897 350.34618 358.29238 426.94661 527.63244 592.09195 656.31234 716.36223 757.90763 816.17813 868.79593 854.77201 826.50212 743.03106 684.23493 610.65780 551.93803 479.24029 406.02167 367.62902 438.60672 462.54663 520.83392 569.94545 631.99738 637.86616 604.39067 658.65509 724.85125 794.81186 853.60371 866.48326 896.79339 895.04258 881.88929 837.07314 776.42991 707.25617 720.09416 742.95868 819.77720 869.61978 867.64397 822.61061 761.94831 687.94836 661.09595 661.15803 639.37537 598.48927 548.34959 485.77690 480.88884 421.61807 355.35616 298.18386 240.38582 188.12712 150.33089 145.53448 65.47731 54.17453 38.53159 80.65999 130.49266 194.30086 276.06635 342.50667 366.16580 366.80774 386.47161 399.96421 449.75072 500.50462 599.33382 680.41275 739.72341 792.96338 833.25674 841.49860 843.59907 837.98814 804.06708 820.45131 823.95634 812.17508 794.34005 801.94273 842.66083 859.38839 836.47330 762.64726 693.64870 627.79270 571.02043 497.82200 464.34791 494.33524 591.59924 655.48410 720.56985 760.55452 807.31590 813.55386 780.24322 724.70162 647.85004 571.50623 485.68213 395.21213 429.42880 496.17396 604.99020 659.79160 711.60344 743.03400 757.75733 715.63943 668.58758 609.30272 599.25481 672.62150 711.11340 762.88902 771.48677 801.15148 852.87076 876.04270 850.91744 749.39162 729.68632 750.71895 723.34548 709.17286 766.83293 796.94359 804.75460 813.38803 853.01432 861.08269 870.18118 867.44491 823.38614 743.21938 709.57198 617.70660 579.69081 532.41072 477.90959 456.65439 496.34489 466.96569 457.95968 414.92070 355.68175 288.62282 211.25783 99.79643 12.73844 17.11820
20.74368 12.38432 117.45620 176.72526 275.78550 335.83773 374.89668 459.04353 503.88714 541.87591 594.56726 637.10350 659.60310 639.86607 590.09302 598.72037 635.62159 697.25870 761.76714 807.24258 826.71545 835.89470 846.86777 849.62314 824.24113 828.05058 864.83418 870.81221 852.96526 785.24512 761.02353 758.50104 785.23868 820.20689 803.45595 751.19172 662.49765 558.86819 481.57693 418.64965 354.90532 421.76344 431.08090 361.75115 322.46467 350.37277 400.80874 484.47369 531.07402 633.56481 663.52895 774.26239 818.39909 854.75604 833.89653 809.17549 711.62810 638.66981 565.36546 511.83456 404.54095 365.01298 341.18736 384.83552 428.01628 473.44865 543.48449 576.14603 540.60647 589.83971 664.83132 745.43624 805.42132 840.80961 848.71498 871.84334 873.54669 852.72463 823.20727 761.46212 710.73389 666.70734 730.35083 794.39550 851.98661 860.77100 822.19870 778.86736 697.35150 618.65902 574.60812 561.89770 524.16659 464.25765 410.40884 374.04830 348.99758 305.19012 261.50092 237.49691 226.71223 225.94061 195.38356 138.56635 63.60079 42.86632 46.76743 136.34966 179.08647 277.63798 343.20204 441.35559 448.84842 487.53246 513.76246 489.68766 536.35952 608.07299 660.00866 744.77418 799.59743 852.62019 859.58016 822.40908 778.46080 750.66715 736.28877 766.78802 776.87001 784.51258 766.50094 795.98829 847.86462 837.32437 784.71593 724.78054 671.63642 590.63114 512.18314 460.53439 492.41873 564.62425 630.90165 642.80433 724.64661 776.56831 811.30969 772.83052 684.79417 641.70780 526.98144 454.69795 368.25549 407.86801 510.22736 589.91217 646.01682 694.95979 707.58171 727.83451 685.96389 631.35941 552.21321 585.66610 642.55878 673.21797 688.21569 734.43773 793.36846 858.53128 858.72682 826.98335 738.94163 681.48318 638.71876 654.29625 663.20595 674.70428 701.47153 736.47269 782.26593 805.22699 830.96751 864.52146 876.37341 849.87360 803.23729 747.27094 677.04914 641.38433 611.97458 571.49446 541.75121 569.94444 547.80553 513.24057 433.30621 355.49952 257.87422 154.86917 93.08519 14.65080 9.54864
12.61865 3.83992 92.56874 148.89590 201.21131 271.35182 373.16213 441.65916 495.37752 542.90896 577.25811 628.57626 687.40829 703.07999 668.86870 681.11577 708.73767 740.95168 797.16966 845.65050 846.85464 836.06821 824.51251 787.90015 774.75711 795.06146 828.56743 826.38191 835.63491 780.29231 716.03413 691.65861 746.52883 788.93244 798.02574 751.33721 671.85969 585.92606 494.83489 420.66578 342.20571 365.98506 359.38259 322.31682 332.87786 376.98413 413.56473 486.18320 564.48014 618.95406 696.76527 767.14166 839.68679 854.96653 843.90723 804.49016 726.86926 651.82849 561.75610 497.51194 425.01150 367.48264 304.29028 335.77752 403.45747 470.21841 515.89079 512.83969 491.85803 589.83931 654.39906 751.25650 793.91566 790.05377 800.94426 823.47849 839.46871 826.40590 784.33847 721.10012 661.09446 616.37870 697.78900 727.27472 801.57799 832.37321 826.17738 781.68111 712.51629 638.19715 582.96236 533.19037 474.73765 440.25132 410.63978 376.99844 343.81243 324.34898 366.85931 371.35313 354.15990 296.58418 238.39431 164.54579 62.22169 40.60625 55.40628 116.16651 194.83240 277.13363 352.69864 467.89732 498.86196 558.78659 576.77649 598.25849 614.87664 626.00692 730.73630 779.54787 831.83072 849.61328 843.97236 795.40280 705.74924 669.33483 662.54475 695.90918 719.41492 669.94141 721.37793 762.37991 827.60288 834.99457 782.00514 750.21765 674.75480 599.26126 563.58299 463.59301 450.19873 524.53485 558.65569 601.78197 693.08851 754.58551 782.77163 759.27061 662.23951 585.72919 511.58009 428.32606 345.87951 388.03726 475.85964 543.33762 555.43510 620.74775 675.46679 702.42129 662.26321 606.83098 514.16184 540.73649 595.04798 611.66090 670.38638 728.66946 808.09811 834.10820 860.88200 819.66696 746.06014 681.08326 605.95124 566.91804 591.77665 626.23841 654.50207 676.79175 703.26763 749.70349 804.12482 846.92686 879.24516 863.12307 829.71761 771.24271 732.19358 691.54196 669.38357 643.56884 605.98833 585.22746 571.17907 518.90347 430.91157 365.92116 266.99314 225.18771 100.20164 8.71544 8.15639
14.72900 6.05797 87.79012 140.49625 196.52344 257.00352 296.24878 396.85007 417.03564 482.49862 529.47997 593.58811 698.44291 728.35518 758.01633 734.83508 787.33848 806.64669 839.37295 857.53274 825.07437 814.15697 759.58877 729.76661 712.27412 763.27410 784.96340 787.68666 796.57432 760.55999 703.43762 655.85433 706.74265 769.08915 777.65553 757.28974 682.86295 613.00263 515.75359 483.05626 415.14656 319.55244 310.62474 324.96351 415.94729 480.90216 520.27150 527.94933 555.40835 664.28526 711.72483 766.36918 828.83370 848.96506 835.95801 807.17458 752.20294 712.36651 629.56857 544.02768 474.35035 409.83191 314.61200 323.77877 388.84331 442.49342 445.77668 433.59187 492.58581 576.04310 672.01945 756.74824 775.86785 746.57664 746.37441 804.50618 809.32301 817.14273 771.16518 700.86801 623.11355 569.95255 634.06316 691.97623 764.39122 806.86062 823.21760 787.44232 755.92287 672.54225 656.54867 616.90856 538.96019 479.10492 456.43338 446.92747 436.91409 440.34411 430.09904 433.65041 370.69743 320.07382 235.20635 161.17622 69.97760 38.40485 55.91271 142.65703 239.71706 302.12081 396.65278 492.50903 561.35958 605.07244 639.40783 641.66765 647.92644 696.22414 763.84795 790.89672 825.77197 839.86686 821.36728 746.79106 697.52880 615.98647 601.93501 610.49100 626.30975 616.66290 681.03810 744.42850 819.49227 815.49577 779.74824 699.33920 656.63116 607.08608 549.03235 462.97597 391.86434 471.00827 504.68715 584.23934 661.90240 722.22493 770.38886 747.75671 670.05601 579.32715 507.41260 407.31918 339.16604 340.81652 423.37624 450.79241 491.02824 555.87227 655.73506 664.93539 599.05727 548.56796 469.29745 535.00997 545.13865 574.31072 624.59957 714.33382 781.78953 829.21738 851.67791 809.38295 744.02646 692.58879 629.77089 573.98201 527.96472 542.18095 563.82023 633.29449 649.65940 696.26044 766.92500 833.97300 865.46920 860.89050 834.91814 787.75791 756.02333 726.39744 689.21632 640.80380 590.08762 530.25414 519.51000 458.63216 407.37324 363.61297 296.89281 225.33162 103.12140 6.78069 10.18992
15.50815 10.18164 113.34363 215.11459 254.57678 274.83828 303.58858 356.43816 405.11450 517.83284 546.52394 628.43683 696.75122 760.56274 790.69581 812.87066 821.57827 816.23485 824.17682 831.09160 799.06219 738.72582 689.53159 653.33812 653.57467 698.33276 707.93077 766.32025 782.75768 757.54017 693.06312 634.62371 651.78890 706.30945 742.89484 750.52476 707.50400 640.11558 555.07207 507.38141 393.41411 318.25301 269.71691 351.22209 443.53683 528.02812 561.90126 610.37430 630.94695 700.96783 741.33436 785.08256 831.11248 826.83543 807.66474 778.08130 769.18236 714.42246 666.20044 588.93091 491.20234 419.27631 353.27961 295.77247 347.96115 334.79332 376.39883 443.05888 557.27499 635.44313 671.41659 732.13794 745.99184 714.17395 690.08373 713.04428 774.10204 777.38064 723.68789 645.84476 585.60348 518.84441 607.16317 648.25093 734.78271 780.06251 805.30499 813.15665 809.70222 757.91531 743.58600 680.71560 653.55267 620.31409 570.46887 556.09201 548.33594 514.77578 526.34214 465.30708 436.03407 328.28428 209.70619 158.01912 78.01056 37.60591 76.28459 152.57191 249.94647 364.38414 396.20307 479.94416 545.16565 576.47830 616.39360 624.97192 636.46559 698.90959 743.07973 774.71548 811.59081 819.21195 781.35911 718.91333 667.97112 578.83948 552.29091 547.92424 545.88252 574.02646 664.39814 747.11743 791.34287 789.58798 731.33950 665.46047 590.69799 550.25271 494.07957 431.03898 356.52507 399.76975 483.63628 545.99996 631.37303 735.88932 776.58301 762.93231 680.42592 584.62284 503.21743 444.79519 408.36711 359.29201 336.11295 380.93709 446.69194 525.46885 623.67927 647.70992 589.72446 519.45170 442.78097 500.68845 513.63874 577.44234 647.76043 721.68436 795.39988 844.27369 857.36264 807.85519 717.42615 664.40891 614.24654 570.90031 468.93206 457.26748 542.60537 554.03519 627.96186 661.79159 743.22277 804.13259 850.05766 839.16260 809.65614 748.07695 712.90704 676.13615 648.58739 603.91356 571.30736 500.72081 422.50680 378.33673 345.45955 289.90205 249.19720 194.85406 91.33236 7.86482 11.92871
6.34717 11.97134 111.98661 224.23173 296.00923 359.38620 381.37783 445.54518 504.05370 573.79488 617.00697 665.86811 723.84080 790.24129 811.26360 811.85405 796.74336 791.73214 787.33478 812.48971 787.97394 711.26414 660.47717 596.09202 625.17658 625.36444 661.28428 711.48790 748.79393 748.26826 659.58179 598.06411 600.91511 668.37695 720.58545 729.53998 697.43794 630.00133 546.12243 463.09517 392.11189 316.64237 294.15088 370.30731 463.90346 524.12728 598.02567 649.80009 664.16214 711.55982 764.32364 795.65432 794.84092 766.76450 743.27577 750.37283 739.66944 729.15840 664.09632 600.45003 522.66339 415.10933 311.39152 270.87506 295.94991 362.82022 417.17675 494.03701 588.68602 652.43851 716.29584 730.50943 710.37248 667.78579 642.46988 701.37674 738.15554 733.16558 695.17801 632.64835 531.83651 499.98907 553.70119 614.74387 717.49049 731.80327 772.44374 809.77621 801.32412 797.72097 768.87514 764.28240 724.83374 671.61974 648.00609 618.96839 587.52814 564.80997 544.82405 475.89791 429.18313 339.63478 249.97235 126.89328 52.51225 37.65489 69.24513 166.06934 264.95969 358.01183 427.34542 477.31024 484.89565 503.51786 535.02705 552.43070 589.63440 640.18060 685.14022 730.61925 796.71158 785.28931 762.26830 687.05255 624.49599 540.93294 488.96159 462.27591 478.82961 582.46808 627.62217 709.95148 773.31165 784.85970 716.64117 628.42136 570.15619 502.30203 436.18403 394.71820 328.71320 404.41067 492.25709 571.73006 694.62090 729.87263 773.88412 768.36012 707.92063 625.03067 588.29066 515.11564 432.25105 360.22671 275.42236 329.77054 408.23341 523.26081 600.78409 617.37868 565.45916 501.76649 420.48967 451.29361 528.45902 595.16130 675.24899 726.63584 792.85716 827.40328 846.03223 816.01137 749.73605 685.94999 574.87606 522.84208 448.61622 433.45633 486.95812 499.25651 597.59104 655.36270 722.70943 783.55437 832.81673 835.22340 785.61944 709.16556 654.62670 619.26392 589.78002 546.41828 505.99252 417.68417 373.75083 293.50796 238.64608 213.28656 170.99030 153.87145 70.41789 6.35238 9.80165
10.20899 7.69364 97.96345 215.85831 284.82797 368.37564 406.72550 484.16818 550.65681 593.77765 659.77953 714.57635 759.72741 815.98912 819.37658 786.97828 730.19429 700.18774 723.11576 756.30056 772.33030 707.03709 637.11289 564.69854 536.45275 579.27830 594.71752 677.64670 684.42128 690.03041 658.98590 546.43793 543.87501 609.60102 692.21345 710.49350 703.26232 620.29233 543.32692 442.22821 340.30562 290.95264 269.52013 354.67365 409.80289 499.31034 564.70562 589.74692 644.03458 684.83149 760.32682 770.74426 752.70803 729.10926 699.98406 645.83110 694.76373 704.48105 675.71071 613.81863 499.66744 376.81361 269.89362 289.59430 322.18616 420.88923 467.73106 559.36288 639.86508 686.72761 705.94723 698.74483 662.61151 605.77184 610.63707 672.78776 694.95066 685.19125 650.91326 556.45366 469.68569 472.46037 559.88569 617.04997 650.59105 685.63522 722.75145 755.65760 762.95635 792.51324 804.10841 790.84368 767.88006 726.37683 683.12127 615.91644 581.82525 532.96617 490.49699 423.09321 355.68548 296.69167 224.09991 148.81284 78.52279 43.54248 69.07791 169.27697 261.34172 322.67215 340.99277 402.35186 417.73610 428.85247 445.97037 499.61355 536.06625 626.12477 686.50637 738.12000 782.55131 753.18932 701.20565 632.57311 578.34124 507.61297 452.62241 417.33211 458.03980 545.55534 630.49993 725.59275 782.31769 774.53583 707.10893 644.65560 572.91710 475.01393 409.46542 362.18596 330.41617 402.77559 491.89493 584.34660 666.04605 725.77203 752.87335 761.52364 733.50649 660.61430 595.52913 533.91640 463.37119 380.14687 284.29866 281.38811 383.08192 495.24009 566.65379 585.00237 537.38797 451.36836 418.43687 460.53533 519.77198 554.88122 634.97855 688.49299 756.60819 815.99965 826.46538 798.29169 769.10768 712.83904 639.44327 547.49798 450.54306 386.83810 427.35371 505.62075 560.74452 617.23209 690.33341 753.02994 809.20170 830.27170 768.82660 726.29900 629.08337 560.12027 499.71261 468.51751 396.27273 348.32297 303.48678 278.60792 229.49487 184.05068 143.52050 149.04563 69.61216 12.05622 8.82331
10.77754 10.18640 98.70720 140.34517 234.33004 299.03909 368.50936 453.23407 521.82669 569.37531 627.83974 709.33284 778.76345 800.26220 814.68413 748.16512 708.01527 657.56367 671.15885 696.11562 742.32943 703.25242 625.85735 549.68161 482.24872 490.66100 534.80992 622.19116 674.11063 681.84290 621.20002 521.01011 487.86435 572.03874 644.35288 684.06813 684.59658 654.61305 530.51873 438.02937 361.25455 276.24634 251.41580 291.38057 408.37913 473.98555 525.92751 532.75827 609.97363 645.44051 717.39927 734.44507 694.41905 639.62802 629.58215 596.94517 606.06495 645.16406 648.96081 576.60591 512.52197 351.09592 273.44941 233.73066 346.93511 416.94545 472.21244 581.06795 629.20608 671.08199 668.67647 640.29611 599.15000 560.96897 558.16300 635.41347 666.58880 652.98421 590.87908 496.82886 457.58913 428.91898 532.49321 550.13865 588.02422 633.61420 681.27194 711.30903 719.74688 749.72144 794.43330 800.94983 771.63953 724.21821 655.84792 604.48523 561.45952 444.44095 412.33520 330.49732 296.77694 225.68565 178.07693 139.14700 60.09555 35.69223 48.90239 137.69905 211.93332 275.02239 306.18767 287.72309 317.99369 380.19140 423.57441 470.33542 528.92903 599.13944 684.21095 733.38526 778.48091 739.44174 696.35054 586.89710 555.03997 482.90171 414.87706 412.39690 522.41331 567.13522 675.30467 734.93872 770.63872 766.42542 699.90714 651.58553 573.11878 500.16933 426.36569 336.86612 321.77696 409.18283 502.21224 565.31308 618.97382 680.62519 741.85807 753.18690 740.41122 679.20365 590.84285 510.61884 414.86448 373.98944 279.82400 280.86392 358.93497 439.97412 532.30924 557.63055 506.56569 410.00321 378.24251 421.94686 463.64235 543.09542 597.91960 689.86343 745.17982 785.15108 787.90699 778.49862 745.31484 703.55919 627.53616 551.07716 458.66670 367.94496 433.68855 484.36678 519.72059 594.22284 686.20261 742.51584 792.96289 816.64041 791.06254 696.84402 669.62194 583.37229 521.11151 467.97932 462.04910 423.34921 380.79195 307.96925 325.55855 270.24904 236.92237 179.73109 104.59155 8.97526 5.50190
15.44229 10.18948 84.22975 129.51637 180.98550 243.18278 326.77463 426.70955 461.04210 530.92461 611.01962 659.12316 762.27808 776.96992 758.70171 702.13179 673.39930 604.28687 594.55834 652.23060 697.63369 686.13600 636.52255 529.19613 457.69657 454.38421 481.99052 576.13434 649.87243 661.24360 604.25118 511.31215 471.65861 513.79774 592.91764 648.69487 683.89962 643.34198 570.62968 467.21688 402.45754 320.04827 245.17016 244.86451 382.56437 461.01294 463.96963 468.83363 566.89049 613.18821 677.82466 709.06130 653.40142 585.12568 533.34950 502.76675 538.63857 592.67928 624.63518 560.30662 504.65409 386.22901 278.27536 209.59358 323.54972 406.16436 448.09561 521.67840 614.56286 617.28279 614.43443 566.89094 545.60043 499.69536 537.10419 610.30838 656.28301 652.30758 515.79371 459.84307 427.30845 417.92956 486.58586 494.02349 556.58735 600.21947 630.42865 609.65405 647.51264 717.99016 762.17854 784.59073 768.27540 705.10164 625.90271 556.67858 505.09969 425.71549 362.96103 295.61461 243.97060 221.46391 146.81190 89.65773 57.68808 29.72700 47.12858 100.93930 135.02100 177.69839 215.46107 278.06870 347.51744 378.49646 463.22389 526.15227 615.08783 635.29175 725.92257 748.93360 745.67586 700.52277 630.79150 538.97941 497.53559 446.02973 391.02857 409.73238 494.19193 570.39652 658.56066 734.48949 748.39884 752.83820 722.36014 627.97057 557.20901 470.13339 428.05195 320.90919 307.95989 381.02863 473.80544 504.96786 560.92648 657.41150 714.93561 743.42540 733.39431 675.72757 595.69989 460.77269 403.52328 338.10360 277.13251 242.26538 312.85377 399.72913 485.35059 530.41892 505.94539 410.73972 321.21099 375.03622 430.52470 506.06362 584.49025 671.56679 739.05488 745.91715 731.92539 714.30393 709.88911 661.96381 607.36094 537.43075 437.32216 355.09535 375.01825 402.32453 515.13020 554.41845 620.64257 720.58241 746.61026 787.12786 774.72627 754.45199 691.83625 636.62404 637.27338 597.76559 527.62096 490.56304 463.37795 396.27732 347.76806 281.00195 218.41640 163.63911 89.41368 5.42231 10.14986
7.39103 7.70962 87.60253 138.20429 194.40845 271.86399 317.06605 410.57111 472.97358 552.50540 656.99476 685.14802 731.69661 758.82441 738.42892 690.46387 620.38685 529.62223 538.87882 579.97949 665.50752 682.05351 651.98684 561.05076 495.26441 401.12530 451.23000 511.31007 572.13497 586.27047 547.95577 489.93765 415.24634 447.72710 528.56346 605.00125 659.47575 630.40933 581.02843 450.11196 385.07455 302.10201 235.55940 273.57807 353.25707 391.24160 378.50053 428.71568 553.48368 609.07061 673.44184 685.64365 654.45851 570.78902 490.20538 446.69041 482.90934 567.91132 600.13697 575.91028 471.39664 402.31022 275.19402 221.42885 253.35330 345.17849 413.46338 524.34480 582.28370 579.36728 524.18869 494.67232 461.11280 432.24298 489.86342 568.45540 630.76989 621.02593 542.07499 417.44651 354.46854 380.39032 445.35377 450.94865 527.80089 553.93254 573.18621 542.75466 597.90071 679.34364 736.81000 760.53905 739.03039 699.52885 637.97702 604.31344 541.69647 492.70507 442.19087 382.56327 326.39675 262.53939 230.82144 144.16726 89.08624 31.01083 45.70094 144.07468 189.53159 243.37167 265.09008 310.81514 374.04247 408.48458 508.52548 566.12892 613.43568 693.96407 723.70239 734.55105 727.17500 690.94801 610.86344 518.54162 461.75191 384.85358 313.25098 368.25678 420.41936 556.32740 628.48216 685.82023 708.93380 689.31248 688.01725 623.94701 532.26275 438.65803 369.08486 281.79437 304.63889 336.66924 419.40521 454.51586 558.50217 653.00433 695.39556 706.39282 707.29352 680.74206 637.91394 596.21679 458.40224 418.47686 326.07950 244.35851 262.95691 361.32150 464.18765 509.41889 507.50488 436.93419 324.45952 326.99344 383.75918 497.29359 605.92448 670.06318 706.80466 692.81736 666.25074 661.29198 655.18852 622.96262 562.29789 469.00557 399.77777 343.31445 311.99793 358.27904 487.88297 540.44865 649.36768 701.07369 729.62993 728.25508 735.83596 736.31493 733.34926 700.88939 681.58170 646.81203 605.55673 527.03352 507.22241 399.59865 348.16033 310.44489 233.39436 172.84599 101.35542 8.09893 9.91189
3.12601 5.15578 118.74092 185.12239 253.11801 305.57555 399.69429 485.69679 521.84458 605.10341 644.86389 660.24252 674.48946 672.88236 687.26628 673.46572 571.40363 493.63852 464.55810 560.46889 584.39133 648.43344 628.97312 573.62139 494.11022 377.80070 405.87954 465.35421 530.85495 563.85482 492.90676 438.27209 364.85152 406.88905 505.05818 584.99911 631.16914 635.04430 559.14679 488.13308 351.72063 279.93365 198.62084 203.46135 305.24992 309.63500 334.07560 402.41892 503.76685 593.68450 654.17539 642.21125 589.47910 558.34790 443.11686 399.44320 470.37022 560.30566 581.18827 566.12785 471.36692 397.67570 309.39193 223.75057 215.99011 340.46882 416.74797 502.67911 566.83784 525.99446 479.14668 429.81951 402.50041 402.58941 494.65369 580.41585 631.45517 600.75927 507.90616 434.40152 323.62733 345.68400 383.48567 466.86873 505.14009 494.67640 520.25882 523.37802 568.69793 656.51938 721.37440 706.17945 673.30329 662.59341 644.00962 636.78735 610.49252 549.74616 502.12970 457.24863 384.07237 328.38996 259.76089 178.22550 99.06146 37.95253 49.68767 142.35213 206.45665 286.24467 340.41907 412.41572 458.14291 491.01662 571.39557 600.35484 670.67809 705.66400 715.92925 684.56482 651.22619 650.59413 602.08811 527.49566 450.49390 363.38861 301.31185 328.57465 403.18173 508.09919 594.46840 643.19971 648.00025 650.90869 624.22768 584.85920 500.82404 399.91875 333.55315 267.55395 233.79896 289.51590 398.89233 473.69518 560.79955 651.23531 649.24671 643.57858 654.12364 664.12686 653.05314 611.30423 511.10449 413.67208 345.58519 257.04289 213.82920 330.08918 402.30030 489.01945 474.53217 409.06293 325.01847 316.44432 389.86835 495.46505 572.17939 657.48457 673.34308 640.51312 604.52014 594.76925 613.49172 590.91750 522.52149 434.89909 356.72159 304.71775 304.38718 395.40204 463.19631 578.54722 646.06944 692.51702 664.74399 643.75013 673.63136 698.94762 725.11497 730.93643 734.65315 698.98932 644.37463 577.58552 524.15687 472.76593 407.65260 357.18977 274.37849 197.14297 117.45055 12.19066 5.33609
9.11376 10.13949 113.68066 205.29377 260.18742 376.53243 413.98842 538.99588 604.43287 633.81653 642.94026 619.65343 585.08793 614.98443 649.33791 611.60534 543.15815 454.77374 435.41474 484.31076 543.04961 610.49516 617.42758 572.09838 467.79480 380.83685 341.23048 387.39433 482.48113 494.07568 443.09443 423.74001 336.15680 445.13859 504.50040 584.45956 628.39560 604.22319 580.10499 469.27971 346.20183 259.06214 174.08063 177.31669 243.11887 235.59571 303.68984 440.33535 510.54828 583.70175 629.91311 593.16405 530.58160 485.80435 426.91386 365.05998 464.25170 490.81980 555.78126 541.25615 449.87762 351.30411 302.84561 201.05404 212.06855 327.21674 405.20205 496.45061 528.69868 469.06210 408.00278 356.55978 344.94657 394.19700 484.91598 566.57811 630.34294 616.90505 524.77457 423.49878 325.92033 303.11602 357.70320 436.85193 440.14819 428.72173 425.62413 480.44193 550.84486 616.25141 663.66986 663.67303 616.91588 617.68772 624.51625 647.94550 628.81373 617.42704 558.59669 508.69193 425.02340 352.57552 273.74627 196.99212 73.19408 19.55628 44.92343 114.01915 205.76211 264.38694 370.11678 438.86103 529.13881 575.21958 633.56840 665.65954 686.44675 679.52458 647.24081 599.20711 589.49910 608.71002 584.49391 536.27537 443.20852 370.51474 275.78529 283.18119 401.00121 453.35219 529.40453 576.63798 599.09713 571.66694 574.48136 520.48958 469.84163 364.43211 306.00702 211.38152 228.07701 322.82386 395.94185 481.17758 572.71748 597.73079 575.31799 553.94786 579.88809 642.89244 649.75064 606.44052 508.90078 431.72829 313.40949 262.04139 181.83830 273.36914 360.35244 451.40619 460.49098 378.29756 290.94743 289.44234 362.44935 467.06014 576.93333 635.13899 633.08715 600.53028 531.88424 524.52013 555.64045 549.22057 488.75404 406.42242 337.39464 246.89158 282.21808 390.11928 499.15268 565.90395 649.42271 651.18481 640.41831 579.51345 603.28649 640.92941 694.48486 718.05855 716.02466 712.85047 698.80387 649.22548 556.79643 505.11423 429.96712 370.13794 260.35616 181.49855 90.38392 9.37995 11.55136
7.03824 8.85946 108.13313 174.21447 255.84732 391.98840 473.27331 523.35474 615.38804 639.35229 610.71070 540.76011 507.31560 543.26954 583.52248 581.07320 503.10538 430.30217 380.68549 444.11074 489.03784 547.98838 560.93555 517.97018 464.14079 366.95657 286.58480 310.32266 429.94524 461.07433 408.83829 323.92524 341.22670 391.46947 476.96098 517.54259 572.70471 593.84906 554.67372 471.16085 369.53866 298.87140 160.02318 147.11400 171.44725 225.26078 338.78042 409.93686 536.37485 596.36244 622.47216 558.45113 473.37178 410.97170 345.26310 349.52906 420.06063 485.70164 537.31887 505.92806 443.42342 387.40703 239.53961 181.08588 177.55573 301.45618 346.37522 483.10507 498.20694 457.42207 403.96206 295.04234 323.86213 430.54491 504.96991 576.95952 615.33618 604.25589 563.96447 461.35247 343.34631 280.35105 304.73361 365.14509 353.10329 349.95082 389.10275 476.60392 553.16958 585.34435 605.82697 599.44116 557.20147 522.87224 558.41234 558.34972 619.79716 634.56688 579.61525 510.75867 413.80633 325.99218 260.80535 173.79940 56.21733 21.66467 54.26136 126.50647 212.25372 273.95658 365.18096 443.92026 544.74041 612.63981 655.44992 660.75119 648.57465 619.33203 568.48301 508.75704 523.95449 547.58536 552.84214 546.51042 440.16378 360.51366 262.31851 251.70374 329.58017 443.38734 517.79159 557.43971 495.59206 504.96965 536.87994 532.28853 430.93335 364.64044 259.49774 187.10437 247.73341 336.25706 429.26970 518.93882 564.71951 556.87001 526.83284 492.33342 551.59103 588.07662 627.90752 574.84118 502.94908 404.46154 287.55422 216.38887 158.68089 234.78444 330.18375 413.49034 398.71570 362.09924 240.43153 241.40407 353.63360 444.61737 533.26958 618.32205 631.83242 579.44276 508.39334 461.16180 470.97213 466.86398 456.91680 333.58248 276.50112 224.00601 270.65672 416.13557 497.91550 567.57419 624.45448 633.04368 598.39208 473.89085 534.58059 578.26843 618.33182 659.01939 644.97262 678.28104 681.01344 649.09462 580.47798 520.82013 436.95584 358.62029 242.98782 165.04688 106.98167 9.57151 8.39159
5.02537 12.87713 121.73976 194.46257 297.32163 366.05575 461.52938 534.19831 586.77719 593.94568 574.42959 506.04871 432.33155 482.67731 484.90363 527.16296 505.62003 417.81214 333.65020 374.95159 403.58218 530.54904 528.47138 498.82038 422.03613 331.17018 264.99375 270.72762 381.13399 420.18642 389.36528 291.52509 262.89365 342.73370 398.80311 459.82619 534.37196 563.53833 510.41990 436.95733 344.29888 261.00398 197.20749 126.47171 152.59313 265.92619 354.85530 458.27783 518.47194 593.86721 604.88886 545.87635 494.03496 375.70487 294.06878 270.31165 364.77369 413.62030 477.57833 499.17319 454.13701 394.97284 268.72515 155.33039 154.55734 246.89396 322.12467 401.96464 439.19886 403.35593 356.23357 262.05886 318.30549 403.85385 495.34648 543.41577 572.84902 576.73221 544.22109 509.98674 377.54405 256.90859 267.92336 314.67321 273.45943 308.27863 380.93443 484.61695 522.46445 530.03376 557.09718 525.31566 480.91135 402.30828 451.88927 561.82698 593.44095 599.96046 533.39820 478.25466 368.68922 287.47203 179.58082 95.44659 60.50485 34.58612 68.80764 156.69051 216.59601 321.17635 403.30311 474.90912 557.21999 605.13145 602.64223 608.37152 564.00694 523.37370 526.22985 430.44320 431.58638 465.95253 517.21941 523.14351 432.55273 356.34576 253.35292 205.33272 337.83910 408.30570 477.89402 504.14561 430.21511 432.05546 509.70471 481.90340 415.69568 315.35112 227.32123 162.62355 229.27624 326.34406 446.50747 506.64406 524.83610 494.30301 454.64655 416.01934 463.39941 534.26647 558.48451 545.29522 464.70210 391.30425 307.71950 227.38406 156.33537 195.89970 333.80973 355.57002 344.57644 278.77597 216.08762 302.40299 361.26436 446.99920 549.76600 591.76822 612.28268 556.20260 480.31604 414.22711 404.98401 449.28797 400.15114 332.02788 210.70675 210.84336 308.13181 415.96699 504.13156 560.05855 567.23331 572.86576 534.81363 422.93984 462.48269 521.89668 561.15836 581.57150 570.41286 602.22682 626.01007 613.66711 592.20478 542.56690 451.63894 360.67835 267.79373 172.19654 107.89063 9.38425 6.01206
12.32337 11.44995 110.51423 178.77495 266.66341 398.60227 460.59112 511.83290 526.39704 528.94771 523.78342 454.65737 409.82008 406.88892 394.44705 442.82006 447.40982 396.99536 341.75970 308.13017 353.54410 484.06401 483.19937 417.44085 352.56298 251.83098 214.77556 285.92409 383.37664 420.01392 396.82562 315.18737 233.58924 256.19244 305.13285 415.28803 487.51445 526.79584 504.08502 438.48065 326.69633 232.95122 190.62730 128.54846 132.88413 274.26188 353.80860 463.72981 509.74961 545.13149 519.92868 505.11864 459.18122 397.80763 305.91752 236.21714 266.23285 361.96530 420.68338 481.59206 462.85303 394.82242 314.12368 184.51199 156.57906 188.02027 270.05916 333.27963 383.26153 359.10066 291.42850 224.19788 331.69298 414.57723 500.49181 509.91399 497.15997 484.64618 499.86840 476.67892 378.06080 284.92044 201.92956 247.87636 232.03660 261.90935 363.08110 424.40128 437.94164 427.86644 500.80923 484.22491 406.37266 353.63345 376.61100 495.33760 549.02118 556.83238 517.88312 454.54974 374.54660 270.44243 173.99632 120.40200 31.67163 22.78402 49.47326 132.56247 219.69604 338.27729 407.27931 482.49779 543.48779 536.83768 560.20533 539.31718 480.80684 481.36378 429.22423 372.95776 352.39291 402.16080 477.16776 474.31610 429.55721 364.94088 259.18936 199.72519 318.88480 409.63302 451.38409 456.15702 410.02788 391.98781 451.97196 472.01238 406.39580 310.03782 188.75534 150.01467 259.76725 332.23513 430.18589 486.87804 471.42066 411.41261 378.64004 373.94910 447.32528 508.98196 497.12077 491.99053 468.47375 349.85969 256.64856 177.24563 146.39415 226.95492 300.15011 359.54570 265.64189 223.49349 206.82581 278.89305 372.38842 442.88016 523.77527 568.62045 550.32418 508.19040 435.42713 372.44468 358.74356 423.42174 386.12645 310.56358 186.97924 179.95927 308.39753 393.38707 477.84683 500.19856 469.00187 485.41558 470.61809 380.11265 402.45357 430.60272 501.35938 494.53021 493.13860 499.66267 516.64463 512.38884 558.84630 525.68221 447.97396 367.66576 260.43940 191.08555 75.20960 10.67153 11.92465
13.13272 9.54960 115.00245 175.94694 276.35268 403.93262 431.50433 462.02296 459.47549 423.06366 441.85662 432.54400 354.30110 313.19005 326.35632 340.09286 383.37118 321.75366 251.43718 270.44591 380.63075 432.28557 456.26026 393.01912 312.84429 193.91299 184.19747 307.16992 372.80862 404.06740 391.74672 324.71716 235.49673 193.60141 288.66876 374.25252 443.28306 492.92974 448.22623 425.60903 349.12584 230.23512 151.80204 103.01418 139.19561 272.66265 353.32880 444.88216 472.61449 459.22260 426.82162 438.96545 452.23608 399.06883 301.89418 208.55680 229.95700 292.69471 402.06216 422.61267 453.03026 400.87713 341.95970 189.33563 122.64793 149.12303 207.60224 279.90184 331.90782 296.52446 217.26392 238.39723 338.30586 418.24559 464.21562 470.03928 432.15931 398.32281 451.42499 462.22122 384.68397 288.34970 177.16845 189.09383 183.52416 218.48009 324.94873 378.32641 354.36425 383.81064 420.31598 437.92429 390.28701 300.93345 368.67610 456.01026 501.07694 485.39951 490.31287 429.03943 356.00133 286.62048 223.99689 143.03612 41.78503 18.20424 69.90686 157.27969 272.79442 366.82560 422.78954 435.61553 429.09971 458.72136 435.28172 476.13211 449.73177 361.52721 346.05187 290.54430 299.31682 377.72304 440.54723 444.81494 386.99900 303.04843 208.63753 171.04792 278.86813 376.18446 416.52807 405.26650 341.84474 329.41508 383.82853 410.28341 348.37555 257.95334 155.42150 137.19462 242.18605 332.99086 412.64382 435.37170 396.60988 319.32304 284.29251 334.22543 394.23373 450.08427 443.19839 424.86003 390.47998 297.26501 234.67768 137.22790 135.81667 234.29939 327.17382 356.91814 283.44360 160.13299 156.51799 236.14380 364.12412 412.70030 437.17517 482.10268 521.26892 475.02564 438.08598 348.96724 289.03428 343.03735 351.39469 272.48636 210.71097 166.38960 283.82571 386.55550 459.05380 451.47474 402.15540 380.47432 398.87073 355.87527 302.91861 323.12792 418.42781 412.53137 400.26025 408.51067 428.54109 436.37157 433.08231 461.59083 445.46657 386.15556 301.47480 211.77365 97.10704 16.53028 7.11775
