120.70922 4.29688 2.82776 3.99661 7.84910 3.96726 4.04150 6.67269 3.17083 3.81719 2.32529 4.48541 5.30511 5.12509 5.77070 6.77440 6.16771 4.74971 1.52607 0.75867 3.93615 6.61959 5.70404 5.45556 6.23217 3.71079 0.41588 5.22341 2.82224 2.12446 3.67847 8.61991 6.64647 7.07232 6.60344 5.09760 3.39960 3.50739 2.02611 4.48161 0.92689 1.71715 5.01971 6.10986 3.11055 0.60264 2.18078 0.65312 0.25105 -2.34459 -4.74754 -7.80441 -6.77721 -7.03229 -11.98347 -18.23400 -20.35323 -22.47679 -26.92301 -37.04591 -43.07424 -49.37692 -53.45393 -61.48009 -73.08750 -86.32848 -84.08631 -99.94243 -107.22565 -132.09980 -135.14698 -148.35825 -161.29015 -192.78500 -204.29252 -205.50900 -227.02581 -245.10509 -275.50390 -291.77015 -313.04483 -344.44644 -369.52162 -391.40229 -418.16460 -438.09590 -475.76580 -505.36271 -532.83333 -565.53333 -584.20090 -621.60160 -649.30169 -680.56111 -704.49716 -725.65892 -745.70700 -757.06354 -774.13527 -782.32764 -785.39397 -762.97186 -752.46995 -728.11830 -717.44586 -712.11957 -698.68513 -683.16521 -675.55763 -661.38701 -648.42253 -637.38158 -612.89972 -598.55743 -580.29624 -561.72932 -552.82707 -524.05882 -514.20805 -498.64057 -472.98170 -465.98095 -450.04603 -427.06438 -418.08208 -402.01982 -394.16575 -381.71274 -371.19085 -363.50303 -358.96341 -346.34885 -337.61443 -343.74982 -331.65772 -332.38499 -329.56108 -326.34357 -329.56194 -333.11078 -326.27045 -340.50306 -336.09527 -337.02867 -337.37322 -343.87693 -354.02821 -346.85199 -365.56290 -358.02034 -369.51599 -374.96764 -371.93396 -388.30518 -396.62074 -402.10920 -413.62421 -422.45428 -428.67573 -436.48944 -448.11834 -461.62485 -471.13188 -472.99483 -489.70929 -487.77613 -493.77375 -508.86158 -518.15940 -537.39581 -537.80633 -552.03342 -551.80511 -568.33250 -570.85188 -585.63376 -592.02559 -601.47007 -612.76159 -623.86132 -632.75911 -635.40461 -648.52824 -659.96193 -664.59493 -675.37950 -687.75553 -695.42685 -705.32323 -711.35424 -716.91977 -730.10152 -740.22909 -746.35661 -750.50654 -764.56289 -771.22251 -780.44918 -791.90989 -794.54376 -806.83492 -813.66253 -813.15281
110.67980 3.14474 3.03011 3.66195 6.42727 5.22036 4.90086 3.82611 2.33086 1.62877 5.16474 7.98915 2.91063 2.07964 6.67486 4.32602 0.38981 1.44503 5.52217 1.16243 4.48659 5.74942 8.83521 3.38298 0.88866 -0.17235 3.50749 1.75477 3.71387 1.05840 2.06854 4.23326 -0.51655 4.75876 2.10333 2.28923 5.81996 5.25109 3.74805 7.48168 0.40149 1.98823 -0.84114 -4.80520 -6.55330 -6.40775 -7.17196 -10.47678 -10.26051 -13.92105 -16.62859 -18.08236 -20.21023 -24.55431 -30.62212 -36.54246 -45.28753 -42.05354 -44.76519 -62.39822 -65.90819 -70.46640 -82.84515 -99.60488 -110.71569 -103.94731 -124.69127 -127.63799 -144.09772 -148.70393 -165.18546 -187.89952 -202.50245 -214.60530 -233.64582 -245.21113 -269.11764 -292.80496 -317.14262 -334.11682 -344.80001 -372.41375 -405.11066 -434.01808 -448.48437 -476.07257 -513.33717 -531.77089 -555.73345 -601.63753 -624.26987 -655.58929 -678.92740 -692.09182 -733.34927 -737.37628 -778.61324 -786.77196 -796.99847 -801.42135 -800.74427 -782.17536 -773.44569 -752.75433 -740.62244 -725.60515 -718.39769 -701.91842 -688.64402 -682.95198 -672.40217 -661.38827 -643.28098 -628.62611 -609.13837 -596.76380 -584.71424 -564.59572 -543.80856 -527.19193 -509.40056 -496.20339 -485.88793 -465.10058 -458.73621 -448.22176 -420.84492 -416.93979 -412.82479 -397.00014 -398.11750 -384.27663 -378.35753 -377.22934 -374.03137 -370.04467 -371.34960 -366.17242 -368.43401 -357.39431 -363.01159 -370.15614 -366.85806 -367.00159 -366.82573 -371.14688 -379.95027 -374.64999 -388.59069 -388.60007 -398.45402 -407.32489 -414.66239 -422.08537 -421.91906 -426.80263 -442.61931 -444.21497 -449.66619 -461.71529 -466.33947 -472.72715 -485.13844 -493.10293 -502.48082 -503.76347 -519.73793 -535.43065 -540.96860 -547.26841 -551.87941 -563.11264 -573.28399 -578.51062 -595.97102 -600.94860 -608.68276 -620.28845 -629.65374 -635.81759 -645.34238 -647.47157 -662.74270 -673.14076 -685.30998 -686.92825 -697.41637 -707.31807 -716.41424 -725.02486 -737.93690 -740.58133 -751.59978 -759.96598 -765.95902 -771.33465 -776.22416 -791.98950 -794.52715 -809.14856 -814.11547 -825.04342 -822.77289
105.08048 6.16965 4.22793 0.29022 2.46755 3.92132 3.26847 5.43851 3.25195 -0.06899 6.39500 1.74720 2.91821 5.03750 1.90274 1.86233 2.99844 3.68973 2.28468 4.22908 4.57288 5.72871 5.11410 3.92361 4.13108 2.43430 6.38668 3.57616 1.25292 1.36530 -0.38201 0.87796 2.89042 -0.72977 -0.56101 -0.41027 -1.91364 -4.59322 -4.39428 -5.95157 -7.68994 -10.29049 -9.71610 -17.28782 -11.85084 -19.87811 -21.79107 -28.36694 -27.72577 -35.26466 -40.28569 -47.72912 -49.88772 -53.96082 -54.55786 -60.58368 -62.72200 -77.31332 -79.51159 -87.51940 -88.30287 -112.40784 -114.67106 -116.44352 -130.83604 -143.69283 -152.55942 -161.59116 -176.30458 -186.84938 -207.58164 -212.31069 -227.56102 -256.67833 -270.14686 -288.69282 -298.10389 -313.11160 -341.90944 -358.01387 -388.72061 -407.07048 -433.06297 -451.29065 -484.87562 -509.88396 -535.71233 -565.87580 -590.59520 -629.70852 -643.17565 -674.46897 -709.26654 -725.90353 -760.72138 -777.33563 -791.65596 -801.93406 -818.86622 -819.82250 -817.51004 -798.48447 -786.53482 -768.86785 -752.45338 -749.62122 -736.66640 -734.73370 -719.20134 -701.07925 -695.70381 -683.92497 -669.95272 -647.65963 -636.88962 -621.60993 -610.16049 -597.29246 -584.01825 -565.60947 -555.09181 -531.95488 -518.90705 -508.19487 -489.27069 -483.32843 -471.28422 -450.28640 -446.50381 -435.27175 -431.65620 -419.87801 -425.76272 -412.37434 -400.98587 -393.82138 -400.18453 -395.23462 -383.75582 -394.23083 -386.62150 -393.99038 -394.31388 -393.89498 -405.30449 -406.01481 -410.45639 -404.75865 -413.38769 -419.31703 -423.78097 -427.15776 -433.10726 -434.52713 -450.41604 -454.22588 -465.64155 -466.55186 -471.26352 -475.92197 -489.03430 -494.73297 -504.29381 -511.27755 -524.17991 -529.48040 -544.36520 -542.43386 -551.68757 -557.84336 -575.23775 -570.97035 -593.38405 -599.66861 -605.31074 -617.37451 -624.05767 -624.91754 -640.52423 -652.00146 -661.41659 -673.00742 -675.17379 -682.70847 -689.61197 -705.00804 -712.02463 -722.18544 -727.09750 -736.57972 -742.41553 -752.59998 -760.61104 -772.55025 -775.44584 -782.13102 -793.56507 -799.25032 -806.16755 -818.47452 -825.24397 -832.57441 -831.51762
94.88358 1.76466 1.64483 0.82157 -0.73883 3.03625 5.02289 2.61011 2.87071 2.68530 3.92047 3.26178 3.58924 8.03488 6.82324 6.64829 0.88382 0.91666 2.17272 2.94541 4.89404 2.92971 2.75130 3.43643 0.48135 1.04567 1.67177 4.66821 -2.09491 2.55313 1.59290 -0.41023 -1.11945 -1.91156 -4.78059 -2.63528 -11.46887 -9.34150 -12.77544 -17.38079 -19.80782 -22.14551 -26.16736 -26.16268 -40.19584 -33.26892 -42.06196 -51.01029 -55.28248 -51.80088 -55.36825 -60.96163 -69.49708 -73.20600 -79.04584 -90.86089 -91.34278 -101.38240 -107.56686 -115.62065 -122.00995 -127.09562 -138.82956 -143.92024 -161.60850 -168.82961 -185.12860 -191.38672 -206.61709 -221.54474 -236.25614 -252.34440 -265.28500 -276.23143 -293.45845 -313.96320 -342.29841 -358.18790 -378.68455 -402.49497 -415.90238 -442.37123 -479.47980 -492.27687 -514.31981 -525.97575 -581.84477 -594.49394 -620.92063 -659.80780 -676.83078 -712.00355 -738.28294 -746.92643 -775.98955 -800.19314 -810.85698 -829.91031 -840.61725 -841.19007 -841.89933 -831.00525 -814.04727 -784.20421 -779.49072 -765.91833 -757.72907 -746.83990 -735.97657 -729.54055 -728.55814 -711.20205 -699.40870 -682.77082 -672.90927 -665.68199 -637.73421 -628.30970 -613.84170 -592.12929 -579.76567 -567.19001 -550.64667 -542.92510 -529.28201 -503.88425 -502.39135 -493.28036 -478.23527 -470.52872 -459.54316 -459.02959 -451.38645 -447.84560 -437.84964 -434.16289 -433.50345 -428.54564 -432.16896 -427.85719 -432.12361 -420.83566 -422.19504 -429.29862 -429.72117 -433.04235 -431.87175 -430.58464 -439.12758 -447.69603 -455.26187 -458.91507 -462.89924 -475.63659 -471.33758 -474.74404 -476.89721 -486.09710 -498.02442 -509.76256 -518.98638 -525.34543 -527.92145 -532.00351 -545.86033 -543.06368 -561.84419 -573.17224 -573.70376 -581.29201 -582.26846 -605.51801 -607.02141 -610.59587 -621.16774 -630.13259 -638.26412 -648.46365 -654.54845 -663.78511 -668.57032 -679.47275 -688.97178 -700.72385 -707.21140 -719.96225 -723.19552 -727.44428 -738.88889 -750.32640 -754.95210 -761.97828 -766.68148 -777.34167 -785.75025 -797.01131 -802.23708 -812.21894 -816.58680 -827.63388 -831.90512 -843.22281 -843.30114
86.40084 3.80909 0.72304 1.34215 0.17826 2.76739 2.37965 7.45914 4.20707 4.88827 0.56301 3.00102 -1.18134 3.28437 5.33844 2.89553 0.48800 1.55155 2.83334 -1.12324 3.33587 1.39641 -0.14839 1.31636 0.11865 -0.55668 -4.56468 -2.40500 -2.68388 -6.00305 -7.48472 -13.68837 -14.89390 -13.69642 -18.22284 -23.31566 -22.91034 -31.27926 -32.73103 -38.71746 -40.80893 -39.49707 -42.46213 -53.68973 -54.62030 -56.70437 -60.91815 -67.35455 -70.34773 -79.87893 -88.55292 -89.61407 -90.85582 -97.26052 -108.14772 -111.24775 -116.86107 -126.62998 -133.66674 -141.04130 -143.12900 -155.99917 -168.10998 -173.15113 -182.76898 -205.57926 -211.60631 -217.83366 -237.62174 -246.62403 -265.14672 -283.98373 -298.52736 -310.61519 -330.74587 -347.72602 -366.86394 -393.36572 -412.62549 -427.27423 -451.83620 -470.98242 -493.24089 -524.73523 -531.03530 -577.12561 -604.45936 -631.15108 -649.80301 -677.44613 -708.53972 -732.75329 -746.73976 -775.76062 -795.40703 -818.78993 -841.66971 -847.59525 -853.02618 -863.58560 -857.13790 -844.27969 -828.39632 -807.02300 -790.56547 -784.00987 -775.20364 -772.84316 -765.02659 -746.58396 -738.80104 -733.43203 -720.74475 -699.62702 -693.28363 -686.05269 -669.51330 -655.45332 -645.24990 -632.12492 -613.38495 -603.00121 -585.76745 -574.17010 -562.17344 -542.34827 -533.26061 -523.07544 -506.28141 -510.36455 -500.01349 -485.14013 -479.19265 -474.89560 -471.90598 -477.57717 -459.04269 -458.55346 -465.23985 -458.46248 -454.07894 -464.50893 -461.44636 -457.98910 -452.69724 -462.43925 -462.78727 -466.65779 -475.10166 -470.21782 -473.51932 -474.29652 -481.31363 -487.16935 -495.05674 -499.78717 -512.93552 -518.69060 -522.79004 -523.87305 -524.21115 -537.44718 -549.40469 -552.15891 -561.18167 -573.97446 -574.57699 -583.14650 -592.02249 -599.08618 -608.44897 -616.17218 -619.34404 -630.78574 -639.11560 -646.53610 -657.01921 -664.11792 -672.49771 -677.97507 -687.33807 -695.56596 -703.00499 -712.34273 -720.57735 -728.57333 -736.71613 -743.90552 -751.15509 -764.71565 -767.10172 -776.82251 -781.80509 -794.81134 -798.28933 -805.31852 -808.89845 -818.89086 -828.67903 -841.27768 -843.48832 -850.56895 -849.19847
77.68013 1.71710 3.40903 3.28061 0.39062 3.70436 7.72037 0.42086 3.52645 3.57599 4.71242 0.77589 -0.39694 4.26248 2.07157 1.42551 -0.87195 -0.22814 0.46179 -0.31771 -2.98119 0.83927 -3.73939 -1.78267 -3.97108 -3.26555 -10.65904 -13.49507 -22.95465 -13.61238 -26.52775 -23.25746 -29.52041 -31.98328 -38.12882 -39.68723 -44.78607 -47.26953 -50.73310 -53.98133 -62.24722 -60.51961 -64.75953 -67.50076 -73.35142 -76.79194 -84.54217 -87.98087 -94.72519 -99.13925 -103.62056 -109.02540 -114.48440 -116.57928 -122.52246 -132.82886 -142.55386 -146.98252 -159.13888 -160.64900 -177.11946 -195.22087 -199.63285 -205.24985 -218.98633 -224.55472 -243.27215 -252.18006 -270.38406 -271.48797 -298.21021 -311.56438 -328.07147 -344.62323 -359.33862 -380.99250 -396.13531 -421.26567 -440.68165 -457.12953 -486.96521 -505.69039 -527.88428 -558.87888 -598.26610 -607.01037 -634.64714 -648.55920 -685.81299 -705.70681 -726.75787 -754.62646 -780.34557 -804.73348 -820.65256 -835.72096 -852.96626 -863.30675 -877.02251 -878.02948 -871.69224 -860.20857 -834.46669 -828.21215 -810.98081 -799.14611 -792.99547 -782.90781 -780.26795 -777.20236 -767.62449 -754.76764 -747.98003 -727.34802 -718.67274 -720.23304 -699.09776 -685.90455 -669.17930 -651.13397 -640.81960 -630.67278 -616.14908 -598.23374 -594.24803 -580.70830 -565.83373 -557.77685 -550.48749 -537.49190 -523.69061 -525.05269 -518.40311 -513.04976 -510.66014 -494.79097 -504.85086 -497.30198 -488.87139 -487.31601 -483.45866 -487.35121 -471.67646 -482.72086 -488.54385 -486.39763 -493.22798 -487.89128 -493.06452 -494.05422 -504.09252 -511.87071 -510.28365 -507.79005 -528.38560 -522.16933 -529.22687 -531.63056 -542.55155 -552.77083 -554.69892 -566.28560 -561.71858 -575.83649 -586.53309 -585.71854 -604.20210 -598.68691 -612.32057 -622.24686 -630.34291 -637.03367 -635.73110 -641.35054 -657.33711 -664.00865 -672.30696 -677.49027 -686.17637 -689.82583 -700.34503 -701.06138 -712.54918 -728.22551 -736.57346 -738.00443 -746.44740 -755.62133 -766.72387 -768.44049 -777.75684 -785.39609 -793.92467 -807.63937 -810.38781 -816.41302 -822.58279 -836.88263 -837.74346 -848.82491 -855.01127 -860.44417 -861.81810
71.59368 5.69590 1.05092 -0.55894 -2.33534 3.02401 2.17730 0.69360 2.81032 2.09100 0.46043 0.46121 0.11667 -2.30361 -2.27010 2.25500 2.70377 -1.31204 -3.43861 -1.81643 -4.66715 -4.35859 -8.21577 -12.33642 -11.90387 -20.11202 -21.39344 -22.56642 -25.47321 -37.35589 -38.58005 -38.56835 -37.72640 -44.91235 -50.56596 -53.41976 -55.40663 -66.92473 -68.65466 -73.90061 -73.06125 -82.66939 -81.36511 -91.07311 -96.76511 -104.54721 -107.89475 -110.90108 -118.73356 -119.58774 -124.59028 -134.59511 -130.28956 -140.59136 -150.63948 -159.41598 -164.51635 -168.45024 -183.65014 -195.06082 -195.74130 -214.37254 -221.93281 -221.88371 -240.33413 -255.81655 -263.48957 -281.17806 -293.08398 -308.44826 -320.58106 -337.98111 -357.96039 -376.46060 -395.25995 -418.59024 -433.61568 -446.85163 -465.12473 -498.32130 -521.65050 -543.64031 -563.67078 -585.35862 -606.64006 -632.54453 -660.04878 -675.48341 -706.45530 -737.62393 -753.46062 -774.20797 -802.72697 -821.61394 -835.76056 -859.44055 -868.78015 -885.13043 -890.07554 -897.67473 -887.22995 -877.48089 -859.84616 -833.10936 -834.95015 -821.42846 -814.55927 -807.02972 -796.87207 -788.22897 -784.30569 -776.53324 -777.58165 -756.62869 -745.44941 -734.28126 -722.55939 -709.27061 -688.40261 -681.74071 -667.36736 -656.91793 -637.12785 -633.98581 -619.99934 -614.29817 -605.65237 -587.58688 -585.58847 -572.63014 -572.71878 -550.55125 -544.92193 -548.71523 -536.58805 -537.72084 -530.62798 -519.63882 -522.84509 -520.64642 -519.51567 -503.82320 -516.84587 -511.49064 -511.67431 -517.84116 -513.94491 -514.09465 -520.84721 -530.05677 -528.43461 -532.86520 -537.17100 -545.59289 -541.43091 -546.63338 -556.58935 -558.78920 -569.97335 -571.52633 -582.70514 -580.48025 -585.88689 -601.88708 -606.13256 -611.31682 -613.69319 -624.16032 -631.57459 -635.24082 -644.57349 -653.79469 -657.70049 -662.18881 -667.83056 -676.59856 -683.56055 -696.78084 -698.90596 -714.39953 -718.17709 -728.67789 -732.65535 -740.56871 -748.90301 -755.46070 -757.65240 -770.37810 -775.20316 -782.75418 -793.51313 -797.50395 -800.69270 -813.80156 -817.21075 -826.25014 -835.93822 -845.17293 -848.00498 -857.04904 -864.30580 -869.82366 -868.91214
64.69128 5.45549 1.02974 2.58061 -0.55347 1.40320 1.45417 3.07534 0.12730 3.21755 3.18416 -1.20018 -0.77685 -0.04946 -2.50180 -0.90527 -4.82660 -5.57428 -8.85110 -10.10177 -14.03835 -15.55406 -16.58912 -21.73065 -29.38540 -28.06502 -38.85766 -41.90282 -46.44899 -42.74296 -45.77703 -51.43031 -57.72182 -62.22767 -69.58843 -74.22048 -73.08360 -75.83609 -91.21382 -89.89226 -95.92701 -96.34456 -109.95829 -104.99913 -113.51790 -118.68301 -123.21707 -123.86878 -134.76746 -137.97220 -150.13435 -153.36536 -157.85415 -166.87184 -178.94475 -180.92774 -195.97878 -202.44138 -204.99956 -218.57680 -230.25747 -241.90359 -251.40803 -262.36727 -274.29066 -287.56220 -299.29257 -311.44442 -325.27540 -344.04827 -353.78860 -366.00006 -391.05362 -407.32940 -419.68091 -431.43362 -456.61583 -487.26964 -503.77902 -529.66140 -543.22902 -568.56974 -584.01797 -609.61244 -629.92922 -652.32191 -683.79008 -706.31863 -737.33208 -757.42049 -760.36319 -802.36671 -821.09316 -839.38210 -854.67001 -881.62328 -887.47385 -903.33315 -907.29051 -912.24016 -906.22706 -899.75298 -874.65951 -856.77082 -839.48666 -841.37369 -834.01787 -818.11248 -816.97654 -811.98236 -798.81397 -798.77461 -781.98991 -777.17220 -773.82184 -764.96211 -742.09803 -744.38920 -724.53731 -711.49033 -702.39039 -687.15789 -683.83574 -659.53671 -653.00163 -641.36058 -631.22516 -614.84219 -611.11241 -605.23989 -594.59769 -577.57131 -581.16412 -580.02986 -562.59287 -562.63146 -558.83417 -556.05029 -552.45564 -554.71519 -545.72859 -552.73845 -542.91438 -546.18067 -549.35701 -547.82538 -545.48330 -550.73546 -552.58577 -557.77812 -552.62275 -560.38251 -565.34656 -564.52682 -566.60321 -572.29111 -578.66188 -588.76391 -583.32058 -582.11565 -596.99255 -598.71006 -614.37881 -614.19234 -629.38946 -631.08236 -637.74953 -637.03250 -648.91019 -654.18904 -664.34006 -666.43151 -670.51705 -682.12150 -685.54837 -698.68759 -706.44061 -715.02136 -720.41857 -724.79248 -733.24001 -737.44481 -746.86638 -751.98625 -760.95158 -767.58304 -775.72530 -782.11788 -787.90298 -800.83924 -803.44376 -809.27893 -822.37934 -824.40387 -825.14672 -837.61715 -845.86141 -853.32389 -857.66937 -866.39959 -873.70695 -881.42737 -876.30030
51.19365 1.72894 1.12200 0.01808 -3.65331 -2.08276 -0.05707 0.76056 -0.27904 2.33620 -0.26299 -1.66059 1.16810 -6.31301 -6.32027 -5.33805 -13.96487 -16.89799 -16.36487 -21.93836 -24.20762 -31.52830 -37.67972 -37.96941 -45.42240 -47.43029 -49.16024 -55.59806 -59.60571 -64.48592 -69.43208 -69.52639 -76.35522 -79.65186 -83.89134 -88.92010 -93.77316 -98.25480 -106.70589 -103.85944 -117.55231 -119.68412 -123.19665 -130.31211 -139.63250 -142.34247 -140.26974 -147.66173 -158.35201 -162.00668 -162.80109 -175.54183 -182.18436 -194.35143 -194.51495 -214.04598 -215.77001 -225.25522 -240.81920 -257.66052 -256.50991 -267.73578 -279.62300 -291.24445 -302.50502 -307.10398 -327.21866 -344.30692 -344.71341 -372.30795 -383.71786 -399.90061 -421.52633 -439.44281 -456.56649 -483.43988 -488.22957 -512.69767 -531.17496 -545.12774 -568.64173 -591.54934 -615.45505 -645.17389 -663.16435 -680.45697 -709.04078 -735.33588 -756.44278 -779.12235 -805.61730 -821.29111 -846.68968 -867.20406 -879.77032 -896.03256 -906.62712 -916.49803 -927.91135 -932.43934 -923.43095 -911.13644 -889.39446 -874.40288 -865.74051 -855.48166 -850.62774 -838.66912 -836.45829 -832.45506 -819.79426 -819.86330 -817.17665 -802.23107 -792.38262 -778.79072 -779.17323 -762.83646 -756.09241 -739.06903 -727.23932 -716.76113 -703.52795 -695.17229 -687.84319 -667.12994 -671.75316 -659.12613 -640.20895 -632.96297 -628.16110 -624.68943 -615.06054 -608.00123 -602.30222 -592.38796 -586.52708 -578.79475 -583.01724 -580.93391 -578.80915 -579.26439 -577.30685 -575.03528 -572.06999 -565.02131 -576.08468 -574.80282 -581.66768 -583.97158 -577.66737 -586.39483 -590.80735 -586.53034 -591.36950 -603.00889 -601.30376 -604.73972 -612.31809 -615.72718 -627.62983 -624.72474 -630.13629 -632.05710 -643.68263 -652.19882 -650.62764 -659.48784 -665.47878 -669.97115 -685.75800 -689.04940 -692.13013 -696.76111 -707.15864 -712.88972 -715.67274 -717.39905 -731.03844 -736.36861 -736.95790 -756.51764 -760.21173 -769.34747 -771.36227 -784.03566 -790.55811 -794.34325 -802.21173 -815.46353 -814.54213 -827.33472 -832.72112 -834.08576 -844.65535 -848.08446 -856.41640 -864.50532 -869.76971 -880.04475 -880.26105 -890.12522 -884.78817
41.50343 3.54632 -1.44851 -1.97606 2.14494 -0.29360 -0.29390 1.31204 -0.65397 -1.58005 -2.88678 -6.12709 -11.42603 -12.65688 -15.58037 -20.37388 -20.89401 -25.01856 -34.61117 -34.66489 -41.77393 -43.58169 -43.71789 -52.06720 -57.00326 -56.32518 -58.68178 -71.15169 -77.13718 -72.28841 -83.20104 -82.97231 -92.32944 -93.25636 -100.05167 -101.94752 -114.05432 -116.46499 -122.12308 -128.90460 -128.97725 -132.21957 -143.20302 -151.72235 -156.22873 -158.33006 -170.58343 -175.75657 -177.86848 -188.87383 -198.50876 -207.78847 -205.96758 -224.58417 -226.07753 -233.55894 -245.21475 -252.77575 -258.05281 -270.91917 -275.16697 -293.39492 -299.63859 -317.94818 -321.59065 -348.82506 -354.61096 -367.30530 -390.17897 -399.61578 -403.66735 -430.89885 -452.35154 -461.97480 -482.38667 -496.93712 -507.12039 -539.53307 -550.98071 -581.03523 -590.53234 -618.50483 -641.28888 -676.15333 -689.15192 -707.98981 -731.82559 -765.77252 -776.26746 -793.07533 -824.52518 -844.26788 -861.55542 -880.24083 -897.60078 -912.44025 -928.03423 -937.42616 -941.92623 -942.54928 -939.53558 -932.84438 -903.33223 -884.25055 -874.53608 -871.03099 -864.45816 -856.28234 -848.19234 -850.82152 -845.65259 -832.78050 -830.95015 -825.86094 -816.17157 -808.69816 -795.83673 -783.83157 -774.68181 -766.24007 -748.57518 -740.23117 -731.60440 -726.60300 -703.55229 -698.27752 -685.37882 -672.65991 -677.25057 -667.73749 -659.44545 -646.02951 -642.46697 -641.72918 -630.89368 -627.39412 -626.90252 -614.97087 -609.73569 -603.33090 -609.73283 -598.14996 -607.27988 -607.38222 -597.66213 -602.21442 -604.54842 -595.10370 -598.93499 -603.31636 -614.70357 -604.29219 -611.72429 -617.20642 -617.79199 -621.83009 -631.30794 -626.27603 -637.80379 -647.11415 -643.70200 -648.61281 -652.11037 -656.05927 -668.67207 -670.71985 -674.82437 -682.40877 -689.14583 -692.42317 -700.63596 -702.73496 -712.36349 -719.62232 -719.79144 -730.51776 -734.67366 -748.19194 -752.92113 -758.08747 -765.33917 -770.27019 -772.64780 -778.93101 -791.12333 -794.57120 -798.90667 -808.06214 -816.28305 -827.73445 -828.05865 -832.53355 -840.95469 -847.86352 -854.03422 -859.58623 -868.65244 -873.66185 -876.18420 -888.97532 -891.76950 -903.00539 -901.82260
30.85202 2.64534 0.70649 -3.69207 0.13996 -0.40907 -0.79482 -2.60329 -8.09534 -10.78503 -11.96097 -14.73599 -15.05270 -20.70819 -25.43807 -28.91833 -32.41802 -41.96823 -37.27679 -46.54750 -50.52458 -57.27270 -60.00983 -61.39711 -66.09704 -75.84779 -79.75833 -86.01465 -89.86678 -90.92154 -98.76148 -100.81820 -108.93768 -115.02665 -123.05112 -122.03923 -128.98510 -132.81655 -143.63624 -146.70600 -154.83135 -158.74734 -164.27231 -169.78190 -179.29299 -180.83413 -184.80596 -195.06161 -196.53287 -203.39383 -217.20321 -228.58313 -231.25210 -240.00657 -248.23933 -259.71800 -265.45591 -278.87063 -286.20907 -292.01300 -308.17853 -320.87699 -334.73722 -337.84782 -354.15540 -369.21877 -383.56559 -394.02535 -404.12674 -420.92098 -447.06350 -459.63377 -475.57935 -490.60355 -507.21628 -524.69816 -550.69309 -558.23429 -582.39456 -613.86617 -627.63815 -645.58985 -662.57612 -695.75586 -714.19237 -730.41065 -755.40942 -777.96710 -797.44257 -817.73400 -839.57921 -859.69521 -876.70527 -897.07585 -918.76017 -932.94380 -940.52247 -957.04837 -960.98346 -962.18555 -955.99716 -936.77003 -920.93417 -904.26064 -888.35908 -881.57968 -874.93675 -871.22976 -871.47333 -862.02254 -857.65910 -851.06629 -852.84927 -843.84291 -831.13637 -822.40198 -814.43602 -806.85303 -797.56912 -796.26300 -785.41990 -779.62449 -755.74938 -744.45495 -735.15686 -730.04936 -720.68736 -714.83379 -713.55910 -693.21971 -691.33890 -680.55062 -674.64092 -661.95170 -663.82032 -648.76501 -648.97857 -644.15321 -636.93585 -635.07416 -626.05282 -633.11171 -626.71930 -622.92765 -636.22319 -628.83659 -626.99054 -625.87987 -637.53200 -632.49442 -635.42110 -632.70158 -633.56482 -634.92444 -646.16440 -647.95932 -655.81868 -658.51404 -657.03153 -666.74160 -659.74513 -679.51993 -675.85941 -676.49066 -684.60943 -686.13076 -696.19084 -700.50126 -698.60112 -706.87248 -712.75615 -721.73289 -731.53439 -734.34486 -739.13081 -755.41964 -745.78797 -751.53158 -761.63519 -772.16022 -777.17788 -778.23484 -790.08030 -793.42870 -807.42112 -811.49384 -821.48240 -819.96652 -829.80004 -837.48968 -839.12194 -849.51852 -852.55683 -860.15801 -867.09298 -876.70253 -882.50160 -881.79670 -892.97177 -901.83029 -906.03551 -909.45171 -912.79672
25.61583 -2.71462 -0.93404 -4.83447 -1.05959 -2.78437 -4.89960 -12.19869 -9.71254 -15.35966 -20.36760 -25.68518 -25.54948 -33.63090 -35.77588 -39.76200 -44.74494 -46.43167 -54.48946 -58.78400 -60.33443 -66.45624 -71.06635 -78.51380 -86.43632 -88.66227 -89.59707 -98.61127 -100.91867 -108.60207 -114.92130 -114.99761 -125.41302 -133.20103 -131.51336 -140.04567 -145.89028 -148.68084 -159.47668 -161.61886 -168.16665 -171.46915 -186.45516 -193.22952 -194.75526 -203.74247 -202.87194 -216.98494 -223.52975 -229.60239 -239.63704 -250.08459 -253.39253 -265.45664 -279.56300 -283.90630 -290.71082 -298.49707 -314.00767 -328.13331 -330.79078 -345.62949 -359.70082 -368.39808 -374.74306 -400.86929 -416.15263 -424.96336 -443.02657 -453.03813 -472.94052 -483.92218 -500.96540 -519.60851 -540.53741 -564.63144 -565.50462 -599.55275 -614.26629 -637.38553 -653.67900 -683.67097 -692.63728 -715.60651 -736.06444 -759.12158 -780.58318 -807.43313 -818.48789 -840.89683 -868.99249 -879.08246 -899.00876 -919.28211 -940.09920 -943.79333 -960.30425 -971.70469 -978.46305 -974.94631 -965.80731 -955.15687 -936.68573 -918.77682 -908.52239 -902.80311 -896.63701 -889.92622 -886.03321 -884.65918 -881.14204 -869.48451 -869.61331 -857.76230 -852.27225 -847.82018 -832.56072 -830.01644 -823.92316 -817.88482 -802.89498 -795.74833 -798.50624 -773.26171 -766.28173 -755.48224 -753.01415 -732.82094 -726.47737 -716.34768 -721.78090 -702.56296 -704.57174 -695.85343 -680.84932 -688.35288 -681.35939 -680.69792 -675.99917 -668.34443 -664.90532 -662.36957 -664.54067 -658.42499 -659.80354 -659.57851 -660.98179 -655.78906 -657.60385 -663.00067 -652.32818 -657.98706 -661.82410 -667.07293 -665.13699 -670.59342 -675.37580 -671.96008 -675.36375 -677.07533 -690.01081 -694.60460 -695.00751 -699.75762 -709.86034 -708.87909 -710.44879 -721.35336 -729.25307 -732.36888 -736.22586 -745.71227 -745.86940 -754.48440 -755.85189 -766.48515 -771.93913 -774.60711 -781.75584 -789.44319 -791.12367 -800.45144 -801.94218 -812.70165 -818.15343 -823.40404 -826.08345 -837.86289 -839.74463 -849.65615 -855.58228 -859.40776 -864.17902 -872.19388 -876.38300 -888.07101 -891.29834 -894.77798 -905.74472 -905.75028 -912.84997 -918.38457 -919.45882
17.53651 -0.69042 -7.95037 -10.22507 -12.31004 -15.64574 -19.08415 -18.42733 -20.89151 -24.47686 -28.79954 -35.25928 -37.39561 -41.34143 -45.95183 -55.51690 -59.62739 -63.27620 -65.27678 -70.57531 -81.05612 -90.83572 -85.89960 -90.53736 -96.24830 -108.17644 -109.87823 -113.92868 -119.53438 -124.26059 -126.64636 -131.85279 -140.89386 -143.60468 -153.51967 -161.33952 -166.25861 -170.95517 -176.20551 -184.84670 -186.33889 -195.09990 -205.80851 -207.57027 -219.73414 -225.33707 -227.56322 -238.08243 -253.21967 -252.72689 -258.52808 -265.69218 -281.49889 -289.00490 -297.13674 -303.92509 -318.34646 -317.06557 -338.67852 -345.50884 -364.22104 -371.25522 -388.52362 -399.07096 -413.67976 -422.43165 -437.20001 -455.74904 -466.42390 -474.60583 -497.74359 -514.64433 -532.48894 -547.87566 -547.29590 -577.31639 -602.27187 -614.04691 -641.42026 -651.55395 -677.54337 -694.13088 -722.53246 -745.10811 -758.01860 -785.28596 -798.34696 -812.49549 -842.67015 -855.41369 -878.96034 -901.49643 -916.83331 -931.86001 -955.17628 -959.68396 -980.63745 -990.35703 -988.86312 -991.01081 -987.37624 -971.92967 -951.94599 -938.44021 -923.17964 -913.09057 -904.64764 -900.12859 -901.89815 -896.92854 -893.00799 -891.34690 -881.68190 -881.86488 -876.23474 -872.48067 -855.31524 -856.74358 -843.22167 -833.06543 -830.24447 -815.17731 -808.66530 -803.30699 -792.03043 -779.52749 -777.97449 -766.43401 -758.10093 -750.43987 -741.79885 -734.34453 -735.81176 -730.10566 -717.53483 -716.61175 -710.91082 -703.94807 -703.21655 -697.16626 -692.55658 -687.63731 -689.16470 -686.88095 -685.43641 -684.28499 -682.45816 -683.17787 -683.29412 -683.53769 -688.84125 -690.21154 -690.77283 -690.56792 -695.53374 -698.59537 -698.95754 -705.33074 -703.98035 -706.76407 -713.35434 -702.96976 -718.56025 -718.90497 -726.99466 -734.45455 -734.44533 -742.70758 -740.41980 -748.46166 -751.19146 -761.26930 -767.59788 -772.68597 -772.87709 -779.23158 -783.20957 -788.27776 -793.00901 -802.54531 -809.08822 -810.26523 -816.11845 -827.36761 -830.38148 -840.95451 -844.52506 -846.70201 -853.63146 -859.49637 -868.52947 -867.24260 -875.83658 -884.65078 -884.66703 -895.22075 -903.65174 -907.83547 -914.87635 -923.29919 -927.23022 -931.29099 -932.72424
8.76499 -0.68307 -15.00809 -14.15551 -22.84183 -20.26151 -21.59436 -26.90022 -30.10361 -32.73859 -38.37385 -46.50230 -47.86193 -53.24819 -61.10113 -65.03922 -65.89692 -72.48833 -79.74383 -88.42792 -86.84616 -88.61909 -100.22967 -105.11341 -106.35687 -120.05452 -118.21662 -129.09692 -135.43138 -136.27311 -142.77691 -150.97912 -157.76786 -157.40690 -164.93585 -175.92462 -184.32233 -182.32514 -198.84483 -204.72582 -210.15387 -216.26774 -216.46918 -237.59213 -233.92661 -241.91274 -252.12314 -260.90834 -264.53720 -272.22458 -290.41497 -290.32624 -305.19883 -304.62163 -315.07488 -330.99176 -341.32957 -351.92189 -364.44712 -368.79832 -386.21134 -400.91076 -409.80360 -421.10174 -421.30232 -449.95361 -460.18694 -482.22003 -480.77723 -506.28863 -512.12284 -536.59860 -549.49192 -574.99843 -593.96153 -610.90830 -627.29605 -648.87385 -656.74510 -686.78673 -704.33021 -727.63525 -744.92758 -759.59204 -780.01259 -806.87574 -822.54465 -842.04905 -867.30169 -881.59079 -901.39421 -912.14818 -938.11928 -953.75809 -963.61227 -976.35130 -1000.21304 -1002.75429 -1005.74518 -1001.55833 -1002.75408 -983.29080 -966.78123 -948.75793 -937.55578 -925.18022 -923.51708 -920.93494 -919.06074 -918.21652 -911.21552 -908.17380 -909.36454 -902.84538 -894.74448 -891.98950 -883.89698 -874.41950 -865.25679 -857.93903 -854.80702 -849.78579 -828.45872 -824.77490 -821.44664 -811.49284 -805.13864 -792.15106 -780.99645 -776.40713 -771.34118 -766.14456 -759.24048 -748.92661 -749.58946 -737.08576 -734.55420 -736.58184 -729.56400 -727.72790 -723.66074 -723.90595 -717.03415 -711.99389 -712.15847 -704.03464 -710.66428 -720.06064 -714.10004 -717.90737 -711.72146 -714.06126 -708.31939 -714.56983 -716.79072 -715.57169 -719.69346 -720.45837 -731.22435 -727.20314 -737.41156 -743.52158 -744.05399 -748.53786 -747.56685 -752.42669 -760.60640 -762.61733 -764.46588 -773.34061 -769.99428 -776.90954 -782.36649 -788.80572 -791.20981 -795.42678 -801.75211 -810.49794 -812.27307 -823.92456 -822.48022 -832.08530 -837.51636 -841.08559 -850.00901 -848.04029 -857.74667 -865.54434 -867.86573 -869.86639 -874.84882 -884.62291 -888.45186 -897.05652 -901.53093 -911.04833 -915.35654 -918.45319 -924.14369 -927.96153 -933.00735 -945.52118 -944.81554
-3.78878 -1.76289 -20.24408 -27.05188 -26.17093 -34.46287 -34.82726 -36.42122 -45.10053 -42.44073 -49.10965 -56.91247 -62.27658 -62.02244 -70.27882 -75.97150 -76.81717 -84.34475 -90.57687 -99.80167 -100.88629 -107.68612 -111.41350 -118.74413 -123.75439 -132.49492 -133.19411 -142.79868 -148.69753 -156.10516 -163.02444 -166.64166 -172.91692 -179.40867 -187.53764 -195.49627 -198.82224 -209.71276 -213.35799 -215.93037 -226.27925 -232.73582 -246.12691 -247.38442 -255.75368 -255.65749 -269.78485 -283.28519 -285.69921 -304.03281 -306.98505 -318.23812 -326.13850 -342.13391 -343.98155 -353.89720 -366.46745 -371.80051 -385.81196 -398.97200 -412.88279 -426.65085 -438.24894 -444.39827 -478.22802 -480.98183 -482.94544 -499.05664 -522.05185 -532.85934 -544.65565 -572.21388 -579.60764 -597.53978 -615.74281 -634.22604 -656.18532 -669.78130 -694.34336 -706.69928 -727.53095 -748.41022 -769.03546 -789.10045 -805.88296 -825.92241 -838.01543 -865.23769 -878.02970 -898.39861 -913.01595 -935.06879 -958.03897 -970.25018 -986.86043 -1000.84493 -1007.13073 -1013.43558 -1028.81726 -1027.57212 -1015.51907 -1000.49174 -979.12479 -959.29812 -951.76337 -943.27290 -939.21920 -933.04776 -929.42613 -930.14069 -930.86887 -923.20954 -925.04845 -917.57693 -906.40152 -902.86624 -900.36566 -894.66027 -882.23769 -880.29089 -883.00681 -869.86383 -862.72173 -843.88445 -843.62141 -836.50274 -825.40324 -824.91755 -821.51631 -811.83137 -804.91922 -790.23122 -785.75669 -784.68250 -773.58126 -771.78666 -766.82963 -755.39930 -756.18271 -751.86836 -748.98494 -749.41403 -744.17931 -746.72997 -737.57921 -740.74558 -735.93721 -743.38018 -740.13081 -736.17863 -732.06395 -740.49430 -738.43559 -744.59283 -743.98674 -748.13728 -749.17937 -752.15085 -759.60904 -750.02531 -760.57006 -757.94964 -763.64990 -764.85962 -768.64848 -772.85674 -777.85943 -783.09318 -784.11552 -785.10933 -791.03296 -798.06103 -803.56330 -804.58538 -808.16126 -816.90607 -814.18998 -825.95164 -828.56788 -832.93470 -838.79038 -845.86935 -850.11858 -857.72626 -862.97171 -865.53836 -868.08296 -875.35646 -883.77093 -888.19738 -896.38605 -898.58440 -900.26621 -907.33191 -910.55972 -917.33936 -923.07579 -932.87834 -933.52117 -935.63551 -944.46272 -951.69212 -950.98259
-11.94226 -9.66210 -26.93367 -32.76674 -35.15800 -34.89358 -39.44768 -48.24114 -51.53757 -56.78701 -60.72987 -66.34817 -69.82884 -78.77887 -82.02614 -85.21615 -90.00019 -99.01141 -105.02347 -108.43018 -116.72354 -121.84012 -127.55641 -131.39064 -139.41008 -146.96240 -155.44293 -159.67962 -166.49469 -170.01765 -174.03938 -179.27953 -188.16845 -195.48195 -200.70060 -211.87906 -214.94201 -228.72743 -233.76296 -247.02882 -245.30280 -246.42587 -263.27779 -266.65726 -285.28280 -287.04892 -296.92479 -298.71989 -309.95316 -319.52097 -328.15290 -342.88749 -350.09627 -356.87290 -367.44517 -379.01344 -389.90530 -401.40100 -413.07646 -424.29301 -436.52583 -449.29157 -463.92703 -481.08975 -481.38170 -502.26469 -515.18941 -529.15244 -544.45426 -558.88868 -570.05459 -593.23397 -604.48987 -621.79204 -639.64348 -663.74006 -672.80905 -699.97083 -720.90937 -724.93796 -755.42457 -770.89649 -794.73646 -810.06616 -828.31769 -853.24866 -865.30293 -883.50819 -899.50371 -928.76831 -940.47189 -952.93719 -974.97395 -986.89918 -1001.04660 -1014.55613 -1026.47745 -1029.36666 -1035.42434 -1040.56548 -1029.62416 -1008.46585 -992.95491 -974.74483 -965.34844 -956.14903 -957.16140 -950.32971 -948.08626 -948.65627 -942.72182 -938.02446 -933.30365 -930.40621 -930.42150 -924.01882 -923.96089 -915.94532 -918.22202 -907.72523 -890.42049 -887.92020 -880.68753 -880.43816 -866.95463 -860.82981 -857.49033 -846.78754 -840.01289 -830.09007 -823.33803 -817.68908 -817.91393 -802.17414 -802.98984 -791.78276 -787.94177 -785.68639 -779.32560 -782.75075 -782.56021 -771.92542 -766.78322 -770.06140 -777.49378 -766.36784 -765.31681 -765.63577 -761.49084 -761.80413 -761.38444 -768.10850 -756.02071 -764.62914 -764.73679 -766.23167 -765.47302 -773.70599 -775.14554 -767.09620 -772.92727 -775.41463 -782.04863 -780.07807 -790.87026 -795.92529 -792.23942 -798.50555 -799.00804 -804.36246 -811.55090 -818.73606 -825.02232 -820.57893 -823.13734 -836.27009 -835.88095 -837.57453 -844.95188 -848.84244 -852.74909 -860.30321 -863.84519 -868.12457 -873.39620 -878.17513 -885.30545 -890.71096 -890.67444 -898.95565 -907.05909 -910.41742 -916.10943 -919.24070 -925.31367 -924.93055 -934.59875 -939.76694 -944.46779 -953.51149 -955.87753 -959.96410 -961.69212
-24.55165 -20.33267 -39.45760 -42.78931 -47.98567 -52.04722 -53.68697 -56.31252 -60.19916 -65.54255 -73.76357 -75.17885 -87.12399 -85.26357 -92.19408 -101.44797 -102.97742 -111.28249 -122.40618 -120.81104 -126.27452 -136.80021 -140.27703 -145.96477 -150.50004 -159.53207 -167.12931 -174.34282 -176.17878 -182.65734 -192.27191 -197.24424 -205.53849 -212.33027 -216.23795 -227.34787 -236.78248 -242.59546 -247.67389 -258.41149 -264.38950 -277.95850 -282.84926 -289.41249 -295.34016 -302.81150 -315.10264 -324.41966 -334.53910 -346.11435 -349.50639 -365.00001 -372.31838 -378.72315 -388.05978 -402.18057 -411.12394 -426.58096 -432.52290 -447.23795 -462.22888 -473.86390 -489.60740 -493.85246 -513.72901 -529.30166 -549.40964 -557.41595 -568.05744 -589.97045 -604.55585 -616.12379 -638.98539 -650.18403 -665.71575 -690.95170 -704.90485 -717.73253 -740.11293 -751.46940 -777.92686 -791.29145 -814.40271 -825.96251 -847.26058 -865.93243 -894.55509 -895.54076 -928.30614 -940.84339 -956.36591 -971.49068 -989.06982 -998.68506 -1017.08909 -1032.09895 -1041.82912 -1045.19146 -1054.51063 -1048.56612 -1035.55215 -1031.33971 -1000.99070 -994.53643 -981.49486 -976.73399 -967.15760 -968.27642 -964.71571 -962.26946 -964.57835 -961.17088 -960.40019 -954.70814 -946.79359 -941.16018 -941.28278 -930.69489 -927.43604 -928.62546 -923.48814 -912.56792 -906.47295 -894.80988 -892.86958 -887.33042 -882.05780 -874.89652 -864.82354 -861.54228 -858.82113 -848.05698 -843.36743 -837.57833 -840.02042 -824.52451 -814.68518 -819.82015 -808.51365 -801.31180 -806.82732 -810.10295 -804.62801 -793.14552 -793.64516 -787.22017 -794.38988 -786.61427 -786.22546 -791.58448 -785.34584 -787.06351 -796.32495 -791.92040 -790.28729 -791.20710 -793.50079 -789.48103 -798.15550 -802.27178 -798.92756 -799.59818 -808.25542 -808.42109 -810.50634 -803.73320 -819.09718 -820.47457 -824.32864 -828.97933 -828.26929 -831.06900 -835.55695 -839.47758 -855.19967 -853.03630 -850.12814 -853.56518 -860.13946 -868.01820 -865.88451 -869.66816 -877.41781 -881.69592 -891.24637 -893.34273 -899.64887 -901.68985 -912.32494 -916.33543 -917.88332 -923.65735 -929.01144 -926.50096 -938.39798 -944.78472 -949.78366 -952.46258 -959.72609 -961.90442 -968.23143 -970.62215 -974.18475
-30.60312 -32.24385 -47.95805 -55.22900 -55.36009 -59.01448 -62.00238 -67.58195 -74.26956 -72.46549 -81.19386 -85.64364 -93.59781 -96.94997 -100.61161 -109.04968 -119.43402 -125.30826 -129.49229 -130.49306 -140.73071 -151.15190 -150.52372 -164.86827 -171.99809 -178.70006 -183.33500 -189.23549 -193.83191 -202.59414 -207.71933 -218.40084 -228.26169 -225.77037 -239.92454 -250.05965 -253.19204 -258.05392 -270.11439 -274.88840 -284.50979 -287.17263 -299.03502 -311.12478 -319.64367 -328.21436 -335.52351 -349.84247 -357.76635 -359.88064 -374.50798 -380.90155 -393.81285 -401.62139 -417.05727 -431.07986 -439.06810 -454.84256 -458.50977 -473.85066 -482.96892 -496.31232 -513.50005 -524.51833 -535.48214 -554.85052 -557.88244 -581.15415 -594.23022 -607.26668 -623.61392 -639.89605 -658.59443 -676.52728 -678.81606 -703.74854 -721.20826 -744.47138 -759.41253 -784.31667 -795.38617 -808.31108 -835.06894 -854.53035 -866.99291 -881.17115 -909.72242 -923.87260 -935.45085 -955.60376 -976.89295 -992.60983 -1001.39729 -1018.63255 -1032.41440 -1045.93658 -1053.25440 -1061.43529 -1062.24821 -1064.10170 -1054.11183 -1039.87091 -1022.17583 -1001.46892 -996.74518 -986.94888 -984.91710 -979.34433 -978.23228 -978.53672 -980.08757 -974.69469 -971.99919 -968.64266 -969.18781 -966.64217 -968.91329 -958.76011 -951.81993 -947.90999 -944.86868 -934.30816 -925.91866 -927.04612 -910.92500 -908.50054 -904.40469 -892.03515 -887.24296 -890.14573 -877.21306 -878.36984 -871.71254 -857.84395 -852.38819 -845.02171 -844.18592 -840.09906 -843.56248 -848.11336 -829.89819 -832.24988 -822.21720 -827.50652 -822.13182 -823.55029 -818.90987 -821.17574 -819.20818 -817.19441 -815.73163 -808.61425 -816.20166 -810.16943 -816.35335 -818.25676 -814.24764 -825.82798 -812.28719 -818.92089 -829.55052 -820.96401 -830.08642 -828.00606 -832.70849 -832.86155 -835.45071 -836.42399 -839.42586 -845.09232 -848.79536 -855.51000 -865.79442 -860.24643 -862.21844 -867.99788 -872.22379 -878.03754 -877.99665 -884.07285 -885.41352 -887.93952 -895.31796 -902.22266 -902.16221 -905.50664 -911.04112 -914.30489 -927.87820 -923.62965 -926.62921 -937.66227 -943.49908 -942.49466 -946.46138 -951.43539 -958.44077 -965.22401 -969.73024 -975.16869 -976.64802 -981.36889 -980.42763
-38.23560 -39.46485 -57.32127 -62.98821 -68.86277 -68.43490 -71.15121 -77.37101 -81.16338 -86.80219 -93.15145 -95.37866 -107.44805 -108.79910 -112.48584 -122.87410 -131.43917 -136.70169 -145.34309 -151.68162 -155.36351 -152.33133 -167.97953 -177.38880 -180.07769 -189.09804 -199.18043 -203.76420 -206.17575 -215.03189 -225.62612 -244.90512 -242.96095 -246.87196 -256.68379 -260.11346 -270.02125 -280.47177 -286.83984 -300.70522 -302.52111 -318.95957 -318.32009 -329.59436 -343.70170 -349.40011 -362.90027 -365.12147 -373.75856 -387.92801 -394.09719 -397.98498 -421.79558 -428.89758 -435.78509 -454.29844 -462.11020 -468.09061 -487.58625 -499.32382 -514.75088 -530.37577 -539.77313 -539.54288 -556.25686 -578.74354 -588.17562 -594.98789 -614.88460 -633.34370 -653.34793 -666.99035 -687.80473 -692.64402 -719.73952 -739.45366 -754.72802 -769.56551 -780.44721 -801.18967 -815.63408 -839.19437 -858.62062 -875.39153 -887.54236 -911.31489 -926.64375 -943.14429 -967.49987 -975.83269 -986.24984 -1004.23542 -1020.39141 -1036.42937 -1054.42063 -1058.67393 -1068.27272 -1074.33006 -1077.88322 -1080.60334 -1065.99873 -1052.36113 -1039.77580 -1019.87636 -1007.16990 -999.96847 -995.20276 -994.42229 -994.90313 -997.65474 -992.27820 -987.62266 -993.27647 -991.89772 -987.80852 -978.02325 -981.18298 -975.18287 -969.99122 -972.07664 -967.94154 -956.56500 -955.48930 -942.81428 -935.17560 -930.10921 -925.83428 -921.72659 -914.82701 -905.47852 -903.23126 -897.23433 -896.80381 -887.97528 -885.16822 -878.52591 -868.01346 -860.03305 -866.09250 -864.27713 -858.23818 -855.36745 -853.10874 -848.77211 -845.31867 -843.37472 -847.19204 -843.74200 -845.23674 -843.45253 -837.01446 -835.79226 -840.67822 -835.81791 -836.05038 -838.28672 -840.77409 -841.43589 -840.22772 -846.33021 -841.39199 -852.19006 -848.78019 -853.66100 -854.51027 -854.30896 -852.88152 -859.09212 -867.40828 -865.67662 -858.66839 -874.80072 -870.82906 -882.22623 -876.31706 -884.25919 -883.51561 -893.89680 -894.00618 -896.34056 -903.90884 -904.33520 -907.85819 -916.91486 -916.03401 -922.97709 -925.11658 -927.59376 -934.21564 -938.00112 -938.72492 -952.93129 -955.37569 -957.16537 -957.52505 -964.58842 -972.59344 -975.66089 -978.74936 -980.51877 -984.11539 -995.74306 -991.72533
-44.69957 -48.87606 -67.44764 -70.40587 -74.03233 -75.09114 -80.62945 -91.85485 -94.77532 -100.73395 -101.97418 -107.94893 -114.75607 -121.82145 -134.27222 -135.38767 -140.60949 -148.07544 -153.86762 -165.11311 -169.63291 -183.09700 -184.24399 -183.24024 -198.14943 -205.90007 -213.29082 -214.66116 -227.57341 -227.33664 -238.69958 -250.28761 -260.08150 -256.08032 -272.02286 -275.15760 -293.57843 -300.22570 -307.79988 -314.12450 -327.11480 -329.32866 -344.10724 -345.86616 -356.00270 -364.27358 -373.88416 -387.27158 -394.67746 -410.62775 -419.80377 -435.10891 -438.84043 -444.79510 -469.23559 -474.74473 -480.44654 -499.50100 -511.15629 -524.45957 -536.70505 -549.73390 -561.63752 -573.55081 -592.01340 -597.34056 -617.69560 -639.23920 -651.02589 -661.81336 -685.08760 -687.03860 -703.86497 -726.48691 -738.03784 -754.93184 -771.95204 -797.92210 -803.85161 -826.49178 -843.34839 -856.11278 -877.79865 -898.68670 -910.98431 -926.41571 -942.94026 -958.06138 -976.51629 -990.03088 -1009.95301 -1028.49236 -1042.20653 -1051.35842 -1065.18582 -1073.33696 -1086.80841 -1089.68531 -1095.27088 -1092.58881 -1080.37613 -1066.38658 -1044.18882 -1028.03600 -1025.92106 -1012.82977 -1017.47302 -1014.49764 -1008.21019 -1013.07422 -1013.53730 -1008.88619 -1003.95793 -1011.00976 -1002.11691 -1003.93106 -1003.67547 -995.60544 -993.16881 -986.36144 -981.88797 -978.33647 -975.89572 -967.65094 -967.76541 -956.75836 -951.50277 -942.78176 -937.64992 -930.94615 -928.35383 -929.55816 -920.41563 -918.16059 -907.44056 -899.47724 -902.03800 -896.69798 -900.98685 -886.44284 -887.86969 -891.37713 -878.88704 -876.45636 -874.83140 -869.78872 -866.98628 -876.41128 -864.46948 -872.85606 -865.47768 -861.41558 -870.05363 -864.15618 -863.08451 -863.92440 -860.33480 -863.86957 -863.09575 -869.66463 -868.44738 -863.35101 -871.67831 -875.47633 -873.10777 -870.45070 -877.04395 -878.58292 -880.99621 -888.03561 -888.38473 -886.43056 -891.04170 -894.28074 -897.11400 -902.12972 -907.43036 -907.23955 -911.60430 -914.13795 -916.70319 -923.00557 -926.32494 -932.00411 -938.85277 -934.08313 -942.91908 -947.19755 -951.39642 -953.24199 -957.46389 -962.06304 -964.70436 -966.29348 -974.65804 -977.54432 -984.22080 -988.14149 -990.78577 -994.83307 -999.33143 -1003.92635 -1005.73740
-51.21428 -57.77094 -73.92615 -80.66683 -84.96922 -93.25171 -94.81596 -98.54961 -104.85957 -108.71489 -116.80704 -118.87800 -130.94595 -130.71454 -139.82556 -148.86431 -152.90834 -161.74249 -166.17198 -171.79717 -181.75194 -183.67538 -195.81242 -204.29132 -211.28081 -218.82330 -219.12321 -234.24959 -238.83065 -247.70825 -256.87683 -265.28504 -274.16975 -275.18259 -293.65032 -296.61983 -307.83383 -315.31406 -324.45793 -333.47933 -332.78421 -353.97355 -361.86024 -371.90975 -374.96418 -392.23342 -401.31272 -408.51274 -417.03259 -430.90902 -443.12852 -451.30625 -456.51796 -474.59650 -484.53651 -494.61767 -506.96939 -521.48882 -533.65870 -541.31259 -555.80665 -571.47582 -582.29660 -605.82286 -618.90678 -624.24415 -643.57382 -655.03067 -669.15777 -688.99844 -702.94057 -722.19529 -730.12855 -753.13170 -763.17986 -790.09889 -798.05946 -813.25340 -833.55648 -846.03534 -864.98471 -885.47139 -899.37638 -918.64586 -929.33421 -953.32335 -962.16678 -983.01983 -991.06465 -1009.98768 -1025.50145 -1045.73051 -1051.11084 -1063.37381 -1082.01429 -1094.52027 -1095.94244 -1102.81815 -1101.15738 -1108.66266 -1097.90816 -1080.43560 -1058.95423 -1043.67975 -1039.16850 -1032.08685 -1023.59750 -1018.48446 -1023.15401 -1022.89910 -1024.10418 -1025.11817 -1027.59917 -1026.92770 -1024.59398 -1019.72893 -1018.76726 -1013.58228 -1014.33213 -1002.60410 -1000.90979 -1000.86735 -996.50587 -984.40991 -979.06520 -974.10569 -968.27221 -972.40200 -967.63264 -959.27467 -953.11993 -955.24006 -948.55045 -935.99485 -936.79805 -926.58160 -929.80817 -919.71524 -914.73330 -912.96176 -907.53931 -903.99752 -909.08129 -900.28083 -903.87850 -896.31795 -897.25181 -893.65336 -889.70772 -888.43015 -884.73285 -893.80194 -886.64717 -889.93299 -884.60806 -884.95210 -886.68761 -891.91419 -889.24405 -898.02999 -888.35720 -886.38870 -890.32331 -886.82815 -891.99098 -892.67804 -901.88549 -897.17247 -903.85313 -903.19476 -905.64266 -910.30800 -915.77606 -913.88406 -913.60692 -913.56964 -916.91857 -925.27824 -925.23052 -931.47988 -936.80068 -937.49836 -941.55191 -941.79662 -944.88969 -950.70060 -957.63390 -952.73310 -955.86154 -965.83493 -965.73177 -976.71671 -973.31531 -981.08332 -981.36560 -990.93240 -990.48748 -993.38629 -998.98214 -1006.13932 -1014.45132 -1015.16771 -1015.43002
-66.79347 -68.99914 -85.51166 -95.37247 -93.68333 -96.39430 -103.74337 -104.63292 -112.83686 -118.76068 -126.09794 -129.79824 -142.42417 -145.29889 -152.66910 -161.76493 -164.96045 -177.04450 -180.90646 -186.93024 -186.72126 -202.50573 -212.51131 -212.68065 -228.61101 -233.71691 -241.99550 -253.46609 -259.15092 -267.55377 -270.69458 -284.25643 -287.11538 -304.55321 -307.37788 -319.23081 -324.20441 -333.98971 -339.80340 -353.63320 -358.52732 -371.75644 -375.47692 -387.93022 -395.79513 -410.13873 -423.33100 -436.36838 -439.71547 -455.54364 -460.32894 -472.19485 -482.19070 -490.07961 -502.82863 -522.41615 -527.34452 -551.69035 -558.02524 -569.48038 -587.39542 -605.73038 -606.78507 -620.94409 -632.59758 -650.84985 -668.35034 -681.10696 -688.98724 -714.67914 -723.41371 -739.09666 -752.97233 -769.76258 -787.73700 -807.63518 -825.80894 -839.27626 -851.46710 -869.13496 -888.29844 -901.57888 -913.32327 -932.12218 -952.63429 -962.09528 -977.62610 -991.73797 -1013.92389 -1026.89185 -1051.82922 -1056.75379 -1069.12337 -1084.63004 -1090.09120 -1107.92998 -1113.78383 -1121.29375 -1121.23880 -1119.74471 -1110.35529 -1093.33900 -1075.17762 -1065.58273 -1047.80490 -1048.18162 -1042.30184 -1037.10244 -1041.75006 -1039.96736 -1037.08695 -1040.16487 -1045.67667 -1038.86315 -1040.13047 -1028.39688 -1038.86077 -1030.19640 -1027.07241 -1028.04117 -1027.09822 -1016.95437 -1014.93841 -1010.04502 -1011.75580 -999.86013 -996.70533 -985.96517 -993.78886 -985.33083 -981.57827 -974.10753 -975.22126 -964.45291 -965.83367 -958.44183 -945.16038 -948.56526 -946.92123 -944.90204 -942.10166 -937.56956 -938.33505 -932.11924 -924.75686 -922.09017 -920.23668 -920.23951 -915.93673 -912.31607 -915.66864 -911.32753 -901.41082 -905.37130 -910.74778 -910.52945 -911.68385 -907.48420 -909.85538 -907.42667 -905.91411 -911.85165 -910.85107 -909.85291 -918.52206 -921.41699 -921.90578 -915.51741 -920.06408 -920.40609 -920.95437 -924.13962 -931.37862 -929.72370 -935.96756 -938.66997 -942.74269 -941.15773 -947.41583 -948.41568 -953.60936 -962.36860 -956.60438 -958.80876 -961.88247 -965.32951 -971.68011 -972.53756 -976.95059 -981.29233 -982.73389 -986.05482 -992.58020 -990.96430 -997.19633 -1004.34593 -1004.47960 -1009.89570 -1008.71743 -1013.50517 -1024.63132 -1021.76262 -1023.02424
-75.50663 -76.13486 -92.26523 -101.74834 -100.30090 -106.38281 -114.72484 -119.47017 -130.27430 -130.89266 -133.87032 -144.05788 -153.58274 -157.99653 -164.40424 -168.03132 -180.25267 -186.64541 -189.89465 -206.03861 -212.79928 -218.48398 -223.92915 -232.88479 -239.19352 -246.11549 -258.42463 -267.20959 -271.39935 -281.38928 -286.47370 -301.62477 -302.38786 -315.81366 -325.92925 -338.50900 -343.19767 -349.22400 -359.21937 -368.32595 -378.70821 -391.34708 -403.96406 -408.84990 -422.80273 -429.01982 -445.13938 -453.31109 -456.54926 -474.60593 -480.74403 -494.94017 -505.24260 -523.33276 -535.79200 -542.81863 -551.63880 -568.88042 -582.86123 -601.90400 -603.68354 -616.13709 -634.70622 -652.81351 -661.20377 -674.97477 -693.33752 -700.94348 -725.29102 -733.01434 -746.42818 -772.84187 -782.20912 -791.69311 -815.82021 -826.96648 -844.55598 -853.84052 -878.95471 -898.05268 -906.33078 -912.17646 -941.03761 -953.75247 -976.06182 -986.76659 -1005.30743 -1017.86823 -1031.55407 -1040.45421 -1057.34067 -1072.06185 -1087.17087 -1103.42841 -1109.48394 -1118.84348 -1123.45452 -1136.44507 -1134.64085 -1131.49576 -1120.98094 -1105.16614 -1090.36438 -1076.73824 -1065.18362 -1061.56906 -1052.00359 -1053.49681 -1056.50467 -1056.32072 -1055.04245 -1055.16243 -1053.17076 -1055.29248 -1055.65687 -1060.97324 -1053.76934 -1050.86240 -1051.05698 -1043.67151 -1043.31529 -1040.00828 -1031.50274 -1032.94671 -1027.39587 -1026.94764 -1019.84995 -1022.99527 -1012.71407 -1013.09832 -997.79234 -998.19072 -995.92965 -993.47068 -983.89332 -984.92132 -980.33590 -976.29359 -970.26003 -963.43334 -967.16163 -958.98151 -956.57517 -961.89361 -955.42358 -953.96459 -954.77016 -949.21683 -941.28353 -938.56252 -937.92841 -935.23141 -937.61569 -936.93579 -928.09719 -926.23612 -937.19695 -935.45890 -937.70290 -935.89765 -933.87144 -931.08197 -928.18761 -928.03926 -933.50319 -934.54987 -937.14670 -941.33922 -940.11812 -945.49873 -947.77577 -946.91119 -948.83583 -946.90491 -948.05666 -951.05229 -960.52785 -959.46530 -960.78555 -959.07287 -967.24004 -966.84905 -970.32313 -973.11774 -974.91007 -976.38489 -982.96323 -990.05279 -987.43561 -993.63232 -997.83119 -995.70781 -1001.42592 -1002.41060 -1015.20407 -1011.95683 -1017.02175 -1019.80308 -1022.18958 -1027.33990 -1031.27080 -1032.13572 -1036.24292
-81.20575 -86.54996 -108.63384 -110.58720 -117.75395 -116.84927 -121.92427 -126.96371 -136.11252 -139.34764 -148.94128 -154.88241 -158.36438 -171.98076 -178.33026 -188.82533 -188.20844 -202.09698 -207.81770 -216.30402 -222.59828 -225.32906 -238.46458 -245.49653 -255.02628 -258.38367 -273.84630 -276.41240 -287.83314 -293.83071 -309.17505 -309.56140 -325.47876 -332.40530 -337.87729 -352.76335 -359.68949 -371.00183 -382.27998 -386.34628 -401.93020 -406.08027 -418.93419 -426.67528 -435.37705 -450.83487 -461.79371 -469.06139 -479.91800 -489.59058 -506.26421 -521.66700 -533.22651 -541.61744 -551.69112 -565.81811 -572.78595 -588.80703 -605.50697 -617.51353 -624.47565 -645.80465 -658.97509 -675.06777 -691.71549 -704.17216 -713.88481 -728.89893 -748.02352 -762.78744 -782.04327 -789.71534 -806.91274 -829.05956 -836.38946 -860.51871 -855.53145 -883.81475 -896.63676 -913.22477 -932.72286 -944.77774 -955.43639 -975.88715 -992.14432 -1007.19185 -1021.77170 -1035.90652 -1049.53368 -1065.34269 -1078.13674 -1084.99672 -1108.89169 -1117.96237 -1123.22246 -1129.48521 -1141.94084 -1151.67463 -1146.76017 -1146.39369 -1137.52323 -1122.58079 -1095.26900 -1083.00719 -1076.13112 -1073.51600 -1067.27544 -1066.54523 -1066.54395 -1063.39058 -1066.58457 -1071.69727 -1068.24183 -1072.90873 -1071.29192 -1065.40397 -1066.81834 -1069.94515 -1070.99216 -1066.78103 -1059.94019 -1060.97954 -1060.99493 -1051.91969 -1050.15823 -1045.84185 -1049.57215 -1039.77087 -1036.98468 -1035.26170 -1035.30926 -1022.02844 -1022.97312 -1016.46077 -1014.83416 -1005.56414 -1004.74455 -1000.95467 -1002.08687 -992.04445 -993.33211 -992.21337 -982.63138 -976.80077 -976.69173 -975.35878 -976.27464 -975.06588 -961.47920 -973.43183 -965.67410 -963.57415 -961.45430 -966.28608 -960.70424 -955.27446 -952.04271 -956.46962 -954.90515 -950.57989 -954.51763 -955.20331 -958.14128 -962.64973 -957.11992 -955.65232 -957.80005 -959.20336 -953.74696 -962.63451 -959.15954 -963.68891 -964.77566 -970.33023 -969.93694 -974.19223 -973.72886 -977.35206 -973.37454 -983.34578 -979.86976 -982.01656 -983.57954 -992.50060 -989.09951 -1000.86195 -997.62392 -1003.44684 -1004.20247 -1005.30069 -1012.30342 -1015.85817 -1017.11070 -1022.96254 -1019.53397 -1027.35818 -1031.20705 -1031.97473 -1034.30941 -1043.23675 -1041.39363 -1045.25666 -1046.50178
-92.22962 -91.22154 -115.29463 -120.47449 -123.22804 -128.57211 -136.25014 -141.22987 -147.60135 -149.19534 -159.92215 -166.70857 -172.15590 -179.21455 -186.18684 -199.17262 -202.23737 -207.23119 -222.22377 -230.53758 -239.25855 -245.16969 -250.50660 -260.25834 -266.42220 -277.09678 -283.20766 -297.32170 -302.01602 -312.83795 -322.89928 -327.66070 -338.06034 -350.79489 -357.48230 -368.91543 -375.46549 -391.67084 -400.03705 -404.26281 -419.10031 -424.02009 -440.33274 -448.74424 -456.84788 -463.99916 -475.63631 -493.57360 -498.87382 -515.48640 -525.66186 -536.46514 -547.49211 -563.25133 -572.69113 -582.24595 -600.49279 -620.64764 -625.53315 -642.20290 -658.10228 -667.23932 -682.82217 -704.41960 -701.64388 -721.65140 -741.51917 -752.77828 -765.40536 -781.81604 -801.79335 -818.84568 -827.97556 -844.80009 -858.54150 -871.24057 -888.19491 -902.86484 -916.72502 -933.58171 -947.96377 -960.32391 -980.44414 -996.44151 -1011.54584 -1025.30484 -1033.45859 -1056.16171 -1063.13331 -1073.65135 -1091.63742 -1104.34707 -1120.94568 -1128.04708 -1137.32975 -1150.11887 -1154.25925 -1163.06184 -1166.33379 -1164.05284 -1148.73179 -1140.58193 -1116.98250 -1102.30293 -1089.59287 -1086.87246 -1083.18275 -1080.43156 -1079.49315 -1087.37984 -1085.10456 -1083.96075 -1088.42034 -1095.26630 -1094.84426 -1090.16159 -1085.43385 -1084.09305 -1087.22630 -1084.48971 -1082.90457 -1082.88265 -1081.30440 -1078.79067 -1078.28683 -1067.09112 -1065.36727 -1058.64860 -1059.82669 -1061.49468 -1050.14047 -1048.88714 -1050.81359 -1040.89605 -1038.90247 -1037.96670 -1029.49254 -1027.05178 -1019.59843 -1016.34920 -1015.92812 -1005.43352 -1017.70196 -1009.07624 -1011.07321 -1006.92086 -993.67220 -987.26170 -993.88114 -992.98973 -994.06367 -991.52436 -981.59315 -981.59930 -977.41520 -979.81899 -980.84511 -978.61167 -981.79297 -977.79955 -971.19808 -974.99215 -981.52523 -981.46923 -971.89967 -977.67340 -977.51006 -978.27675 -982.53243 -979.70705 -985.78833 -980.52581 -988.45532 -989.65922 -984.69033 -982.68659 -987.19790 -991.87317 -993.21842 -993.88009 -1000.14322 -996.81181 -1003.55567 -1002.16784 -1009.31291 -1008.41587 -1009.69855 -1015.98576 -1013.83148 -1021.92507 -1022.76704 -1024.12027 -1029.29901 -1036.05043 -1028.50632 -1037.23493 -1040.86349 -1041.71371 -1043.82962 -1051.89761 -1049.32245 -1057.13465 -1056.03319
-101.42266 -101.93514 -120.28388 -131.76259 -133.36338 -137.09504 -145.18886 -146.66743 -158.00907 -164.34326 -168.27902 -175.63696 -185.67966 -191.97294 -200.92913 -207.67863 -217.24234 -224.18969 -228.80747 -238.80716 -249.29405 -258.48230 -265.08504 -274.29680 -282.86759 -290.31181 -304.84510 -302.75506 -315.07077 -322.43063 -336.47217 -349.07206 -361.90134 -368.28385 -373.23720 -386.39934 -391.86659 -403.59494 -410.86246 -419.72845 -437.37911 -449.27212 -456.91551 -467.21370 -479.00296 -491.33234 -505.65043 -507.75486 -516.56800 -536.32661 -539.09049 -562.41883 -573.52246 -591.66029 -596.52647 -611.48427 -628.40784 -640.07818 -650.27767 -665.29713 -685.27311 -695.33513 -705.17283 -723.11378 -733.87716 -748.22941 -756.43210 -763.30618 -785.76717 -810.02545 -816.89942 -831.21449 -851.03869 -865.61039 -884.15827 -896.04096 -912.20626 -923.54030 -938.45881 -965.07989 -971.16060 -986.63129 -1001.67563 -1019.79703 -1029.35775 -1034.21626 -1056.19890 -1072.25033 -1084.42283 -1105.50601 -1115.27297 -1123.50815 -1129.98123 -1143.73883 -1154.87111 -1165.93962 -1167.74179 -1169.45495 -1176.48277 -1174.69243 -1166.69153 -1143.84662 -1136.97241 -1114.20904 -1106.31615 -1099.02079 -1095.78543 -1094.12169 -1095.64761 -1096.96025 -1099.35411 -1100.95062 -1104.57049 -1101.70863 -1108.67655 -1105.82663 -1102.04237 -1102.81177 -1109.29991 -1101.49305 -1102.72382 -1101.81101 -1103.19074 -1103.16468 -1096.56209 -1087.15728 -1095.50625 -1096.36731 -1087.80985 -1080.05563 -1060.97622 -1074.57100 -1066.75196 -1072.56033 -1063.71908 -1064.87037 -1063.10519 -1050.97885 -1052.88566 -1045.19876 -1040.43004 -1046.43067 -1040.72116 -1030.84338 -1029.27815 -1023.24494 -1026.67126 -1017.51302 -1017.66444 -1008.61130 -1015.01934 -1011.35877 -1007.99024 -1012.82130 -1010.00433 -1001.52329 -1001.98655 -1006.93374 -1004.35983 -1001.82602 -998.48303 -1000.35210 -995.99286 -998.75709 -1000.97189 -995.79361 -1001.90412 -1000.04310 -1002.87948 -1001.01004 -996.59933 -998.88552 -993.08705 -1001.89450 -1009.68184 -1010.03826 -1010.98274 -1011.35396 -1008.80488 -1009.72950 -1012.95857 -1014.07344 -1017.78955 -1017.64181 -1020.13828 -1022.06144 -1023.36476 -1026.49722 -1026.61814 -1030.16327 -1030.79001 -1039.07342 -1036.42144 -1039.15499 -1043.54183 -1050.18223 -1052.34868 -1054.32476 -1056.81140 -1062.89396 -1066.02521 -1067.00915 -1068.26115
-112.70092 -109.57437 -134.35483 -139.03653 -142.35015 -149.86061 -157.65019 -158.72798 -166.88672 -169.95758 -181.20946 -190.05973 -197.91437 -203.01279 -206.59585 -217.26152 -226.26855 -240.23597 -244.67342 -251.91460 -264.54737 -271.08174 -275.58499 -286.29027 -293.69539 -305.56726 -316.59509 -319.76662 -331.58794 -349.48780 -357.82930 -359.10615 -373.58718 -376.44856 -388.01527 -405.10095 -415.11068 -423.12121 -437.74415 -443.39298 -457.93893 -461.57123 -477.67757 -487.82883 -493.46316 -507.26003 -522.45606 -534.02350 -548.29075 -560.28823 -572.66045 -584.99988 -594.48223 -609.09797 -626.88116 -639.04265 -645.40747 -655.92751 -676.29186 -685.30438 -701.50583 -717.74374 -732.84022 -745.84822 -760.52611 -773.33711 -784.15800 -802.36883 -818.35495 -830.59885 -848.16102 -861.68286 -880.81252 -889.07512 -899.81959 -921.07680 -936.24500 -947.00215 -963.47989 -977.47025 -1000.42217 -1005.08645 -1028.28630 -1028.81606 -1041.41044 -1064.69013 -1074.55312 -1085.12769 -1108.29323 -1110.36893 -1128.19306 -1137.60657 -1149.20035 -1161.85331 -1170.48048 -1184.56331 -1190.58095 -1186.25907 -1190.81248 -1187.23306 -1187.42597 -1155.17605 -1141.98782 -1123.72382 -1117.91920 -1108.73980 -1108.30601 -1115.22513 -1107.33393 -1113.17045 -1118.17725 -1116.92230 -1120.40281 -1124.89892 -1119.92995 -1128.09882 -1126.58293 -1120.89370 -1123.24379 -1122.13320 -1123.55198 -1124.40027 -1120.03497 -1118.17348 -1120.48501 -1123.18689 -1110.98630 -1110.34393 -1097.40378 -1104.59556 -1098.46586 -1101.35806 -1094.00425 -1090.80753 -1087.95684 -1083.65829 -1077.46098 -1077.80015 -1075.83396 -1079.35274 -1074.20386 -1060.80628 -1051.29448 -1062.88312 -1056.93645 -1053.66875 -1052.42469 -1052.72384 -1046.65163 -1045.58649 -1039.02530 -1042.91082 -1035.70749 -1030.48761 -1032.07048 -1028.31798 -1025.59310 -1022.50200 -1021.86536 -1024.32485 -1025.04481 -1024.06070 -1019.93080 -1020.44994 -1017.37673 -1022.06296 -1014.45652 -1016.49534 -1020.22366 -1023.97498 -1015.99323 -1020.24365 -1018.66293 -1023.77255 -1023.20313 -1022.99247 -1017.06907 -1024.05627 -1032.41127 -1025.38717 -1030.13956 -1031.11040 -1028.05773 -1035.16562 -1037.90897 -1031.45992 -1035.27759 -1041.07664 -1041.12181 -1043.14455 -1046.78526 -1048.89717 -1050.20260 -1054.11557 -1059.19757 -1061.04409 -1065.98176 -1068.80680 -1071.88001 -1071.76972 -1071.39265 -1080.23028 -1076.67983
-123.13030 -118.98770 -143.35527 -152.28193 -154.26756 -160.77365 -157.79615 -171.90549 -177.03054 -183.33130 -187.97081 -201.57189 -207.18860 -213.47218 -223.05856 -227.68543 -238.58897 -249.25677 -253.75889 -265.98558 -274.73049 -283.86162 -291.43912 -299.17560 -314.93510 -317.05994 -326.30752 -337.44586 -348.82610 -353.45242 -368.83691 -381.77966 -383.77342 -396.78645 -406.71437 -417.95474 -428.58450 -446.35935 -452.00731 -460.11292 -473.98526 -480.67616 -500.50582 -510.25343 -522.45967 -536.03208 -549.61878 -553.68394 -575.17602 -582.54098 -585.33824 -600.28664 -620.62239 -630.66042 -643.11727 -652.84522 -668.43954 -683.33021 -698.63915 -712.04659 -736.78130 -739.63279 -758.82705 -777.48302 -783.98867 -794.10778 -804.21752 -822.11214 -837.19310 -845.57729 -864.33590 -876.05215 -894.89118 -908.67772 -926.25332 -945.70045 -954.11273 -974.13448 -983.99422 -1006.65467 -1015.36171 -1021.63621 -1039.15240 -1055.61788 -1065.78934 -1087.13196 -1093.50273 -1108.33472 -1119.64521 -1123.88729 -1146.10934 -1153.93503 -1165.83416 -1175.98335 -1180.19807 -1192.06883 -1196.09116 -1205.36438 -1205.23063 -1203.21416 -1197.45573 -1179.88488 -1155.14371 -1137.96164 -1135.58038 -1127.09629 -1122.66848 -1122.04729 -1124.04506 -1130.51738 -1132.62709 -1133.70233 -1134.22136 -1137.33501 -1138.71886 -1137.68833 -1139.88189 -1144.14287 -1141.69671 -1148.61305 -1149.80144 -1142.70155 -1139.22075 -1136.25504 -1138.89130 -1135.79140 -1127.34862 -1135.78287 -1132.71856 -1127.51137 -1123.16129 -1117.13282 -1127.71323 -1117.48670 -1112.86788 -1104.45970 -1109.33926 -1102.82350 -1099.44057 -1097.06658 -1091.55886 -1088.77201 -1091.67039 -1086.36278 -1084.30524 -1077.55147 -1070.05026 -1070.63644 -1074.52326 -1068.59785 -1070.30980 -1062.80284 -1058.87304 -1053.05088 -1055.92447 -1051.48170 -1057.61305 -1048.67734 -1042.78408 -1043.90435 -1044.09070 -1046.07241 -1041.39593 -1046.16514 -1045.03247 -1039.49304 -1040.08540 -1039.18905 -1038.51540 -1036.85219 -1033.53993 -1037.72472 -1034.78064 -1035.94214 -1036.82713 -1036.53089 -1041.87390 -1041.99957 -1040.64291 -1044.72690 -1043.25657 -1050.01116 -1046.33703 -1042.43050 -1047.36284 -1051.55066 -1055.04952 -1057.52239 -1054.46707 -1054.35673 -1062.88161 -1067.43038 -1063.10051 -1069.25726 -1070.09226 -1075.43560 -1070.21176 -1074.76226 -1078.40749 -1083.53098 -1086.07015 -1088.87571 -1089.52678
-131.65228 -135.21603 -149.99558 -160.75377 -169.43215 -167.21964 -172.79940 -177.57120 -189.25195 -194.79069 -202.56126 -209.52870 -222.74816 -224.95489 -233.73194 -244.83495 -251.98946 -266.32205 -268.01599 -279.06442 -289.84051 -299.09731 -303.23182 -317.66815 -323.39342 -336.75914 -341.82967 -350.79587 -360.96043 -371.48273 -384.22639 -401.62484 -402.96239 -416.45099 -426.64416 -443.54100 -446.47213 -462.80106 -472.10695 -476.66172 -489.40650 -504.48313 -511.03428 -530.62833 -542.13231 -556.66721 -566.03054 -580.24057 -591.33377 -598.09087 -612.31685 -628.42216 -636.25913 -649.51738 -664.34762 -678.18897 -688.98955 -713.58615 -718.43145 -738.66659 -745.57491 -749.26446 -775.17723 -790.49169 -813.79488 -823.05728 -837.12984 -850.23410 -868.90454 -880.50925 -892.58686 -913.72839 -921.70848 -923.86460 -946.88350 -961.19381 -978.72324 -991.02814 -1009.51034 -1018.37423 -1031.48696 -1049.22087 -1061.84575 -1077.98502 -1083.96265 -1097.93237 -1110.66607 -1120.67816 -1135.37748 -1147.08196 -1159.55800 -1166.42586 -1185.41371 -1186.77093 -1202.53964 -1205.93805 -1217.76104 -1219.09103 -1220.79456 -1218.72862 -1201.41530 -1196.16310 -1166.62321 -1151.86731 -1145.83493 -1140.23301 -1138.64347 -1139.98666 -1137.93755 -1136.10538 -1146.29930 -1145.73441 -1155.62796 -1156.82225 -1162.11561 -1161.84853 -1162.58275 -1165.10885 -1169.87910 -1160.06567 -1162.59900 -1162.84483 -1160.47476 -1164.92988 -1164.24091 -1163.86396 -1161.02932 -1153.61401 -1150.18852 -1158.26897 -1144.40171 -1147.47212 -1143.45379 -1140.25911 -1141.14638 -1136.68901 -1130.94784 -1134.75319 -1126.52574 -1116.80327 -1122.23137 -1128.23465 -1108.27823 -1106.57537 -1107.58001 -1095.14272 -1107.86906 -1092.32021 -1091.77026 -1088.97911 -1084.81558 -1088.61733 -1090.84696 -1082.23941 -1082.17049 -1077.62464 -1072.00733 -1070.51548 -1071.22090 -1074.88834 -1067.63778 -1063.88459 -1057.35531 -1057.75887 -1057.63977 -1058.64321 -1061.38716 -1061.08928 -1047.93738 -1055.96574 -1056.06532 -1059.65106 -1050.50580 -1059.09809 -1056.67553 -1059.58267 -1056.32664 -1058.14246 -1062.33228 -1061.09493 -1060.66241 -1060.94376 -1062.90004 -1064.46932 -1068.64693 -1063.17571 -1067.18120 -1073.20656 -1069.98841 -1071.09968 -1075.12194 -1073.53406 -1077.28764 -1080.55731 -1082.62536 -1083.04578 -1081.15809 -1089.64282 -1092.30507 -1091.04249 -1094.70298 -1098.95255 -1095.74935
-136.15035 -138.95303 -159.81946 -168.13536 -174.25267 -178.21889 -187.14842 -187.31412 -198.59105 -203.83924 -215.28287 -226.49574 -228.55120 -231.69971 -251.23854 -253.73549 -258.68733 -274.08087 -276.70743 -286.23199 -298.95684 -312.82003 -322.04772 -331.57544 -338.25804 -344.58176 -358.28422 -368.05878 -376.62966 -390.09521 -402.36843 -407.16859 -421.24596 -431.45987 -442.31171 -453.71064 -464.09326 -474.47960 -486.91620 -505.82643 -516.02110 -525.71574 -535.24672 -545.79033 -561.18580 -566.12356 -581.17344 -598.63804 -608.96878 -622.42462 -637.25854 -655.14095 -660.31151 -671.15140 -684.29337 -696.90540 -723.39754 -731.50258 -745.66003 -764.12654 -776.97410 -788.48221 -804.80350 -813.04920 -831.43472 -846.41440 -855.28222 -870.28755 -891.16654 -900.12529 -917.47712 -931.04253 -948.47310 -962.02676 -971.05542 -991.79093 -997.13925 -1027.23800 -1027.82765 -1044.38078 -1051.93869 -1072.60658 -1082.84057 -1095.20680 -1110.92222 -1118.19017 -1129.74715 -1142.87542 -1152.21148 -1165.08748 -1175.34100 -1183.58874 -1192.85573 -1204.83837 -1214.09372 -1224.70752 -1227.91816 -1227.00928 -1231.81195 -1231.06698 -1224.43253 -1203.72609 -1181.86835 -1165.43265 -1162.57410 -1151.31678 -1149.19110 -1147.47207 -1154.93653 -1161.17177 -1159.74397 -1163.91508 -1169.37591 -1172.49577 -1174.70123 -1179.32094 -1182.96021 -1182.05663 -1181.15538 -1182.02411 -1188.08119 -1185.90466 -1184.38988 -1185.88230 -1186.21914 -1179.03497 -1180.39444 -1186.60601 -1183.30949 -1176.87644 -1175.90325 -1174.76270 -1170.46223 -1169.60652 -1159.23974 -1147.58847 -1157.19247 -1152.18107 -1155.85093 -1151.95559 -1146.31084 -1138.53768 -1137.53368 -1134.83135 -1131.89261 -1122.65560 -1127.02695 -1124.92798 -1120.65799 -1122.16120 -1109.69195 -1107.68294 -1102.11532 -1103.81933 -1097.46516 -1098.58764 -1090.98537 -1096.09616 -1095.68216 -1090.51749 -1086.47622 -1084.87074 -1082.46239 -1086.10304 -1077.39357 -1079.75221 -1074.60965 -1080.58606 -1076.03068 -1074.38277 -1071.50272 -1073.12869 -1073.99804 -1070.37925 -1070.18419 -1078.64536 -1075.38867 -1079.28400 -1071.35134 -1073.24499 -1075.15221 -1076.84823 -1081.62658 -1076.00125 -1079.79526 -1076.27673 -1077.77128 -1082.16734 -1078.07568 -1090.90109 -1085.03439 -1091.04782 -1086.77410 -1089.24952 -1091.25695 -1096.99484 -1100.30994 -1100.34185 -1100.54806 -1104.86899 -1104.81035 -1107.45696 -1107.19424
-148.25098 -147.25572 -170.85227 -179.43435 -184.59692 -185.14169 -197.18754 -200.23071 -210.26497 -214.02027 -221.71118 -229.26065 -242.09267 -249.43567 -260.52191 -263.65122 -273.57051 -285.30573 -294.00132 -302.55224 -315.45759 -325.56057 -331.15428 -342.13145 -342.37147 -359.98830 -367.70749 -382.18558 -392.72352 -404.48124 -410.11912 -425.29301 -437.13448 -447.83788 -458.53425 -469.74967 -479.99074 -495.48477 -504.27518 -516.44178 -527.89647 -538.29625 -544.10265 -569.69577 -574.99226 -592.64741 -606.62453 -617.85682 -624.38383 -644.89580 -655.15187 -661.35252 -685.39211 -698.20407 -712.59744 -728.74250 -734.66348 -752.14554 -769.91546 -777.06484 -798.69769 -812.28225 -821.14260 -835.40184 -845.42123 -871.05745 -870.57305 -895.00943 -917.35971 -921.53453 -939.69181 -947.86856 -966.81206 -984.87657 -995.01709 -1006.83101 -1030.89431 -1034.79803 -1045.77334 -1064.74076 -1075.85037 -1092.29343 -1095.16276 -1116.93463 -1124.62638 -1133.64362 -1152.05400 -1157.65706 -1171.06022 -1182.52154 -1197.78773 -1202.36838 -1216.67353 -1227.94199 -1235.40473 -1239.25790 -1243.22651 -1252.49093 -1243.80513 -1247.39117 -1233.65925 -1215.79276 -1204.84637 -1183.33286 -1170.88931 -1169.64682 -1159.13194 -1167.09478 -1171.58427 -1169.30500 -1176.95552 -1177.89540 -1185.47717 -1186.05632 -1190.96508 -1193.86868 -1198.88714 -1199.81159 -1197.27647 -1207.59594 -1205.85040 -1197.58466 -1198.81303 -1209.62411 -1205.18087 -1206.22730 -1205.54930 -1205.18117 -1204.72208 -1200.63657 -1203.20328 -1197.27895 -1203.75493 -1186.58843 -1197.63684 -1193.19442 -1173.58057 -1185.50534 -1182.65352 -1176.27144 -1165.83591 -1165.88140 -1162.72023 -1166.08579 -1164.55297 -1159.01187 -1152.23547 -1143.72288 -1141.04881 -1138.13142 -1133.29459 -1132.61915 -1136.35645 -1131.62450 -1130.92124 -1122.86509 -1117.64721 -1122.57597 -1112.62151 -1116.90747 -1106.75153 -1108.29623 -1110.58361 -1098.33509 -1099.36067 -1104.29876 -1099.66614 -1090.39033 -1095.75694 -1092.24920 -1094.97490 -1094.03127 -1092.22635 -1090.76612 -1090.70843 -1088.38190 -1093.82486 -1087.48448 -1092.98197 -1090.67489 -1089.55680 -1093.39659 -1092.06106 -1092.53114 -1093.52166 -1095.20380 -1094.80439 -1092.25067 -1093.85745 -1101.34539 -1095.04969 -1100.96470 -1099.87828 -1104.26512 -1107.40749 -1109.27671 -1113.21343 -1109.02177 -1113.95942 -1115.06576 -1116.84077 -1118.23343 -1115.69272
-156.46436 -154.49816 -175.83406 -192.40869 -190.82955 -195.46610 -203.15571 -210.15247 -216.45295 -224.69561 -231.08924 -245.15756 -250.39981 -262.15392 -266.04354 -278.03751 -282.92891 -298.01795 -305.81605 -311.93017 -330.21600 -333.61321 -341.93818 -358.70878 -368.77048 -377.22536 -390.78412 -397.57998 -407.05840 -418.37109 -422.32398 -444.74867 -452.12415 -466.71208 -473.17345 -483.66937 -496.16140 -513.86891 -517.53556 -529.04184 -542.31559 -562.58031 -577.55338 -583.67838 -592.43552 -606.72014 -622.12251 -646.78775 -649.11503 -662.12883 -671.92107 -692.62804 -707.06805 -716.30596 -736.08637 -750.31538 -753.39301 -776.86386 -791.99923 -807.02736 -821.43201 -835.50419 -847.24082 -859.60400 -880.15289 -885.48032 -913.76710 -913.94055 -931.44838 -951.43552 -967.30836 -980.56513 -992.82560 -1008.35408 -1022.99630 -1030.30962 -1042.85404 -1054.29220 -1069.82432 -1084.90679 -1097.15158 -1106.69916 -1118.04563 -1135.65424 -1145.31118 -1152.15896 -1171.71787 -1181.78274 -1193.51195 -1200.38784 -1206.55377 -1223.45222 -1222.31852 -1237.45717 -1247.24740 -1246.42837 -1259.77072 -1263.15451 -1261.65263 -1254.30667 -1250.19863 -1236.14662 -1214.11170 -1197.65548 -1183.71085 -1180.99095 -1178.42624 -1181.53245 -1180.04458 -1189.88459 -1191.07933 -1198.28055 -1199.51067 -1205.04656 -1212.16404 -1214.13677 -1220.41181 -1212.26109 -1227.05134 -1222.12482 -1222.69580 -1226.74511 -1227.79583 -1224.90462 -1225.09801 -1231.80722 -1231.51289 -1229.47568 -1231.96701 -1225.17630 -1222.07051 -1226.80511 -1218.77662 -1218.74989 -1222.99601 -1208.48117 -1211.17544 -1209.98763 -1200.30659 -1204.15021 -1194.02080 -1190.46761 -1192.54782 -1189.75508 -1182.60179 -1176.09253 -1172.07803 -1168.60008 -1168.39046 -1169.07339 -1159.06281 -1157.24261 -1152.91316 -1151.60530 -1137.96759 -1140.35302 -1139.16497 -1141.08509 -1131.22315 -1135.85842 -1132.39007 -1125.61058 -1124.43763 -1118.89929 -1122.33365 -1117.39262 -1118.25559 -1115.84840 -1118.54342 -1113.90070 -1111.90231 -1114.61417 -1114.37422 -1111.77000 -1108.60495 -1112.61901 -1105.98440 -1109.04004 -1103.01069 -1110.60135 -1102.79220 -1109.21734 -1103.27130 -1109.56694 -1106.43187 -1109.91410 -1102.59985 -1104.07069 -1107.84245 -1112.25582 -1110.87836 -1113.43958 -1113.78097 -1116.43001 -1117.26610 -1118.75662 -1121.01124 -1121.73320 -1123.07254 -1128.06754 -1130.78426 -1129.89659 -1131.33329
-166.06813 -166.30290 -188.80522 -200.91042 -200.84657 -209.63816 -213.32538 -215.62504 -228.72973 -239.14986 -242.81887 -255.36550 -261.14989 -274.50877 -278.70396 -287.00216 -294.09529 -312.35817 -313.25725 -324.83105 -335.73298 -349.76879 -357.93941 -368.35788 -377.27188 -385.29126 -400.05721 -412.41410 -422.61483 -433.90686 -438.67303 -457.52168 -468.11810 -475.60221 -492.68003 -506.87698 -512.66105 -526.97104 -535.95509 -550.68320 -572.57497 -574.77739 -587.60402 -599.49249 -613.03353 -633.63063 -638.01116 -660.39409 -670.71547 -683.20883 -701.06694 -713.28354 -728.32381 -738.18886 -751.65690 -772.13518 -779.60439 -792.11554 -801.75380 -832.99707 -845.79477 -851.96982 -868.92443 -892.75038 -900.10444 -913.63218 -936.92844 -936.41296 -969.07066 -974.81931 -983.17587 -997.96851 -1015.06293 -1030.21622 -1040.28349 -1055.00329 -1066.12489 -1083.23854 -1096.22706 -1106.36404 -1123.41175 -1128.91441 -1142.86829 -1152.07986 -1163.70964 -1175.98781 -1188.11474 -1196.40918 -1209.24215 -1215.19739 -1225.75911 -1239.82702 -1245.87477 -1253.25692 -1266.68041 -1267.06323 -1275.19411 -1271.80783 -1273.47540 -1269.95230 -1260.55591 -1240.66486 -1226.96128 -1216.91237 -1198.83512 -1196.99864 -1196.13398 -1195.78341 -1199.19428 -1198.28222 -1210.22675 -1211.70489 -1209.39281 -1222.84938 -1225.19514 -1231.14358 -1238.14674 -1234.26154 -1239.98042 -1245.69498 -1244.33264 -1254.44273 -1251.27185 -1254.85800 -1248.40222 -1248.57078 -1249.32856 -1256.82021 -1250.58918 -1252.60992 -1255.67820 -1251.88619 -1243.85334 -1247.94080 -1238.76275 -1233.50347 -1235.96394 -1235.20527 -1233.47671 -1227.06871 -1225.99086 -1218.93110 -1214.48270 -1221.69939 -1203.73939 -1212.09919 -1202.21303 -1195.42618 -1192.03134 -1194.11275 -1183.54595 -1180.85358 -1178.62298 -1178.48302 -1173.71126 -1167.41866 -1164.39406 -1162.53649 -1166.72763 -1151.26904 -1150.65330 -1153.02878 -1157.04100 -1142.74122 -1143.52605 -1139.83453 -1135.26146 -1142.87441 -1131.06971 -1135.42595 -1131.09933 -1131.83842 -1129.19190 -1125.99116 -1122.75622 -1125.26639 -1121.44690 -1119.42145 -1118.25581 -1121.60301 -1124.92015 -1123.09993 -1124.51428 -1119.28404 -1123.94126 -1122.47548 -1123.65891 -1125.32972 -1121.78890 -1121.76211 -1127.04808 -1125.21679 -1125.92068 -1129.92888 -1127.41972 -1128.90944 -1127.70371 -1134.68397 -1131.62155 -1138.56690 -1134.77291 -1134.62759 -1139.97358
-175.89913 -175.89736 -199.52917 -205.92149 -212.75163 -218.12904 -223.00304 -229.91659 -239.29474 -243.24762 -254.25864 -262.36805 -271.36627 -281.74465 -291.46734 -298.95262 -312.55216 -316.18884 -329.34709 -342.57430 -350.82994 -360.83469 -370.24071 -382.24644 -387.70936 -403.60301 -418.53499 -424.88557 -439.58964 -445.65722 -460.17767 -470.24870 -480.45973 -499.16403 -502.65807 -517.19053 -529.59567 -542.99421 -551.93708 -567.76137 -578.12600 -597.98163 -603.77687 -620.88445 -644.59304 -651.58304 -664.43216 -675.89910 -686.66121 -712.96824 -722.17709 -730.34102 -750.94306 -755.37876 -776.25760 -784.10763 -810.05125 -825.57913 -833.32087 -843.62757 -864.18124 -885.90514 -902.47452 -905.16718 -916.47806 -938.39014 -952.68850 -965.61812 -983.60503 -994.66033 -1010.79396 -1021.41713 -1041.40951 -1056.37948 -1066.83706 -1084.08010 -1090.82378 -1098.66560 -1109.46997 -1129.92367 -1139.95479 -1154.24522 -1158.06035 -1177.67269 -1190.27632 -1193.23885 -1210.89953 -1216.62601 -1227.46732 -1237.99136 -1245.19853 -1256.23814 -1263.68917 -1266.87183 -1275.63693 -1282.00154 -1285.60282 -1291.54663 -1291.18469 -1286.04248 -1279.14247 -1258.01711 -1244.20779 -1228.74206 -1215.43503 -1209.78753 -1209.07291 -1206.37288 -1216.38750 -1222.44376 -1220.29123 -1221.37306 -1226.77196 -1234.54378 -1242.28812 -1248.70190 -1247.83136 -1257.20507 -1267.80783 -1259.81094 -1264.29196 -1270.74243 -1271.01115 -1274.99914 -1284.65123 -1278.88741 -1272.71968 -1271.36808 -1276.59414 -1273.43119 -1272.14048 -1265.69898 -1269.40144 -1272.43667 -1264.69108 -1260.32059 -1264.41428 -1260.32049 -1249.54210 -1242.78567 -1258.80736 -1241.59115 -1247.06770 -1233.31785 -1236.78168 -1232.41568 -1229.07190 -1227.81655 -1224.00149 -1214.49732 -1209.30628 -1205.98016 -1200.36684 -1201.80807 -1199.79369 -1193.01116 -1189.57857 -1184.35427 -1176.68471 -1177.33241 -1173.34641 -1167.55975 -1170.95497 -1168.97032 -1156.77077 -1166.04365 -1158.34475 -1158.73418 -1150.43713 -1145.70588 -1150.42193 -1147.37944 -1143.04356 -1142.24929 -1138.47238 -1137.78358 -1136.21568 -1138.19310 -1137.98579 -1133.40712 -1135.83834 -1136.99348 -1137.92360 -1131.43681 -1137.24100 -1132.90646 -1137.06909 -1132.29248 -1135.35954 -1135.32495 -1134.63589 -1139.47695 -1135.93079 -1137.28458 -1141.00680 -1142.41108 -1137.30186 -1144.00409 -1147.03443 -1147.75293 -1153.33598 -1149.74014 -1147.72270
-180.87824 -182.77764 -207.91849 -215.77119 -221.93034 -224.82720 -232.76323 -238.47402 -248.32380 -253.06937 -261.56649 -275.41935 -279.20357 -294.11643 -300.25731 -311.68863 -318.55911 -320.87550 -342.19065 -353.66740 -357.53001 -369.70795 -382.72979 -392.47205 -407.31348 -417.48706 -428.00764 -444.23994 -451.62949 -467.32671 -477.52149 -484.29919 -498.09579 -511.15026 -531.78653 -535.56420 -540.96104 -572.06459 -569.78680 -587.50633 -605.89329 -611.72911 -626.20315 -643.73272 -653.57869 -672.53181 -681.33438 -689.47651 -712.66032 -726.65749 -730.09315 -753.92362 -769.62522 -776.47487 -795.62153 -806.97164 -830.63085 -847.40233 -854.24849 -874.58160 -887.60718 -902.71200 -913.69109 -928.36096 -938.16921 -957.01973 -979.30287 -986.56024 -1008.54212 -1018.45377 -1031.93383 -1043.17031 -1072.41653 -1075.32971 -1090.15096 -1105.51432 -1119.25139 -1132.14491 -1143.54371 -1152.65204 -1162.43390 -1176.47292 -1184.38559 -1196.26409 -1206.98301 -1216.45207 -1224.71924 -1234.40354 -1244.57774 -1251.25019 -1263.91840 -1272.39537 -1279.94195 -1286.11431 -1293.80593 -1297.24343 -1303.71647 -1307.73415 -1302.77954 -1299.50494 -1291.12956 -1272.35683 -1254.53886 -1231.81683 -1234.85584 -1226.59112 -1228.75955 -1225.58986 -1223.04922 -1233.55055 -1237.88270 -1248.28379 -1251.19836 -1261.63083 -1264.94953 -1266.64551 -1272.37538 -1283.41200 -1282.12663 -1284.50966 -1287.72392 -1292.13040 -1297.09226 -1296.05429 -1296.75416 -1299.57207 -1307.84457 -1300.51794 -1298.08352 -1301.36592 -1302.84895 -1300.13507 -1296.44399 -1291.86565 -1283.34140 -1292.36914 -1285.17392 -1284.37636 -1289.25249 -1275.94643 -1275.66899 -1272.77475 -1265.53612 -1263.47097 -1267.77877 -1257.94201 -1255.79598 -1245.14559 -1243.27735 -1235.42729 -1234.96354 -1229.06021 -1227.60969 -1219.53507 -1209.75419 -1212.28938 -1206.08478 -1209.83960 -1199.69597 -1202.42094 -1199.26036 -1193.10035 -1190.99121 -1185.23347 -1179.79286 -1179.91968 -1178.81567 -1171.57413 -1170.03250 -1168.86217 -1167.31449 -1162.70861 -1165.86719 -1165.79866 -1163.42315 -1163.59844 -1158.65874 -1152.48758 -1152.31857 -1155.18777 -1151.66604 -1151.75468 -1147.61311 -1147.69061 -1150.13805 -1151.97553 -1150.27294 -1153.08594 -1148.38668 -1146.65431 -1148.49692 -1148.30384 -1151.44499 -1151.01814 -1153.10522 -1156.77100 -1148.96009 -1155.36223 -1155.84945 -1159.73640 -1155.91804 -1160.79767 -1163.04665
-194.07566 -189.71233 -218.20223 -229.18552 -230.49491 -237.80984 -243.52872 -253.42105 -252.12976 -263.82765 -274.84830 -281.82245 -291.62666 -302.25739 -316.41259 -316.15487 -335.32199 -347.90402 -347.96439 -360.20745 -372.07677 -385.14750 -397.22453 -410.05693 -420.16010 -431.73879 -438.90253 -455.04119 -467.21901 -479.46534 -486.51834 -505.02099 -512.37574 -527.84365 -540.24369 -551.07696 -563.45244 -581.12319 -587.52661 -607.68393 -614.45317 -629.38402 -642.23524 -660.31172 -673.27126 -683.27468 -701.44013 -714.89320 -733.65747 -743.66735 -756.41150 -772.27830 -782.74789 -807.16314 -821.71766 -829.86906 -850.95022 -862.02747 -879.26456 -895.16343 -908.62779 -926.55931 -948.22961 -958.67156 -972.73232 -982.50608 -1000.41807 -1016.77014 -1030.16024 -1043.30972 -1057.75157 -1074.93501 -1088.78381 -1105.27787 -1114.77346 -1129.81358 -1140.18100 -1152.80454 -1160.43853 -1174.40113 -1186.57207 -1200.82625 -1210.55441 -1221.42416 -1231.20546 -1236.61012 -1252.23733 -1255.29183 -1261.84883 -1270.11314 -1283.13946 -1293.62437 -1291.93959 -1302.73811 -1307.92326 -1313.85278 -1312.42297 -1324.56241 -1322.74033 -1320.81975 -1306.77169 -1294.73673 -1270.19058 -1250.16073 -1244.86050 -1240.08622 -1240.06120 -1237.96685 -1242.30351 -1250.88214 -1251.18367 -1261.58674 -1266.32147 -1268.80472 -1279.29573 -1291.34885 -1292.24285 -1291.84367 -1297.68114 -1303.39351 -1311.36989 -1314.64688 -1313.16299 -1321.60041 -1324.78115 -1321.73905 -1320.13074 -1319.94220 -1323.95515 -1316.95301 -1321.82076 -1321.34727 -1321.47773 -1326.03888 -1329.97633 -1314.31458 -1316.02585 -1302.55421 -1308.59184 -1303.56893 -1300.42859 -1300.23871 -1289.66676 -1292.79273 -1285.97941 -1280.98959 -1278.45933 -1268.18157 -1266.86277 -1265.10275 -1256.73104 -1253.48642 -1253.52731 -1246.15102 -1244.11387 -1238.93058 -1224.48034 -1229.66715 -1223.31688 -1227.31751 -1214.06724 -1213.68335 -1206.63250 -1205.87822 -1200.33090 -1193.77751 -1194.31027 -1189.16779 -1187.87698 -1185.53533 -1185.50189 -1185.19398 -1179.53135 -1179.43667 -1176.90820 -1171.71871 -1169.96822 -1179.89204 -1166.22283 -1171.04411 -1170.74976 -1167.16010 -1159.98291 -1159.06099 -1166.97608 -1161.64984 -1162.86985 -1161.72801 -1162.05548 -1161.28804 -1166.68483 -1165.76862 -1162.07609 -1163.84497 -1165.47135 -1161.31911 -1166.54206 -1171.60317 -1166.87323 -1171.13072 -1169.41327 -1169.20263 -1169.90865
-200.50238 -199.74657 -225.79650 -236.26953 -239.83027 -247.65545 -249.85448 -255.47572 -262.90122 -279.97648 -286.38925 -294.13068 -303.42522 -308.38570 -324.43589 -334.52676 -345.32960 -359.06950 -370.22830 -371.35518 -384.49201 -400.28493 -415.12162 -420.12285 -433.74941 -444.43817 -451.57171 -465.24973 -475.96317 -488.11520 -510.21341 -512.70982 -519.36614 -541.63784 -555.22856 -567.03679 -582.16236 -594.36366 -609.74543 -624.93173 -635.73298 -649.28648 -666.35098 -681.00836 -691.87031 -708.16354 -724.51370 -738.31553 -743.89088 -767.65758 -774.75315 -799.66277 -812.57671 -828.08479 -836.85843 -860.16457 -881.58223 -884.84056 -900.59653 -914.66023 -935.10414 -952.79498 -972.88017 -973.40663 -994.06232 -1021.42444 -1027.26062 -1044.25218 -1045.52063 -1067.11980 -1086.77544 -1095.72412 -1111.79862 -1123.25560 -1139.17326 -1150.12119 -1161.87327 -1166.85404 -1188.76942 -1195.25701 -1213.79857 -1216.91350 -1229.29425 -1245.38518 -1246.53248 -1262.47021 -1264.86012 -1273.77771 -1281.00086 -1288.85154 -1302.77650 -1306.43720 -1312.58485 -1319.31004 -1328.13970 -1334.94635 -1341.98600 -1339.70511 -1334.52159 -1335.91829 -1322.49670 -1314.96960 -1283.70806 -1274.99820 -1255.84277 -1256.47021 -1246.00361 -1255.77868 -1256.66743 -1262.19226 -1274.99091 -1281.65159 -1286.87797 -1296.62800 -1301.27537 -1302.73767 -1305.30305 -1318.82281 -1321.60149 -1326.84675 -1322.81969 -1331.00692 -1345.19833 -1337.87329 -1351.07172 -1351.23627 -1355.33125 -1348.83421 -1347.45712 -1359.63030 -1353.82306 -1352.87648 -1348.39349 -1349.48684 -1344.92715 -1342.74246 -1345.29387 -1338.70968 -1340.75967 -1332.73766 -1327.64489 -1320.90824 -1323.11417 -1312.57752 -1308.99582 -1304.49576 -1306.68895 -1295.44717 -1286.13528 -1287.43773 -1284.86692 -1276.47412 -1277.67722 -1267.07511 -1254.96144 -1257.85092 -1253.46393 -1248.68069 -1247.86754 -1247.63055 -1233.32297 -1228.90722 -1232.78802 -1225.40720 -1223.70545 -1222.40862 -1221.76432 -1213.02435 -1214.18438 -1206.12209 -1205.78226 -1199.58542 -1197.97924 -1190.97957 -1191.41384 -1191.90006 -1185.75669 -1186.44492 -1184.46257 -1184.86810 -1179.94651 -1180.41060 -1182.11819 -1181.51045 -1179.63214 -1174.91492 -1176.70935 -1171.84389 -1174.23590 -1175.90093 -1175.77684 -1170.12061 -1173.17316 -1177.61106 -1173.51536 -1172.22151 -1178.46890 -1176.81563 -1176.01229 -1182.87654 -1180.19872 -1181.22929 -1183.04225
-208.75729 -207.34070 -231.96281 -243.70282 -250.38704 -257.01926 -263.56763 -271.31388 -280.01943 -283.29734 -294.37697 -301.85686 -313.57422 -325.60381 -340.82198 -347.22879 -354.85435 -367.87403 -374.44387 -395.71973 -400.60557 -407.80722 -418.46990 -428.14022 -442.14332 -455.25824 -464.94797 -480.45595 -490.81000 -496.67546 -518.81139 -529.76595 -539.30670 -554.74301 -569.14372 -581.20974 -592.70655 -605.43480 -630.18099 -635.97457 -649.58356 -670.81937 -685.25602 -701.34993 -712.55847 -721.81129 -736.39975 -753.40647 -776.43468 -783.63264 -800.96803 -816.67806 -829.64734 -846.08222 -869.43363 -876.65104 -894.31389 -910.49932 -927.35044 -947.30140 -958.36027 -970.15103 -984.52349 -994.72468 -1025.27456 -1035.05207 -1034.93188 -1062.57054 -1078.59850 -1099.37832 -1115.08162 -1118.61330 -1134.73237 -1147.38155 -1160.29858 -1183.38505 -1181.09070 -1200.75928 -1210.76251 -1223.09151 -1234.53842 -1241.81162 -1253.43281 -1262.67443 -1259.44589 -1282.78338 -1284.42561 -1295.49722 -1304.45427 -1311.24404 -1320.61008 -1321.54908 -1330.70113 -1341.83450 -1349.97597 -1342.27362 -1349.35613 -1348.52749 -1352.22258 -1349.51355 -1333.14031 -1318.46909 -1302.19757 -1287.60565 -1270.65034 -1271.06329 -1269.51988 -1271.30882 -1280.37765 -1281.72746 -1292.14973 -1296.00033 -1303.83852 -1309.55883 -1313.90200 -1326.68500 -1331.46912 -1339.21822 -1341.82795 -1350.74214 -1354.68529 -1361.13512 -1364.70251 -1368.67160 -1368.94375 -1375.58722 -1375.99264 -1382.39232 -1379.30130 -1379.07558 -1374.45613 -1373.39122 -1381.97257 -1378.80915 -1374.13214 -1366.97981 -1369.35710 -1358.95264 -1354.59967 -1350.99059 -1354.97516 -1352.65770 -1338.68591 -1341.23435 -1336.40133 -1332.97306 -1322.03875 -1318.14858 -1315.82688 -1315.21537 -1301.45450 -1294.69852 -1292.35128 -1288.55418 -1288.08898 -1277.16764 -1277.24093 -1270.85427 -1266.63509 -1262.28733 -1255.88635 -1251.81552 -1246.21764 -1246.10638 -1242.82666 -1234.89068 -1234.89188 -1232.22094 -1228.50879 -1225.80985 -1220.05335 -1215.46038 -1210.25359 -1207.79823 -1206.68491 -1207.43788 -1202.44828 -1206.11231 -1198.84060 -1199.21386 -1197.34055 -1196.31523 -1191.62208 -1186.10408 -1189.70126 -1191.83666 -1192.75459 -1183.85717 -1190.74809 -1183.83884 -1187.66395 -1183.61993 -1185.90454 -1186.24310 -1186.76820 -1186.41309 -1185.25787 -1185.15276 -1187.13930 -1187.32674 -1192.04822 -1188.30221 -1191.04335
-217.94060 -219.45254 -241.95976 -250.80200 -256.27814 -265.34038 -267.06506 -279.57047 -284.12487 -297.69674 -303.48768 -310.53324 -324.00287 -333.27770 -338.98051 -356.79413 -366.23570 -379.91296 -381.49931 -399.43230 -407.44402 -422.38827 -434.57632 -446.00371 -456.51815 -477.22815 -479.28495 -493.08794 -505.59102 -519.48998 -530.88778 -544.29477 -557.97855 -568.93465 -588.19000 -602.79302 -611.34881 -627.92237 -640.63789 -648.25237 -672.75720 -683.34060 -701.51004 -714.62128 -726.99524 -739.21674 -757.44095 -776.01956 -789.59044 -801.86393 -826.74650 -830.91726 -844.74423 -870.50628 -886.34744 -904.50871 -910.27929 -934.81600 -945.61440 -965.99065 -975.82370 -995.90508 -1013.28687 -1029.14971 -1041.59400 -1056.94936 -1075.32974 -1089.17050 -1114.93766 -1114.73644 -1132.27285 -1146.90112 -1149.13556 -1164.88094 -1187.65164 -1198.10240 -1210.09566 -1221.58571 -1233.75876 -1249.59478 -1244.64297 -1263.99079 -1270.81910 -1283.52506 -1294.32221 -1304.95811 -1313.21874 -1311.45226 -1324.99255 -1334.80132 -1338.28306 -1338.58702 -1349.93824 -1354.38030 -1360.71035 -1368.51516 -1371.36173 -1369.77057 -1363.76028 -1353.97288 -1347.11944 -1332.84213 -1308.49571 -1293.74074 -1285.83032 -1279.81948 -1285.76816 -1282.61616 -1295.34383 -1295.98447 -1304.23205 -1315.94444 -1316.07493 -1333.83710 -1333.17207 -1344.89259 -1354.29899 -1364.18581 -1374.02848 -1373.45261 -1373.76098 -1379.31772 -1380.03781 -1388.07864 -1394.92635 -1392.17678 -1396.57094 -1400.31479 -1399.50969 -1402.66799 -1398.68094 -1400.66466 -1401.60396 -1400.07305 -1401.15077 -1402.54596 -1388.43107 -1384.88744 -1388.45651 -1384.67863 -1375.55950 -1370.65367 -1373.39433 -1369.08828 -1369.46932 -1355.94857 -1345.80362 -1342.52443 -1343.21255 -1333.65517 -1326.68539 -1323.80875 -1321.56579 -1317.05728 -1313.22062 -1301.90129 -1299.58248 -1296.49704 -1286.87203 -1284.11856 -1281.06566 -1277.75980 -1270.54493 -1258.75187 -1259.22279 -1258.02293 -1253.92252 -1247.90867 -1245.34051 -1236.19391 -1233.61008 -1238.18954 -1229.34556 -1232.20275 -1228.09233 -1224.20720 -1217.22852 -1212.00553 -1212.83381 -1212.21229 -1209.77204 -1206.68217 -1202.83334 -1210.32853 -1202.75324 -1205.11653 -1200.52780 -1203.58626 -1199.77398 -1202.70708 -1201.03150 -1202.44004 -1195.70250 -1198.14255 -1198.80316 -1196.61282 -1197.24001 -1199.40639 -1197.59340 -1198.38729 -1200.80132 -1200.08172 -1199.85223
-224.99567 -223.57550 -248.25211 -263.89570 -265.50768 -272.12083 -278.70915 -288.06277 -295.48224 -305.79097 -316.33354 -320.87400 -339.44117 -341.78461 -351.86630 -366.86316 -378.98413 -383.71289 -401.12504 -410.74866 -427.54292 -429.24137 -441.36792 -455.45047 -472.46947 -486.31880 -497.56836 -506.62456 -522.26709 -536.29883 -548.97450 -563.12536 -570.51638 -587.52261 -599.13603 -612.65562 -630.78158 -637.57564 -657.09996 -669.97288 -682.92042 -695.43661 -712.90851 -733.18021 -747.01354 -760.29969 -776.45494 -799.64157 -806.80890 -831.57764 -833.19473 -860.33523 -876.29540 -891.25553 -899.29253 -925.16788 -940.03187 -955.88498 -970.32490 -990.08168 -1001.32467 -1012.71629 -1027.97607 -1048.21273 -1065.87023 -1082.79666 -1091.27586 -1112.98783 -1126.82152 -1144.71271 -1162.01261 -1167.94609 -1181.96393 -1198.54190 -1207.76142 -1228.66093 -1241.66270 -1247.27892 -1260.44536 -1268.20668 -1280.49926 -1290.92990 -1301.05627 -1305.91230 -1312.33982 -1324.48036 -1331.11429 -1336.88733 -1345.39294 -1353.24217 -1353.92907 -1364.71520 -1374.71407 -1369.40617 -1375.73551 -1377.50924 -1383.79619 -1385.26622 -1375.67398 -1373.13802 -1367.03636 -1347.64837 -1334.27625 -1310.88035 -1302.37024 -1300.93714 -1301.06967 -1304.70036 -1310.97420 -1317.02538 -1327.35561 -1338.77271 -1337.06881 -1350.70291 -1358.54669 -1365.42165 -1374.33585 -1383.56919 -1381.16562 -1388.60086 -1406.76107 -1406.07138 -1411.74542 -1412.25345 -1424.94481 -1422.41451 -1429.74360 -1427.51963 -1422.56274 -1425.41055 -1436.73166 -1432.37295 -1422.58091 -1430.04220 -1427.38124 -1432.93230 -1421.51263 -1416.94256 -1417.75754 -1405.39229 -1404.08225 -1403.54403 -1401.13596 -1386.36480 -1386.35252 -1383.95823 -1378.27220 -1372.60573 -1361.65778 -1350.61999 -1354.77132 -1351.83424 -1336.80539 -1331.86082 -1332.91882 -1328.97926 -1317.20110 -1316.14537 -1311.45393 -1303.71389 -1297.85211 -1291.67349 -1292.19804 -1286.66104 -1274.67374 -1278.88339 -1273.00691 -1265.84230 -1265.09887 -1259.34338 -1255.81008 -1251.08425 -1247.28284 -1246.89619 -1238.28890 -1234.75218 -1234.82388 -1234.90932 -1229.41274 -1230.82552 -1220.85140 -1224.06499 -1217.13990 -1214.31500 -1219.06495 -1215.20013 -1214.01300 -1214.76721 -1209.01745 -1211.52185 -1212.75694 -1206.75292 -1208.76827 -1207.40714 -1207.32813 -1209.92233 -1206.78160 -1209.06291 -1204.37284 -1210.75687 -1207.75524 -1208.30894 -1209.69172
-230.48706 -231.43233 -263.96608 -266.37355 -273.39685 -279.12792 -287.09868 -295.25195 -302.59597 -311.41379 -321.13078 -333.17418 -345.12095 -348.81146 -361.17340 -380.36607 -388.43829 -396.33637 -409.43554 -421.21297 -434.16878 -447.12602 -460.56224 -471.40418 -485.99023 -497.47980 -506.63494 -519.96013 -533.96436 -546.62820 -564.82960 -572.89815 -587.34396 -601.80191 -616.89923 -632.46558 -642.79259 -663.73162 -672.39260 -687.30842 -700.06604 -710.77418 -729.83976 -749.47033 -762.95700 -777.31973 -791.23246 -812.75268 -833.07877 -850.76280 -863.73442 -879.58219 -891.33483 -910.37042 -926.53842 -939.21923 -954.56526 -970.05543 -990.87803 -1010.45409 -1029.48317 -1043.75880 -1061.66741 -1077.66915 -1086.72851 -1101.94075 -1122.87040 -1140.44437 -1152.44011 -1164.56602 -1185.34336 -1190.88143 -1210.64755 -1225.14333 -1233.73701 -1250.21013 -1263.91151 -1269.47245 -1282.05796 -1292.26503 -1302.30709 -1316.31818 -1324.37383 -1329.10944 -1334.77822 -1345.22312 -1349.20543 -1355.91614 -1356.75118 -1367.27445 -1378.57880 -1382.35937 -1390.21716 -1394.38779 -1394.54015 -1399.06003 -1397.65941 -1399.28595 -1400.42113 -1387.58267 -1387.34117 -1364.09639 -1346.16119 -1324.32266 -1318.07601 -1322.92917 -1316.84770 -1321.75222 -1319.86730 -1333.98069 -1344.23110 -1347.07869 -1363.06953 -1368.43878 -1373.92614 -1387.95438 -1390.48544 -1405.18457 -1412.87851 -1418.97462 -1416.63858 -1431.11761 -1434.47974 -1446.96682 -1443.46087 -1450.21569 -1452.35561 -1451.92273 -1453.99603 -1458.73533 -1457.04367 -1456.16553 -1469.54349 -1458.01359 -1454.08294 -1446.28231 -1454.07621 -1444.90085 -1445.87327 -1439.57852 -1433.96378 -1429.04345 -1421.36742 -1420.26571 -1417.50175 -1409.99604 -1396.33013 -1392.65829 -1392.73425 -1383.41497 -1373.05210 -1372.06210 -1366.31632 -1362.54055 -1358.16124 -1345.11469 -1351.77364 -1338.61067 -1332.27117 -1323.64401 -1315.33238 -1316.71851 -1311.52852 -1299.35774 -1298.59022 -1292.31602 -1284.74316 -1276.86202 -1272.04829 -1276.66377 -1266.90900 -1267.58250 -1258.74782 -1262.47074 -1258.82071 -1250.27785 -1248.39871 -1249.02433 -1248.59060 -1242.13035 -1240.28230 -1238.26327 -1232.72634 -1235.25078 -1231.26076 -1226.12547 -1227.61550 -1223.72879 -1221.37464 -1224.34793 -1218.23927 -1221.02613 -1224.14165 -1216.06207 -1218.40515 -1215.46051 -1221.84754 -1220.46821 -1218.74026 -1217.66875 -1221.54975 -1218.91129 -1221.57986
-240.17165 -240.67717 -266.79609 -277.10741 -281.99205 -288.01162 -291.40962 -297.99154 -311.73138 -323.42958 -333.67105 -345.50652 -356.37213 -361.50364 -374.64906 -385.16340 -402.17674 -413.11583 -417.97071 -434.28101 -446.66476 -457.15701 -473.41764 -486.56410 -497.25127 -510.69920 -521.15611 -534.57823 -544.10588 -564.09628 -573.12036 -589.31513 -603.02975 -620.23871 -630.23853 -651.32759 -654.36246 -673.09066 -686.91752 -700.93458 -717.16301 -743.01417 -752.54582 -770.69415 -789.60519 -803.01265 -807.96779 -829.80965 -845.01409 -862.33578 -879.08851 -896.97945 -910.66023 -935.75940 -941.10835 -957.40797 -977.14641 -1001.95997 -1020.51818 -1033.41038 -1048.23276 -1063.32599 -1079.54504 -1100.15066 -1107.55758 -1123.57359 -1142.35364 -1160.59322 -1176.40952 -1188.83239 -1206.99920 -1220.41376 -1245.41077 -1248.74128 -1263.41345 -1268.41509 -1282.33618 -1291.69002 -1302.72564 -1314.47945 -1329.75835 -1339.38554 -1352.02210 -1351.78017 -1366.30842 -1369.49279 -1377.21345 -1383.20486 -1388.05195 -1389.85200 -1397.11644 -1396.64232 -1400.65397 -1409.69403 -1418.26981 -1415.31044 -1420.61138 -1422.42028 -1417.34901 -1409.60230 -1400.30359 -1377.94722 -1371.67688 -1343.21410 -1339.39080 -1325.95132 -1331.15154 -1340.70906 -1343.76026 -1348.40632 -1360.49987 -1368.68443 -1385.33369 -1392.28736 -1398.08390 -1413.35179 -1413.25531 -1432.20130 -1432.31446 -1446.74898 -1460.02474 -1457.74264 -1461.85130 -1468.20103 -1478.93369 -1477.40162 -1487.08811 -1475.40601 -1481.48030 -1483.27694 -1485.31125 -1486.10715 -1482.27871 -1484.22268 -1483.83468 -1480.57663 -1475.10273 -1470.42847 -1470.29994 -1457.67011 -1454.53440 -1454.11292 -1446.99092 -1444.88497 -1436.88774 -1431.34350 -1431.31978 -1415.18915 -1418.03152 -1400.35775 -1403.84887 -1395.86818 -1382.69274 -1390.39257 -1370.82723 -1371.42267 -1361.64202 -1361.33048 -1352.56561 -1343.33600 -1342.70382 -1332.28800 -1324.11550 -1321.76169 -1318.96046 -1309.63091 -1306.42064 -1298.58618 -1298.90847 -1292.42306 -1293.95865 -1286.44598 -1281.63653 -1275.87269 -1269.81560 -1269.85608 -1266.49676 -1262.93202 -1262.85656 -1256.86113 -1250.53188 -1251.73065 -1249.07194 -1245.91654 -1243.85322 -1240.26363 -1237.31119 -1239.19668 -1235.90671 -1233.76659 -1229.94577 -1231.08241 -1229.69742 -1232.05501 -1230.87465 -1231.34192 -1228.38336 -1230.51899 -1228.12168 -1229.52313 -1230.01047 -1226.54976 -1227.72890
