464.95121 465.05121 527.68726 239.31450 223.13663 100.20494 66.51768 20.65615 4.41480 3.76948 2.52673 -10.53090 -24.48925 -26.47320 -19.61037 -15.11354 -15.60946 -21.31717 -35.73401 -47.75233 -63.27794 -66.33218 -67.03847 -67.41040 -72.19976 -70.11162 -71.74164 -77.12955 -80.32868 -69.85042 -65.35787 -69.69425 -77.46904 -88.15402 -97.12090 -103.09720 -105.16581 -108.79658 -111.82587 -116.34720 -115.63688 -118.46039 -118.26599 -116.48648 -115.96666 -118.56174 -124.36365 -125.05280 -124.76538 -127.77742 -126.25372 -125.01361 -129.51023 -131.10783 -131.00742 -130.52742 -131.59318 -135.19375 -141.36219 -147.49846 -158.76066 -194.40826 -201.55469 -220.85705 -255.09649 -258.79201 -273.27892 -298.17702 -284.00966 -304.21034 -303.30980 -329.09605 -327.89430 -337.96564 -313.38417 -355.42758 -372.23134 -389.38833 -377.23448 -383.35852 -478.21731 -488.58840 -513.80003 -470.61695 -419.39196 -420.18989 -432.74488 -705.18875 -1040.58547 -1174.84101 -1123.75458 -1313.58905 -1316.25056 -1401.81432 -1480.65641 -1489.92347 -1494.79430 -1502.61987 -1521.04769 -1562.52744 -1620.98456 -1649.35845 -1695.22630 -1734.76076 -1759.91947 -1767.24924 -1797.52988 -1804.20948 -1820.12443 -1841.83759 -1862.22816 -1869.14617 -1875.71723 -1895.08670 -1915.19934 -1920.68971 -1952.35216 -1978.52021 -2041.24471 -2104.09819 -2127.56808 -2188.70923 -2227.83864 -2279.91565 -2302.02039 -2320.73419 -2340.38040 -2340.95761 -2360.27512 -2365.61067 -2375.78541 -2377.17603 -2413.01292 -2440.58001 -2456.82735 -2456.92735
570.11079 570.21079 487.78647 317.37315 202.95753 165.51741 41.74633 45.16542 30.27148 -1.33707 -9.93643 -21.29742 -26.89102 -21.92969 -8.61836 -3.97635 -8.67510 -18.64942 -29.37422 -48.42067 -56.53999 -64.83671 -60.10439 -59.22500 -69.34701 -79.26075 -77.15584 -81.12499 -68.88123 -64.40726 -63.46543 -75.79285 -81.04583 -91.35089 -95.03642 -100.68768 -105.85066 -106.63966 -110.78801 -110.38522 -112.84117 -116.87116 -114.86923 -113.43028 -109.80249 -114.80608 -118.51362 -121.50328 -123.34395 -121.90761 -121.21722 -120.30379 -123.60358 -124.62417 -129.20950 -125.72570 -128.17706 -134.85714 -139.78606 -146.33214 -154.29255 -164.71498 -168.66155 -201.80722 -214.25244 -222.48771 -202.58792 -236.69153 -240.62035 -226.11722 -240.81980 -266.99243 -276.51516 -285.28688 -297.76217 -283.38493 -295.96916 -315.12804 -336.48590 -317.51523 -353.11034 -403.91507 -347.17789 -324.70794 -326.73883 -342.38915 -402.82020 -625.43267 -707.20798 -880.03028 -980.75992 -981.43747 -1084.31978 -1285.34125 -1461.29139 -1466.61281 -1487.56744 -1502.64768 -1524.17218 -1567.47701 -1590.55944 -1629.17277 -1679.25526 -1702.31069 -1739.64252 -1752.69524 -1767.81202 -1785.35233 -1809.32945 -1822.86393 -1855.38482 -1863.35692 -1875.08524 -1876.99640 -1902.86900 -1911.79307 -1917.33327 -1951.26668 -2016.85520 -2050.84044 -2111.66700 -2113.07713 -2216.72787 -2222.38448 -2229.52120 -2302.34147 -2310.08264 -2314.50448 -2314.40736 -2347.81994 -2342.87080 -2370.31274 -2392.40985 -2424.81321 -2425.79280 -2425.89280
606.76871 606.86871 491.96148 347.45640 226.33371 104.78296 37.44424 40.22624 14.00175 -15.84122 -23.51185 -23.12806 -22.54051 -8.23824 5.59669 9.50787 1.64922 -19.06209 -38.65670 -55.57658 -58.58395 -58.90306 -60.40488 -61.96638 -68.39274 -78.30247 -73.40071 -67.94953 -64.69020 -57.44458 -59.28810 -80.39149 -87.96578 -93.02757 -94.27904 -97.76789 -98.27181 -104.19839 -101.41210 -104.80312 -107.70410 -111.71129 -114.08523 -110.95445 -109.37720 -112.04531 -116.85440 -118.21918 -118.49405 -117.51200 -117.13616 -115.79497 -121.17158 -123.20558 -126.44574 -122.92934 -127.85962 -131.14424 -138.17116 -147.20783 -154.46373 -158.97343 -164.33001 -164.65796 -167.21269 -171.51827 -172.65901 -179.23242 -185.14064 -206.12842 -205.85689 -212.72980 -229.38153 -227.57013 -222.27120 -242.46722 -244.19405 -259.05398 -263.69054 -254.86118 -298.37639 -299.59595 -305.43274 -283.44517 -296.06754 -283.61492 -364.26231 -444.47673 -517.37358 -558.60516 -648.86995 -893.85078 -1043.07579 -1279.85181 -1394.70367 -1459.31201 -1480.76770 -1498.90979 -1516.90695 -1560.06942 -1580.96112 -1610.89930 -1653.94889 -1682.15863 -1706.82195 -1741.05477 -1757.69972 -1780.05094 -1793.85519 -1816.78390 -1848.81013 -1862.65962 -1872.23661 -1876.71754 -1885.19429 -1889.92800 -1904.21239 -1911.37458 -1967.95617 -2026.06686 -2089.74985 -2110.90654 -2175.21704 -2195.14090 -2197.14789 -2193.93561 -2242.20985 -2258.48408 -2295.51261 -2300.55912 -2327.55545 -2349.74349 -2356.55379 -2392.60460 -2393.25481 -2393.35481
620.13446 620.23446 510.07404 355.72510 165.14232 102.23349 53.35325 24.40712 -6.79264 -24.71506 -23.51856 -6.86846 7.84129 18.11802 14.57686 19.21913 -0.79840 -27.47371 -46.00138 -54.40693 -52.39110 -48.37738 -49.72346 -61.12076 -68.74318 -65.67560 -64.69696 -61.10216 -56.05070 -62.26899 -64.79301 -79.07516 -86.92001 -88.02658 -88.15181 -92.20005 -95.01919 -93.84705 -100.17025 -103.38398 -105.63953 -107.64199 -110.18550 -105.98004 -109.64271 -113.31678 -115.68877 -113.86160 -115.53625 -113.49230 -111.76421 -112.84684 -114.96947 -121.50334 -119.94414 -119.45271 -124.62583 -132.29416 -133.72163 -141.28662 -148.80359 -154.95011 -157.74784 -158.77056 -157.45785 -158.75116 -158.80135 -161.49866 -170.56372 -182.52692 -185.12223 -186.21626 -190.70515 -209.99154 -212.11160 -221.25307 -227.72263 -241.64587 -239.57015 -240.41319 -238.13282 -277.24805 -244.27861 -236.20655 -227.05206 -263.65822 -287.85100 -306.06275 -426.70730 -505.10026 -579.03731 -807.60943 -949.82495 -1101.48734 -1271.62343 -1388.61952 -1474.55857 -1499.21987 -1508.04090 -1537.86735 -1570.39627 -1605.37685 -1639.15663 -1666.80022 -1674.43740 -1726.08746 -1759.79097 -1764.78937 -1788.68431 -1819.86908 -1846.39227 -1854.47920 -1866.30638 -1872.07059 -1875.93966 -1882.37301 -1896.14253 -1906.12435 -1946.22539 -1999.97190 -2028.81246 -2085.45379 -2146.99416 -2185.43545 -2162.73516 -2152.53910 -2183.86279 -2235.47938 -2254.52670 -2284.68072 -2285.18934 -2291.54565 -2298.58440 -2323.53215 -2358.49685 -2358.59685
620.79740 620.89740 524.67068 288.53250 155.05294 64.71714 44.35659 -8.42149 -8.95227 -12.33722 -15.34015 15.92370 20.50374 32.71095 26.62130 7.68024 -1.93440 -40.71911 -45.34081 -53.93682 -50.46790 -34.01847 -36.96125 -45.41336 -54.43100 -49.67002 -48.38626 -48.64055 -56.68329 -58.25626 -65.45170 -70.88085 -81.63276 -86.28280 -83.14571 -85.91810 -87.18492 -84.44158 -86.43453 -93.62229 -104.07430 -104.04867 -102.73833 -101.23098 -105.70882 -113.07625 -111.82013 -109.94754 -111.05632 -111.26650 -108.96694 -110.34316 -116.82160 -119.54515 -114.62422 -114.02694 -116.04671 -126.05207 -134.09183 -138.21805 -144.72360 -152.08959 -152.83800 -154.29590 -153.79766 -149.65870 -150.96458 -153.08462 -154.17147 -167.48930 -170.52258 -175.86670 -180.16510 -188.22589 -189.21912 -208.96513 -211.84110 -210.84153 -207.87844 -201.34226 -218.41336 -217.59354 -214.15176 -203.52783 -215.25052 -226.78010 -252.90068 -274.11775 -400.91168 -466.55902 -599.52621 -771.18165 -782.12545 -967.17456 -1133.63913 -1350.77218 -1467.65095 -1477.18602 -1507.12412 -1541.97553 -1558.24858 -1588.72063 -1632.99510 -1671.25854 -1676.67261 -1716.82575 -1751.76991 -1769.88556 -1791.65481 -1819.51563 -1843.49764 -1851.08033 -1862.68758 -1868.04008 -1873.85882 -1875.78824 -1884.81341 -1901.65320 -1929.79666 -1949.19237 -2004.38890 -2021.86660 -2060.46141 -2124.66507 -2146.45341 -2145.38462 -2164.18050 -2177.74440 -2225.06589 -2227.01118 -2235.56089 -2259.14292 -2260.34362 -2320.11253 -2321.82404 -2321.92404
674.49932 674.59932 553.12909 335.15381 205.98403 90.98237 28.59458 14.31061 -3.45999 14.64914 25.99539 38.40136 49.91055 52.34986 22.92235 1.61473 -24.03793 -42.95704 -42.38364 -42.40270 -30.54338 -10.88021 -23.15439 -39.57725 -46.75743 -39.12498 -39.56188 -47.19307 -48.46713 -51.68976 -54.30908 -66.87677 -68.01853 -67.22302 -72.16159 -73.56599 -77.22355 -77.61162 -78.55270 -91.99484 -98.13361 -100.78935 -95.11691 -94.29942 -104.18621 -110.28757 -108.61229 -108.38138 -109.97078 -108.89253 -106.40353 -114.23226 -116.86080 -116.09838 -110.99577 -108.04485 -112.23014 -122.26999 -130.07820 -130.79540 -136.25652 -142.94584 -146.56791 -147.52094 -145.31537 -144.74005 -148.31031 -149.08023 -152.48383 -156.96832 -161.13499 -162.27001 -162.48690 -175.95567 -171.28519 -173.28971 -181.22257 -182.23435 -185.46601 -179.87665 -188.52851 -194.58586 -188.94041 -190.17859 -197.44670 -220.61087 -226.78546 -268.28336 -339.23168 -456.06876 -560.11858 -612.68730 -780.76673 -868.59242 -1156.82138 -1275.67612 -1396.77424 -1463.03790 -1475.20222 -1546.33003 -1556.69798 -1571.80454 -1609.56448 -1666.19382 -1700.18699 -1722.74499 -1754.30988 -1773.18461 -1806.97723 -1831.48071 -1847.75374 -1856.11654 -1864.56807 -1868.13287 -1873.39147 -1876.17440 -1887.00780 -1894.96103 -1925.16819 -1954.22538 -1993.00001 -1993.69974 -2009.04321 -2053.36820 -2082.07783 -2091.48873 -2096.14233 -2128.18769 -2157.47811 -2167.68633 -2174.64180 -2211.00687 -2241.21846 -2263.42642 -2284.36912 -2284.46912
692.08332 692.18332 554.76873 376.74465 229.51623 104.82310 43.10382 21.73226 44.07359 78.20339 85.88577 84.17141 85.25493 67.90243 24.20194 0.37673 -10.52122 -39.04104 -31.76316 -13.81990 2.62114 2.08802 -12.88500 -36.31032 -35.70798 -34.72813 -36.51598 -36.72371 -43.67166 -44.64428 -50.97855 -56.51136 -62.01372 -63.21596 -61.57577 -71.38308 -75.62360 -78.91027 -87.28227 -92.32474 -100.35294 -95.92215 -90.96209 -91.65622 -104.03059 -106.65632 -107.91968 -105.79766 -106.87016 -102.89329 -104.72020 -109.39615 -118.02684 -112.43386 -107.73553 -105.96928 -108.30149 -121.14023 -125.75823 -129.76157 -134.75432 -138.23907 -140.18824 -139.67046 -140.23094 -141.12282 -142.73358 -146.69218 -150.28489 -151.76539 -152.88842 -156.30820 -156.29864 -157.98272 -159.92464 -167.56487 -171.28042 -170.32632 -168.58891 -170.07737 -181.00788 -179.15206 -183.54881 -182.27381 -185.37169 -200.91454 -232.60188 -275.31011 -300.03542 -373.06514 -439.73956 -559.89689 -731.48149 -781.00780 -1035.31020 -1254.50980 -1374.07780 -1401.31072 -1477.48478 -1520.71733 -1556.70774 -1566.45014 -1603.74049 -1658.02998 -1713.88189 -1720.15507 -1754.58155 -1810.80686 -1830.36324 -1847.52330 -1851.32450 -1863.38817 -1867.47484 -1874.38819 -1875.57426 -1879.55237 -1895.57948 -1903.29924 -1924.97109 -1951.91694 -1976.28036 -1989.84747 -2005.97097 -2026.40779 -2032.07779 -2047.66582 -2059.22402 -2090.97249 -2105.97916 -2129.31254 -2161.06044 -2178.38506 -2182.90574 -2242.80209 -2246.07143 -2246.17143
550.68069 550.78069 635.59588 328.95840 248.81750 131.64026 106.87294 91.33013 125.24592 119.02795 116.80483 114.88609 93.33147 59.18559 36.93413 13.27678 -9.96101 -36.56526 -34.34848 -10.98406 16.32775 18.37813 -11.27720 -35.87966 -38.26037 -37.45486 -25.35372 -35.16497 -35.28980 -41.39256 -50.62327 -57.11381 -61.69894 -64.29345 -66.61194 -73.73000 -85.27900 -87.29221 -92.67501 -93.87598 -93.55647 -89.44821 -90.06991 -92.60541 -98.92311 -103.95768 -103.00681 -99.51463 -99.26910 -98.85549 -99.41965 -109.43571 -113.75688 -110.10863 -105.52899 -99.49576 -104.05583 -111.03972 -121.00752 -123.99551 -126.82710 -133.76198 -133.25184 -135.10356 -138.48264 -138.71453 -140.55782 -141.28392 -145.00734 -146.57580 -148.38727 -150.86294 -154.83197 -153.61958 -156.89085 -156.55090 -158.08253 -158.19824 -159.30324 -161.66870 -163.96017 -166.27721 -172.67750 -178.58058 -182.41918 -196.06606 -204.38855 -256.51309 -280.74687 -345.14413 -378.89974 -443.19221 -577.68452 -750.55257 -951.19586 -1217.97401 -1361.68698 -1461.65298 -1502.00137 -1519.83547 -1541.26213 -1570.11340 -1600.34096 -1655.07964 -1704.07824 -1734.15739 -1767.94208 -1821.42444 -1852.71594 -1855.19407 -1862.75760 -1865.32357 -1870.06887 -1875.36759 -1886.42028 -1886.88962 -1901.79432 -1909.09376 -1930.16199 -1947.86810 -1961.88144 -1974.91239 -1998.94449 -2010.64802 -2014.01702 -2030.67569 -2040.57031 -2043.49312 -2091.29927 -2109.66326 -2131.42623 -2131.59114 -2162.70394 -2176.04392 -2211.90383 -2212.00383
698.85526 698.95526 637.99543 452.53075 289.42055 199.62708 175.88333 158.53492 164.63609 163.88109 124.42166 112.61670 61.50967 32.43019 2.82742 -1.96729 -17.24738 -34.74063 -29.64392 -6.85771 28.67627 33.24588 9.47369 -25.16044 -19.57974 -9.07970 -15.74847 -21.32075 -33.40457 -42.03059 -54.29582 -61.05013 -67.30238 -70.57828 -74.65166 -75.01699 -83.29539 -82.26192 -84.60792 -91.17581 -84.19808 -80.48231 -89.81066 -93.35574 -98.17645 -102.04046 -101.95751 -100.02112 -94.57474 -93.58260 -94.22860 -110.41464 -113.78582 -112.57724 -101.71849 -97.69934 -98.59690 -105.18382 -112.74722 -119.46918 -124.34228 -126.16386 -127.42288 -131.92014 -133.89832 -135.81120 -136.45935 -137.76402 -138.77725 -140.93779 -146.39164 -147.65901 -148.41348 -146.89394 -149.59509 -153.52553 -149.83431 -150.29957 -152.96583 -158.44692 -160.85340 -165.87951 -166.05481 -169.88735 -180.41423 -184.84475 -206.14808 -244.82127 -271.95624 -307.72502 -347.58850 -419.92331 -575.56478 -657.62337 -896.65779 -1162.73507 -1373.82532 -1462.52995 -1508.99154 -1524.33527 -1561.39449 -1595.18941 -1601.68378 -1688.33708 -1709.21138 -1770.60267 -1825.35681 -1866.52891 -1871.88182 -1880.27042 -1875.15801 -1882.68653 -1883.28092 -1892.04668 -1892.64782 -1908.11884 -1925.16330 -1928.04529 -1935.69831 -1947.18444 -1950.87665 -1964.68977 -1990.97023 -1997.62368 -2003.74573 -2003.86916 -2015.60945 -2027.89541 -2039.09470 -2068.91034 -2096.23183 -2116.13899 -2133.52638 -2173.23974 -2181.83105 -2181.93105
772.20517 772.30517 646.26424 618.18738 485.58460 265.00862 205.00080 196.66535 157.68846 142.60468 110.81920 78.90170 51.18507 26.03848 14.05320 6.06368 -24.83886 -32.70855 -21.47942 -6.82101 20.71340 31.06870 13.03434 -6.37005 -3.04717 5.93942 1.03133 -8.58572 -34.46134 -44.64016 -54.97933 -55.85987 -66.81492 -69.27658 -66.08976 -62.06584 -66.29422 -67.12210 -71.81861 -73.18959 -73.93778 -75.77680 -86.84411 -88.68193 -88.72419 -94.00417 -87.34180 -91.09994 -91.68212 -90.40758 -91.54656 -104.32647 -114.91288 -110.11189 -98.78518 -93.43462 -96.06860 -103.64803 -110.19583 -116.09412 -121.38716 -124.14951 -125.81711 -126.81618 -128.32492 -130.40827 -132.68146 -132.73703 -135.54628 -139.01826 -139.90599 -142.11355 -142.53953 -143.80055 -142.31210 -141.88043 -142.45403 -146.08683 -147.65928 -154.57752 -160.36962 -164.38573 -162.70872 -167.03261 -172.15240 -184.43378 -205.77500 -229.92015 -240.54752 -283.25954 -349.64988 -433.47762 -573.07235 -718.64082 -984.27882 -1176.41173 -1432.45657 -1439.02889 -1523.35565 -1559.60741 -1572.17355 -1597.65566 -1611.38193 -1672.99120 -1726.65465 -1782.11499 -1847.73948 -1890.45136 -1893.03256 -1895.05046 -1902.38012 -1903.61897 -1906.84496 -1898.41001 -1909.52838 -1919.88977 -1927.79178 -1940.75932 -1939.88291 -1951.07306 -1966.71221 -1977.10843 -1979.66555 -1988.63313 -1991.99820 -1997.63612 -2005.89561 -2020.33711 -2032.23524 -2035.64761 -2061.40355 -2083.59662 -2108.19702 -2158.29756 -2156.60479 -2156.70479
937.51031 937.61031 1019.70277 824.96669 779.27774 416.85968 276.19271 231.71234 294.62669 234.37733 195.90995 99.00998 107.99049 97.26480 88.26745 35.01342 14.85867 -20.40132 -26.94816 1.91529 22.56678 60.47684 24.79807 11.70504 0.76809 12.17951 5.48434 -15.21357 -37.00282 -43.54917 -46.48254 -47.77959 -54.06028 -60.88584 -59.97742 -52.48487 -53.99059 -60.85447 -64.73720 -69.59540 -68.47829 -73.90637 -76.86526 -84.83523 -84.02246 -83.18513 -82.19439 -82.34097 -83.92771 -86.76399 -92.61120 -106.17259 -110.61029 -107.66104 -95.35210 -91.98863 -92.67722 -104.39848 -110.44451 -116.65933 -119.41549 -122.14134 -121.93207 -120.97085 -124.67968 -127.74710 -128.47448 -128.83536 -128.33149 -132.96713 -135.53991 -136.78674 -138.66237 -140.27185 -139.69816 -139.48730 -139.47158 -142.05179 -144.52571 -153.99561 -156.73757 -160.04125 -159.58849 -162.50672 -170.40894 -184.69836 -198.94710 -214.22034 -239.30845 -278.07537 -342.95723 -556.24260 -682.82109 -744.88560 -989.33120 -1270.91328 -1343.42927 -1467.40069 -1531.87688 -1583.96911 -1588.92067 -1603.01675 -1665.66600 -1702.17378 -1764.75493 -1817.50681 -1850.87160 -1896.72260 -1921.11413 -1927.12278 -1930.15824 -1918.87576 -1930.48418 -1924.36958 -1934.23922 -1933.18539 -1936.45140 -1945.77504 -1957.92908 -1975.33429 -1978.31252 -1980.49418 -1984.89857 -1988.34010 -1991.23111 -1999.67446 -2005.94699 -2012.30163 -2023.77023 -2032.93211 -2051.99507 -2064.85319 -2085.05797 -2120.90169 -2137.15801 -2137.25801
1199.76977 1199.86977 1105.86793 969.09238 788.47870 600.19958 486.54577 504.62517 372.30996 425.50558 373.45071 271.59918 244.27116 158.13343 116.17525 64.11791 22.59951 -12.94528 -19.98836 7.47802 58.07379 75.44812 58.61598 27.27386 12.48022 13.57190 8.85929 -13.14936 -37.23886 -44.18936 -39.70210 -41.84478 -46.17617 -52.63011 -51.89134 -50.47968 -49.66002 -56.04075 -60.86488 -64.41460 -63.96791 -71.07564 -76.68659 -76.16976 -79.37670 -76.61718 -76.91847 -78.31146 -81.89485 -84.98754 -93.10794 -105.09760 -113.62294 -108.48163 -97.13074 -92.36431 -96.78241 -103.96705 -108.46624 -114.82565 -115.88722 -118.15886 -119.03313 -120.37461 -121.04364 -121.90821 -119.28281 -122.61761 -125.65613 -127.11361 -132.14133 -134.85183 -136.41979 -134.71229 -134.75538 -135.81361 -139.49717 -139.49592 -142.06356 -148.49471 -149.78184 -157.62521 -162.18832 -164.00951 -169.58853 -186.28489 -194.91389 -214.01976 -230.50212 -282.63889 -392.52652 -595.20468 -665.92216 -798.96915 -1098.62532 -1244.97161 -1445.57735 -1460.06068 -1555.95654 -1602.76381 -1611.35430 -1631.04903 -1672.26073 -1709.23703 -1779.36453 -1818.10817 -1890.25897 -1912.76490 -1933.93191 -1948.22642 -1940.20701 -1949.43749 -1941.79332 -1945.54392 -1941.85066 -1952.69719 -1957.24440 -1962.16855 -1981.13632 -1981.08932 -1992.82104 -2001.68336 -2002.43114 -1997.33992 -2003.43710 -2006.64772 -2008.72722 -2013.46924 -2023.96776 -2028.50228 -2043.68436 -2062.76632 -2076.05741 -2111.07040 -2120.02826 -2120.12826
1211.63597 1211.73597 1183.60465 821.31073 775.63080 674.12047 640.16835 683.34218 549.30740 541.32152 455.42112 427.00922 326.52306 152.74424 123.62431 67.77459 41.85106 16.31626 -18.14951 -5.03844 70.32975 103.14078 67.77206 48.53789 47.40136 36.16509 15.69202 -22.18540 -27.64182 -31.75118 -28.90898 -27.46528 -40.70778 -42.71411 -44.46859 -42.57122 -41.67001 -47.92307 -54.82958 -56.51143 -59.69787 -64.38073 -65.24048 -66.82590 -74.14387 -74.09624 -72.92960 -79.41591 -83.88910 -85.06531 -95.80327 -106.48315 -106.68103 -104.51007 -90.13100 -91.29015 -95.90841 -98.33054 -105.07087 -111.54791 -115.36422 -116.35137 -118.39362 -118.14089 -118.76314 -117.25859 -117.76822 -120.27743 -121.69016 -123.22712 -128.45461 -129.55408 -130.74900 -129.80476 -129.07887 -130.29902 -132.73804 -138.57057 -142.08108 -148.41986 -152.83550 -155.65514 -159.05386 -163.09828 -165.64861 -179.99655 -195.23763 -224.27990 -279.53519 -332.39528 -408.77233 -571.91559 -663.31400 -848.64521 -1128.19523 -1345.88849 -1410.93491 -1520.62203 -1582.81561 -1612.19282 -1624.54048 -1662.74839 -1701.52727 -1726.66405 -1792.03531 -1853.04248 -1906.94702 -1929.44076 -1954.36310 -1957.91850 -1973.49648 -1965.15862 -1965.16742 -1960.80976 -1960.27297 -1964.38638 -1972.81777 -1980.08825 -1988.26729 -1991.05203 -2012.14269 -2009.88156 -2022.02189 -2026.77431 -2015.37601 -2013.02865 -2014.86433 -2019.08298 -2023.03235 -2029.17958 -2043.77336 -2058.89336 -2071.48672 -2094.26789 -2106.76748 -2106.86748
1127.45584 1127.55584 979.09125 744.54290 715.49587 705.77386 706.83264 757.48063 679.15234 587.56254 498.68130 460.27713 383.27377 231.79562 178.86816 141.30679 66.09924 39.41996 11.60594 18.97769 75.60115 104.53920 89.61298 63.62456 61.55295 64.24617 22.59751 0.34607 -30.16879 -26.62531 -10.77179 -24.16652 -32.33628 -35.27204 -36.47565 -38.09948 -40.24869 -45.38517 -49.41051 -54.62076 -56.24300 -61.97099 -60.03251 -64.70445 -62.82045 -67.28675 -69.62949 -75.32796 -81.96845 -88.43719 -94.45689 -104.78980 -102.78966 -91.84687 -87.32683 -90.20947 -91.60045 -96.09760 -103.77054 -109.26116 -112.58106 -115.43592 -115.25406 -115.29170 -116.00765 -115.48214 -113.65419 -115.81419 -116.01091 -120.45569 -122.78197 -126.27713 -127.99888 -128.44477 -127.09456 -127.01217 -132.32777 -137.73589 -139.88093 -147.47612 -149.75169 -153.12604 -156.56458 -157.58142 -165.62451 -180.26038 -214.42215 -227.14290 -283.88567 -362.70441 -443.20186 -497.78196 -632.02694 -775.38478 -1080.99306 -1269.50598 -1425.69947 -1528.34441 -1595.41097 -1633.90617 -1648.82095 -1686.37538 -1709.99832 -1755.47388 -1818.22401 -1882.91080 -1925.01413 -1926.71681 -1953.77047 -1973.54149 -1977.26102 -1975.29259 -1969.01520 -1971.57955 -1968.28406 -1982.29121 -1990.08679 -1995.33538 -2002.13618 -2012.35319 -2021.12231 -2029.70902 -2033.99609 -2029.90939 -2023.15679 -2021.66192 -2019.70332 -2023.14064 -2024.60234 -2031.54628 -2044.09494 -2055.11037 -2062.78474 -2084.36748 -2097.10220 -2097.20220
923.67094 923.77094 789.54336 632.44539 553.68491 603.95543 658.60941 699.32989 686.47401 673.31322 626.39365 520.76785 394.80734 310.09534 276.95711 190.89973 116.31588 38.46680 11.05878 30.34032 112.91088 124.09602 127.93793 115.06787 100.92810 74.19002 47.43775 38.61811 24.66449 3.41909 0.77853 -6.27759 -30.31727 -35.88022 -39.32472 -39.16701 -45.57331 -47.86288 -50.27240 -49.97272 -55.61265 -59.23904 -61.35146 -64.57347 -68.90915 -68.76354 -67.71281 -73.47152 -76.59557 -84.70673 -96.03790 -99.32236 -93.08720 -89.59022 -86.90717 -89.18431 -90.51565 -98.01760 -102.43073 -108.05028 -111.99103 -111.21053 -114.03934 -111.20183 -112.01928 -111.69606 -111.33730 -111.27021 -112.29066 -115.62151 -118.80533 -122.76248 -123.98241 -125.41309 -124.64575 -126.03652 -130.57626 -133.88821 -138.85531 -144.67634 -149.05449 -148.28275 -153.15973 -159.11296 -166.52388 -189.51792 -212.64218 -237.04556 -296.66415 -358.49581 -438.68908 -521.96847 -570.88925 -794.45998 -1033.30031 -1280.99537 -1436.83336 -1540.45953 -1601.12989 -1658.73992 -1672.98538 -1695.88828 -1742.91415 -1781.07453 -1831.07198 -1874.68307 -1904.64081 -1950.31798 -1969.76644 -1983.98702 -1989.24753 -1986.50971 -1983.90167 -1984.83280 -1993.73520 -1998.59197 -2000.25575 -2006.13184 -2012.41850 -2028.62300 -2036.83870 -2039.73000 -2041.22224 -2035.39619 -2033.05910 -2030.85751 -2026.31347 -2026.24812 -2028.17258 -2035.06641 -2039.66361 -2051.79914 -2058.28672 -2090.38955 -2089.71809 -2089.81809
810.45879 810.55879 673.54122 548.61472 528.92055 510.35677 550.63785 672.64013 676.45194 642.15774 657.08998 565.56999 497.91536 410.50755 372.62485 235.36958 186.61557 28.81163 14.75807 86.61185 127.24605 172.27636 183.03186 159.41807 132.71304 85.88873 80.81829 57.44447 55.87748 31.87311 31.03777 -0.50554 -21.10567 -39.22718 -41.55913 -44.15658 -50.77030 -58.07902 -53.84439 -50.76676 -54.53636 -58.80434 -66.78625 -70.88468 -79.42661 -80.36000 -74.26774 -69.08883 -71.55129 -78.75882 -91.83173 -94.42516 -87.34531 -83.16472 -82.83285 -85.65907 -93.32045 -95.77135 -101.86661 -103.07813 -105.12264 -106.76870 -107.78264 -107.09897 -107.85781 -108.10725 -109.17191 -108.19760 -109.45698 -112.13923 -117.45288 -119.05571 -120.83252 -121.63955 -122.69799 -125.75932 -131.62300 -132.97619 -140.45427 -143.62379 -145.94122 -144.51453 -147.91631 -160.22430 -166.56768 -178.00313 -199.58950 -261.91341 -328.02366 -352.46358 -423.20692 -506.38895 -546.10097 -824.54731 -1002.28680 -1273.71133 -1386.56920 -1527.40723 -1579.96257 -1655.54657 -1690.03790 -1698.19742 -1771.16984 -1782.87387 -1822.66767 -1864.52312 -1900.06901 -1946.16240 -1970.99861 -1986.88682 -1990.24967 -1994.62169 -1995.69640 -1994.76865 -2000.13759 -2006.78200 -2012.14846 -2015.22654 -2036.54218 -2039.54482 -2043.11175 -2047.26215 -2043.97928 -2041.54965 -2035.41826 -2034.57633 -2030.68139 -2031.83005 -2031.81138 -2035.95891 -2044.22384 -2048.33926 -2060.61475 -2077.35797 -2084.62649 -2084.72649
763.93534 764.03534 668.39317 501.44285 446.28047 469.25345 474.29926 546.04111 550.17657 603.39142 676.45024 680.61458 544.13883 480.72680 358.06054 225.65889 160.05240 56.55534 63.10364 150.56643 185.07007 185.14127 188.07645 168.15255 132.41921 94.82128 89.38975 74.14638 56.02066 55.70899 33.44782 25.79021 -13.12204 -35.27930 -42.21290 -48.57477 -53.83843 -56.24545 -54.62417 -54.61233 -58.02018 -62.80587 -73.22030 -80.62314 -84.91379 -85.03894 -81.53704 -74.62473 -73.84466 -80.87674 -96.23594 -96.94806 -86.12571 -79.46446 -80.46094 -83.14663 -90.21800 -95.03373 -98.99070 -98.32960 -100.60668 -104.55596 -103.19815 -103.20886 -102.80825 -104.56595 -105.25378 -108.40243 -108.11314 -109.96667 -112.88645 -117.20963 -117.02232 -125.49350 -127.31810 -129.63623 -132.74616 -137.17875 -138.39507 -142.88119 -144.81973 -143.47388 -145.55808 -152.04939 -161.76956 -170.64400 -174.38647 -252.43362 -303.51941 -364.45965 -450.17010 -489.89803 -624.29100 -808.40230 -1040.28402 -1295.59330 -1348.11639 -1477.54649 -1584.40081 -1646.96458 -1678.29285 -1716.60922 -1746.65800 -1799.96302 -1824.75808 -1861.74212 -1900.28103 -1924.21685 -1966.50959 -1986.44381 -1990.58802 -1994.00473 -1997.87280 -1999.27362 -2003.21011 -2013.16880 -2016.70053 -2032.22027 -2038.48796 -2042.55786 -2045.83308 -2050.29654 -2047.75131 -2042.23596 -2038.51673 -2036.32858 -2035.58232 -2032.11822 -2032.76788 -2034.88703 -2043.08122 -2050.52910 -2061.42406 -2075.03918 -2082.26357 -2082.36357
681.05011 681.15011 710.33111 448.29195 436.13097 442.62907 441.84178 456.31478 515.42222 593.45321 674.55911 694.76833 630.90210 512.31198 342.68340 197.38016 115.70190 83.49309 106.11420 180.67922 201.59083 180.99885 175.06467 151.58867 108.19367 88.95850 95.03509 79.61914 77.49341 59.32500 32.17836 11.32005 -21.57997 -27.24012 -40.06448 -46.04138 -52.89957 -58.21567 -62.36234 -63.17577 -62.11422 -66.95186 -79.40149 -80.71061 -87.10179 -90.16049 -86.06568 -80.56469 -81.70298 -88.88503 -100.01751 -95.59708 -87.11230 -76.67510 -76.49183 -79.34182 -87.13291 -93.67409 -96.11197 -97.52282 -98.29813 -100.53147 -101.28950 -100.12392 -101.08670 -103.59299 -107.99114 -110.91119 -110.07928 -111.04050 -112.78854 -116.81907 -120.46082 -127.05044 -129.61461 -130.97887 -134.96592 -136.08612 -137.47667 -141.90866 -143.35643 -143.62804 -145.03498 -146.57901 -152.90998 -161.91292 -172.52454 -223.47495 -262.18971 -325.45807 -414.04671 -539.27085 -654.68475 -725.31035 -902.06549 -1179.61425 -1375.57009 -1470.18798 -1578.26187 -1600.49552 -1666.70880 -1709.83349 -1722.38994 -1776.91411 -1826.90551 -1855.76319 -1878.88892 -1927.81079 -1939.78816 -1970.49948 -1990.59306 -1992.61911 -2000.15190 -2003.11583 -2005.73084 -2014.86116 -2023.47374 -2028.65286 -2040.90389 -2045.26270 -2050.09352 -2050.38428 -2049.04978 -2045.58830 -2040.54329 -2039.99265 -2036.24474 -2033.81578 -2033.88275 -2039.51693 -2047.55590 -2050.96914 -2057.82337 -2081.97227 -2081.75349 -2081.85349
697.79504 697.89504 597.32503 495.91931 441.35127 436.76120 440.92326 445.77598 459.87506 635.39468 698.01079 724.24385 654.68915 519.10642 384.57409 225.47502 154.01721 132.36941 207.91314 222.46923 193.14888 179.24887 141.57286 90.55659 69.51622 46.23072 79.12734 84.53351 77.56310 52.79662 15.13517 3.81164 -13.38693 -20.88233 -37.46315 -48.89854 -52.64231 -63.69994 -66.86850 -68.07846 -69.21738 -71.91815 -79.97819 -78.15128 -76.19970 -83.26710 -88.38892 -88.96014 -89.96692 -93.48975 -95.71127 -90.98342 -86.72305 -77.23465 -74.05371 -76.99594 -80.84187 -88.65829 -91.30975 -91.37605 -91.14240 -95.44160 -95.98281 -97.09786 -98.95101 -103.19952 -111.98374 -114.63522 -116.55651 -116.27412 -116.16839 -119.56747 -122.98239 -126.45862 -126.85544 -130.86856 -131.34983 -131.27670 -134.89200 -137.24873 -141.17269 -141.40311 -141.06682 -144.68413 -148.96400 -159.03553 -168.87276 -174.66058 -260.09948 -311.81657 -403.47358 -431.91259 -687.17202 -717.51147 -884.70465 -983.06308 -1345.18822 -1383.70326 -1482.24147 -1573.69826 -1623.04965 -1665.43038 -1710.27671 -1738.80257 -1789.59164 -1843.54007 -1856.72684 -1891.75491 -1931.54761 -1959.13616 -1974.92555 -1993.61753 -1996.67578 -2002.26949 -2002.49690 -2009.00450 -2022.38360 -2029.77561 -2033.62401 -2044.69961 -2046.82267 -2049.60980 -2048.73650 -2045.04412 -2041.59109 -2040.54552 -2037.28790 -2035.25473 -2034.92228 -2037.28862 -2044.85658 -2053.94232 -2063.64299 -2074.74434 -2081.99037 -2082.09037
700.07154 700.17154 576.67085 513.15806 436.88885 419.87525 428.75519 431.70550 498.45460 633.05843 716.75561 691.65449 701.80480 540.09261 465.41868 321.16091 218.93951 225.17369 260.86701 203.56657 191.08433 158.71577 125.48804 54.04747 24.81842 24.60038 48.05471 65.23330 57.64558 30.09777 -6.69576 -6.47092 -11.14630 -27.20102 -31.85424 -48.69371 -59.31991 -67.04229 -58.23028 -57.00349 -57.68138 -62.46397 -68.39750 -66.02331 -70.97686 -75.94578 -83.28098 -82.56303 -85.40775 -79.62085 -93.40007 -83.84199 -84.41490 -77.47981 -73.47467 -72.85392 -78.83861 -82.88747 -84.36506 -86.39742 -89.11386 -89.68342 -93.33045 -95.27817 -98.23720 -106.52108 -114.28605 -116.65137 -116.92565 -118.87503 -121.40122 -121.22134 -120.60811 -120.86155 -122.72976 -125.02760 -128.87739 -129.00101 -132.13962 -135.67658 -136.42628 -138.26949 -139.31859 -139.49294 -145.61774 -151.82752 -161.44836 -169.21377 -207.57167 -302.91041 -346.29417 -440.48194 -622.31192 -746.19375 -807.61366 -1011.26037 -1225.76741 -1359.92693 -1446.40388 -1493.00585 -1556.15902 -1591.33201 -1653.54567 -1698.52007 -1733.89676 -1777.07129 -1825.46240 -1847.92839 -1903.90895 -1927.18181 -1971.56222 -1991.90682 -1994.76848 -1999.32696 -2004.27993 -2007.52829 -2014.55312 -2020.69479 -2027.29303 -2039.00976 -2038.66073 -2046.07967 -2043.50701 -2043.65374 -2040.83565 -2040.22309 -2037.13982 -2035.69944 -2035.20575 -2038.60637 -2047.06001 -2057.69051 -2060.35964 -2075.79396 -2082.76555 -2082.86555
586.08208 586.18208 603.80519 438.19752 427.31202 417.16923 429.38982 447.86792 531.42081 585.86198 686.38530 723.29744 713.73556 646.82090 500.97419 476.38583 315.48166 269.12322 233.94583 163.90924 138.61121 92.97417 81.79776 -0.65414 -4.10946 -0.89766 23.00106 66.60007 52.37360 2.54090 -14.82505 -17.04188 -18.22818 -27.30715 -44.72193 -50.26774 -66.84963 -57.73844 -50.72247 -45.79342 -49.66380 -51.71182 -57.15070 -57.86409 -60.46178 -63.18278 -77.49382 -77.64387 -74.73487 -73.39150 -69.81274 -71.40466 -72.86584 -72.70130 -69.84595 -73.53140 -74.81512 -77.78472 -80.05810 -83.51022 -84.36668 -88.73218 -92.41161 -94.65121 -101.19533 -110.52173 -116.70102 -114.40755 -113.82432 -112.50011 -115.41397 -114.69761 -114.04718 -118.92177 -121.98702 -123.43454 -125.20329 -128.24717 -128.70363 -131.74302 -136.00010 -136.94230 -138.19375 -141.55053 -146.40488 -151.23528 -158.62908 -171.36600 -175.94787 -244.09876 -400.43071 -485.06732 -646.18945 -787.75927 -847.27675 -1004.62564 -1141.00218 -1281.63489 -1362.02559 -1393.34721 -1448.27591 -1557.45587 -1577.24068 -1615.38730 -1715.83603 -1739.50880 -1759.65161 -1836.93640 -1868.84308 -1917.06876 -1935.55236 -1974.42974 -1991.19312 -1994.89689 -1997.00531 -1998.08611 -2001.49995 -2014.38373 -2019.14230 -2023.87931 -2029.69948 -2032.65032 -2036.12400 -2036.91199 -2036.70816 -2036.94441 -2035.10626 -2036.01685 -2036.32213 -2039.64763 -2044.12200 -2053.22363 -2064.40314 -2085.80859 -2085.31976 -2085.41976
532.26168 532.36168 468.29089 437.03797 411.54892 424.11785 432.99822 489.56951 542.98688 580.99329 666.95566 767.77349 785.46676 713.96398 616.33508 502.43111 453.64156 387.30519 243.05763 167.13221 126.95297 82.23133 22.68965 17.54002 -7.97189 -12.47333 4.17641 26.20038 19.56542 9.50989 -33.01450 -30.72215 -35.91457 -56.62903 -56.45260 -58.07338 -55.02635 -49.68637 -41.20441 -43.78786 -48.95492 -52.66484 -57.43410 -55.54953 -53.92478 -60.97863 -68.76464 -71.27946 -70.08797 -64.94333 -61.64934 -67.08356 -66.60855 -69.61131 -71.15570 -73.50038 -75.73420 -77.52646 -79.08272 -80.71670 -83.11564 -89.50497 -91.60109 -97.18207 -101.43276 -113.31987 -112.02349 -105.01136 -102.84808 -109.57688 -110.02253 -110.54493 -111.75305 -117.01294 -118.98010 -122.39371 -124.92608 -127.80856 -128.68566 -131.97331 -136.81543 -137.76121 -141.90236 -145.25798 -148.95970 -153.48143 -158.81130 -163.36700 -174.74984 -255.99661 -314.60383 -509.06341 -603.62975 -793.71600 -891.33560 -962.38710 -1086.08476 -1158.71642 -1191.43936 -1325.32964 -1358.17485 -1419.85981 -1490.86752 -1560.64532 -1638.52536 -1672.71617 -1703.54569 -1772.74262 -1861.50723 -1885.05607 -1925.30992 -1942.16956 -1969.56008 -1978.00699 -1989.27449 -1987.81276 -1990.32293 -1998.69624 -2005.45902 -2011.43083 -2021.70127 -2022.26038 -2030.15511 -2032.68203 -2034.00246 -2034.65575 -2035.84679 -2035.93632 -2039.28134 -2040.44249 -2045.57446 -2055.03287 -2067.21945 -2089.99349 -2089.54295 -2089.64295
485.28920 485.38920 443.27588 424.14657 417.67564 429.85053 462.04985 506.77393 529.13182 558.86559 626.41825 668.24508 762.54587 777.19633 666.07793 621.88475 481.78844 401.33841 267.42749 215.81070 199.03667 118.03953 89.66053 46.52442 27.61999 -16.98305 -9.99997 -3.45075 -8.28063 -34.37926 -41.20572 -48.37520 -54.96261 -58.77637 -64.66186 -53.25846 -52.88747 -44.86395 -40.47833 -43.34878 -43.58625 -46.34316 -48.91840 -50.29765 -49.50094 -61.41662 -66.12572 -69.13344 -64.38521 -63.31764 -63.68201 -64.22812 -66.39463 -68.97973 -71.65670 -80.52204 -84.11382 -78.09721 -79.92816 -80.31461 -84.33128 -87.16519 -95.71744 -103.19419 -109.31781 -113.78977 -108.08493 -100.77389 -101.79690 -103.31806 -107.91564 -109.91950 -110.14810 -113.99927 -119.69338 -122.25014 -125.28068 -126.47851 -128.20251 -130.35923 -136.27981 -137.92292 -141.72460 -150.64348 -154.18665 -155.92075 -158.77671 -159.10390 -193.78755 -259.74716 -301.00102 -467.52617 -570.43320 -647.89019 -855.50775 -937.40243 -987.82604 -1076.66039 -1128.37550 -1234.71202 -1332.60188 -1363.04087 -1423.09239 -1515.94769 -1593.42406 -1603.45902 -1654.38184 -1687.68575 -1790.30371 -1850.95064 -1897.98196 -1940.73578 -1948.82342 -1954.74365 -1957.46337 -1974.88841 -1978.50866 -1994.12438 -2005.93458 -2008.68902 -2017.88970 -2020.88690 -2029.30256 -2032.19941 -2032.52412 -2034.94818 -2035.62835 -2037.70671 -2039.30634 -2044.82022 -2053.22718 -2065.36677 -2067.80036 -2083.89671 -2095.30437 -2095.40437
440.59829 440.69829 445.92678 409.10721 409.00785 422.94875 460.30456 480.47773 501.84299 499.76223 528.62843 634.21015 676.10059 724.92523 693.97297 660.71839 557.15529 441.38608 329.22589 301.62850 196.73514 123.50013 82.89250 61.70830 19.74862 -13.72672 -35.81774 -34.61195 -29.52004 -38.45771 -51.21969 -53.02603 -57.53100 -61.59964 -55.08502 -44.83086 -40.49069 -36.48837 -34.22671 -34.71682 -39.18526 -37.97074 -42.13519 -43.96206 -50.99379 -56.62836 -70.63524 -69.65789 -66.03369 -68.37120 -70.29284 -66.46441 -68.85411 -77.18418 -79.58310 -86.72165 -90.07641 -84.14680 -79.09358 -79.38790 -83.50396 -93.29254 -102.33669 -110.84444 -111.33074 -107.17952 -100.45298 -92.98797 -94.06109 -96.57483 -104.85597 -106.68914 -110.93854 -116.98734 -119.57449 -123.05163 -125.00117 -127.68680 -128.25123 -130.29793 -133.45825 -135.03749 -135.26104 -148.26802 -154.69456 -165.03286 -165.25381 -188.29569 -214.09895 -279.35943 -399.40598 -413.42244 -537.82538 -692.80110 -853.83514 -883.59349 -973.02574 -1008.24903 -1106.99271 -1202.40705 -1263.12600 -1314.36076 -1394.39036 -1401.88916 -1424.44334 -1545.69527 -1579.58316 -1590.82081 -1704.03905 -1806.30301 -1820.82461 -1884.04899 -1926.14185 -1928.81802 -1953.07085 -1954.19564 -1968.07197 -1993.39727 -1994.95717 -2001.86740 -2011.82480 -2017.38260 -2027.14001 -2033.43200 -2033.71166 -2038.04168 -2038.31572 -2039.63009 -2047.73580 -2056.67924 -2059.64065 -2073.72807 -2075.36854 -2091.86739 -2103.19249 -2103.29249
413.75856 413.85856 417.83551 406.59507 408.87848 412.41048 421.83796 450.07943 473.94863 486.99181 530.81110 562.07258 630.55844 634.76105 575.84750 570.28377 612.76213 474.98594 439.98882 332.95605 191.02901 74.36607 62.75462 31.69272 20.43989 -17.08736 -39.25439 -41.38612 -36.15994 -38.45323 -39.41589 -44.58052 -58.33458 -60.45728 -46.82407 -36.03693 -26.12973 -26.95508 -25.52983 -30.53489 -32.56684 -37.09936 -38.61868 -47.02624 -54.89526 -60.57992 -70.30019 -71.58216 -74.20452 -74.98255 -72.92048 -78.07675 -82.68575 -83.27807 -88.53359 -92.43280 -97.99104 -88.70470 -88.40870 -86.05975 -87.94659 -103.00082 -109.86679 -111.50529 -101.50662 -98.68216 -92.05917 -89.85249 -90.37624 -93.70845 -101.51706 -105.54744 -112.28157 -114.75549 -119.91232 -122.81927 -123.53619 -126.09148 -128.29415 -129.55076 -129.71617 -129.98142 -137.58754 -142.49583 -154.46324 -167.19721 -182.46455 -234.94694 -259.19521 -306.20334 -419.42401 -475.01090 -605.37578 -769.20424 -863.61578 -880.45183 -973.96043 -1054.53836 -1064.20649 -1098.84265 -1183.62958 -1266.93097 -1311.69973 -1317.46318 -1389.64320 -1440.29273 -1463.39661 -1571.94487 -1630.79568 -1665.51941 -1771.96846 -1842.65627 -1862.90415 -1912.46285 -1920.32351 -1926.01331 -1953.03355 -1984.32220 -1985.99552 -2000.11251 -2007.05940 -2018.74214 -2026.32604 -2032.20611 -2039.81680 -2043.33517 -2044.13243 -2049.77587 -2058.53389 -2062.04599 -2071.17686 -2073.24531 -2079.98750 -2101.67265 -2113.79427 -2113.89427
408.18094 408.28094 407.56646 405.94595 408.90295 402.32706 405.71708 411.24276 426.18276 444.43578 450.07832 490.76819 464.12128 459.92506 421.32696 513.35314 565.77567 521.73343 431.32193 318.08859 156.07959 115.54048 44.94928 5.34154 -17.26204 -19.58956 -37.49382 -30.80428 -28.12265 -20.05605 -26.21547 -41.30433 -57.25107 -50.15996 -30.96410 -20.86920 -22.95333 -19.42952 -23.38228 -29.32308 -35.55702 -39.76352 -41.11134 -53.22173 -56.88727 -63.25301 -68.31275 -72.23743 -75.32485 -78.89526 -74.18337 -84.11888 -90.42468 -90.68752 -83.33719 -86.88127 -93.69832 -96.75756 -96.12653 -100.23036 -100.33752 -108.74231 -107.88513 -106.60836 -97.44906 -91.02480 -89.29628 -87.40607 -88.33537 -93.82081 -101.77137 -105.19347 -110.34776 -115.54212 -120.22403 -120.46426 -121.58525 -124.94841 -126.18039 -126.02523 -127.03271 -127.50622 -134.67251 -146.58870 -153.85189 -165.45124 -233.41910 -256.22872 -322.56048 -352.17777 -547.58114 -645.17815 -741.20187 -803.09617 -868.51362 -911.87652 -1056.50854 -1062.31677 -1069.09272 -1104.33322 -1145.19708 -1190.26670 -1223.35163 -1279.90236 -1313.30071 -1349.59381 -1407.77513 -1525.38173 -1570.28488 -1636.94156 -1702.74129 -1762.38334 -1795.40907 -1867.48649 -1902.70942 -1915.57984 -1955.96880 -1967.88623 -1983.15964 -1998.84489 -2015.25238 -2023.29467 -2030.49565 -2034.21466 -2041.57233 -2043.89074 -2050.81021 -2060.14051 -2062.59457 -2070.38979 -2072.94417 -2087.74182 -2090.15180 -2107.75679 -2125.40833 -2125.50833
410.75408 410.85408 409.78071 408.07238 407.60955 394.30514 391.23695 402.48500 405.20038 413.60110 416.46580 379.50163 366.54571 340.50222 325.84985 407.88578 540.40570 483.43134 422.95312 326.26608 180.25462 97.89633 49.51796 27.92480 -8.06624 -18.01312 -17.21713 -20.38834 -10.40273 -15.58739 -23.82537 -45.66631 -45.60942 -38.97961 -25.74660 -17.18528 -19.59922 -18.26842 -25.41628 -33.16392 -42.60926 -47.33904 -51.11801 -52.11969 -54.48999 -56.73097 -59.53406 -63.91724 -66.04945 -70.82012 -74.36044 -84.99911 -91.18750 -88.25210 -80.07181 -81.43100 -79.33585 -94.33180 -100.21180 -100.07383 -103.50392 -101.34526 -96.34811 -93.88751 -88.06691 -88.67762 -84.20992 -83.34849 -87.50148 -98.32037 -99.65146 -104.99388 -110.04043 -111.70976 -117.31035 -117.36112 -121.60882 -125.20327 -125.70297 -123.39806 -123.98533 -123.86702 -127.51846 -150.81372 -178.22655 -202.13412 -254.52294 -354.63231 -394.89941 -558.80193 -767.75593 -770.73844 -805.91416 -894.12272 -922.60454 -1000.80812 -1056.69519 -1073.31671 -1087.31421 -1115.87661 -1126.85758 -1139.68280 -1143.02313 -1175.41595 -1238.68908 -1326.21457 -1351.46126 -1445.15995 -1480.32927 -1562.89199 -1616.61051 -1669.84277 -1777.45815 -1831.48270 -1859.21513 -1920.59794 -1950.99127 -1967.93049 -1987.84628 -1998.30867 -2023.29799 -2025.99571 -2033.14648 -2040.00858 -2041.94785 -2050.97757 -2060.71693 -2065.57281 -2072.87235 -2077.76968 -2087.48210 -2097.67174 -2107.23479 -2122.38526 -2136.00863 -2136.10863
429.55765 429.65765 416.34635 412.52030 402.70238 388.89015 382.07883 394.37705 399.37457 409.45119 400.57718 341.29612 276.76169 266.66148 289.75232 383.15686 469.13356 488.92657 413.11230 307.97352 259.08393 128.83340 50.25453 45.46455 19.45003 -6.56222 -0.85614 -0.29857 -5.81926 -15.43317 -38.37444 -38.89584 -33.03938 -22.47712 -9.86249 -8.75422 -13.23189 -23.00358 -27.30573 -38.93790 -43.54589 -47.58656 -43.83188 -44.43239 -50.04011 -54.40869 -56.48541 -62.37884 -70.13292 -71.61490 -75.13881 -85.43959 -90.25423 -84.42820 -72.98047 -73.40549 -74.43434 -85.86262 -97.47528 -97.18958 -94.98152 -90.93443 -89.14138 -83.85823 -84.44561 -82.57357 -82.42608 -84.53777 -88.60868 -94.44545 -98.52342 -103.25051 -103.00100 -112.27320 -113.55458 -114.58473 -119.09359 -121.43555 -122.10510 -123.04529 -124.22945 -124.56224 -134.11564 -149.81827 -182.09425 -216.13498 -294.43312 -375.89782 -538.51363 -707.52614 -827.36671 -902.21784 -904.72927 -988.82733 -997.82127 -1086.92877 -1087.28504 -1089.39604 -1114.34556 -1115.39124 -1116.11243 -1118.08335 -1123.69416 -1136.01455 -1170.79284 -1207.92591 -1260.61443 -1309.92516 -1424.37344 -1472.14943 -1550.54184 -1634.82025 -1718.72619 -1793.44280 -1848.66687 -1921.49996 -1958.56261 -1969.46106 -1992.98334 -2006.71614 -2024.61083 -2029.78040 -2035.32478 -2042.21734 -2052.53496 -2056.11319 -2069.51614 -2072.80879 -2081.56644 -2086.18132 -2096.54161 -2102.31039 -2112.29793 -2128.58200 -2144.61323 -2144.71323
446.33109 446.43109 449.72086 405.40022 401.71965 391.04197 361.90309 352.04439 367.89429 392.25914 380.35302 330.22570 302.25985 215.90182 247.53240 324.04856 444.24600 466.72170 400.04794 343.22342 284.30661 89.78383 54.40820 32.84335 24.07043 20.31660 10.11924 -3.77257 -15.95540 -27.10978 -36.99186 -32.46058 -24.79365 -5.30275 0.56422 -4.28894 -11.83514 -18.32447 -31.67787 -35.45615 -42.06419 -39.55719 -38.98641 -41.39236 -45.78571 -49.18477 -55.67527 -69.30848 -79.02833 -79.03229 -72.11183 -79.97888 -89.45722 -79.68845 -69.85544 -72.47004 -72.23549 -81.72758 -86.99566 -95.19626 -85.85616 -81.49241 -80.97530 -80.28596 -80.43255 -79.51202 -80.57165 -81.65224 -88.54179 -95.33276 -95.83387 -96.53891 -96.80866 -106.01906 -107.36196 -111.63658 -113.21379 -119.13538 -121.23520 -121.96063 -122.60083 -123.90716 -128.53903 -143.98714 -156.01850 -194.70272 -303.53229 -450.61843 -629.83878 -769.08497 -902.54934 -948.57175 -979.70388 -1014.05575 -1089.77578 -1111.22206 -1124.10899 -1118.30172 -1123.18848 -1126.24510 -1115.22366 -1108.23959 -1112.14085 -1115.97104 -1155.47590 -1180.31760 -1250.16912 -1271.46365 -1283.22178 -1387.49590 -1457.93240 -1556.33397 -1604.87893 -1771.74795 -1804.10175 -1909.51887 -1946.50833 -1977.57019 -2006.82227 -2015.42973 -2029.06717 -2031.31147 -2041.04924 -2045.23635 -2053.50910 -2058.74025 -2067.96907 -2076.53019 -2085.62830 -2091.32914 -2100.07837 -2105.81359 -2117.64783 -2150.27821 -2151.12436 -2151.22436
474.33649 474.43649 449.61112 411.01616 397.47771 373.19240 341.45911 316.26588 310.56054 321.57380 327.52844 301.26310 233.98318 177.12589 203.95014 320.44907 360.59274 408.07386 403.43917 286.43912 214.74945 81.00813 62.43842 21.43610 13.75592 0.73850 -0.00466 -16.33219 -29.42676 -36.25355 -16.96331 -12.92571 -3.94536 -0.50795 8.89268 5.11823 -12.88353 -19.07795 -29.25700 -36.67126 -37.29670 -35.78537 -36.37679 -41.67740 -45.70709 -52.62357 -60.39269 -69.40588 -81.10162 -76.66621 -75.16381 -75.16991 -77.27775 -75.41745 -69.18159 -69.69417 -73.44274 -81.53664 -87.16150 -89.89446 -81.52924 -75.98916 -77.09333 -78.95748 -80.53112 -80.41100 -81.10369 -83.50061 -86.12075 -89.19960 -89.88377 -91.49294 -92.83548 -98.08983 -105.28287 -109.39930 -111.93370 -114.49893 -119.09515 -120.24805 -118.14208 -121.65658 -127.64800 -137.62879 -153.44361 -166.22523 -300.28169 -509.81162 -700.63121 -816.08384 -904.76264 -952.81749 -1020.90307 -1071.20091 -1106.77268 -1121.58492 -1123.46540 -1136.61690 -1137.77900 -1127.20532 -1110.77697 -1094.84039 -1094.98989 -1101.06932 -1127.43661 -1152.49509 -1185.44152 -1231.67010 -1246.91305 -1307.97531 -1414.14881 -1437.60069 -1612.86561 -1701.91813 -1815.45651 -1853.56035 -1914.02168 -1979.18711 -2014.37964 -2025.16036 -2033.00064 -2037.17975 -2041.81079 -2047.18329 -2049.90463 -2057.23314 -2065.20601 -2078.07005 -2087.05006 -2093.02943 -2101.18454 -2111.01023 -2124.65114 -2153.71768 -2154.74654 -2154.84654
480.10604 480.20604 450.26822 408.85316 367.90376 345.63935 317.78693 278.63152 243.45735 250.39649 264.06213 231.97697 201.79007 101.37093 176.78976 254.44616 329.50114 372.63124 368.50843 275.13483 155.48394 124.78964 34.19479 32.05048 2.70464 -6.42274 -11.92070 -29.60461 -32.06129 -20.83735 -11.55773 2.04026 9.30649 11.99850 17.11321 8.90670 -12.36135 -25.31993 -32.28299 -34.83067 -35.69778 -39.17634 -41.05264 -42.43990 -58.70374 -52.64693 -61.37537 -71.05271 -81.12354 -76.17628 -68.49445 -62.55696 -63.61192 -67.28397 -70.23906 -71.00767 -76.94076 -84.00641 -85.30516 -82.20663 -77.21757 -75.72639 -77.90015 -80.90074 -86.76660 -87.79520 -88.17118 -86.30882 -86.00598 -85.66695 -88.06168 -91.74006 -93.17413 -96.44085 -101.19187 -105.91238 -108.85762 -112.22130 -114.73039 -117.41213 -116.64843 -120.01823 -128.23179 -137.91145 -154.63912 -229.82234 -301.46492 -578.90458 -716.33591 -769.23636 -876.88383 -963.45419 -1036.70743 -1089.22789 -1102.99922 -1122.68819 -1136.78175 -1136.58007 -1142.47281 -1140.20722 -1122.59384 -1106.92897 -1104.94129 -1102.54112 -1107.55410 -1132.02392 -1140.94055 -1179.90841 -1221.95737 -1273.56045 -1314.33814 -1467.06955 -1513.51239 -1700.75531 -1794.77254 -1829.22356 -1901.35578 -2013.24845 -2018.79760 -2029.39487 -2027.25696 -2029.36380 -2032.07694 -2038.24119 -2041.10972 -2056.31968 -2059.96078 -2075.11938 -2085.75090 -2091.98583 -2102.36598 -2105.81459 -2118.65732 -2141.94384 -2154.85597 -2154.95597
512.69898 512.79898 471.65264 413.31595 365.89039 268.09426 260.21114 219.63283 232.16416 224.33348 195.32015 207.77159 132.22578 102.90095 127.49351 277.21232 301.82389 355.10501 344.13943 302.99403 247.16052 126.13038 90.51663 50.87611 43.73059 3.52796 -7.76124 -14.46303 -18.73224 -11.69664 -1.20853 16.75118 26.50097 27.46738 16.80678 8.88526 -14.15565 -18.59967 -28.14322 -34.69629 -40.01255 -42.67730 -50.70644 -57.76336 -66.70667 -64.93931 -62.38845 -71.27176 -82.91809 -73.26698 -68.64618 -60.00589 -63.91099 -66.67556 -69.58208 -72.30199 -78.00336 -78.69975 -77.65222 -75.04065 -76.00196 -77.73408 -84.83928 -84.00529 -89.91137 -90.94310 -91.40936 -93.30648 -87.87897 -86.28992 -87.94443 -92.62184 -96.76785 -99.52309 -99.18233 -103.31624 -108.24343 -113.16844 -117.45294 -116.78957 -114.88026 -117.53049 -127.11750 -138.53666 -148.69557 -240.26977 -428.56804 -594.12085 -700.82847 -838.51592 -883.90600 -962.40104 -1024.68634 -1073.34334 -1091.25336 -1093.02507 -1106.19854 -1129.73241 -1135.65158 -1135.79081 -1132.27241 -1117.56146 -1109.05390 -1105.78369 -1108.70380 -1107.90327 -1129.24651 -1136.60292 -1190.64026 -1202.35702 -1259.64218 -1425.82391 -1495.71374 -1698.88172 -1786.22081 -1833.30686 -1864.06754 -1975.14266 -2001.05481 -2016.27140 -2014.28224 -2018.40611 -2017.78284 -2030.51450 -2032.20772 -2037.47297 -2055.97818 -2068.41476 -2082.66713 -2085.94572 -2096.52276 -2110.39231 -2117.35659 -2140.64026 -2150.68398 -2150.78398
516.41475 516.51475 475.85994 363.68138 325.82941 261.56449 233.74273 162.36878 180.78546 151.58532 165.68022 137.40805 109.19559 66.25905 124.21593 260.84185 304.19896 364.35769 343.61706 293.05038 269.68829 208.17420 149.52652 127.58072 68.02902 36.98954 9.58967 -4.87974 -14.45499 -15.89975 -4.32797 16.32086 21.31200 29.66932 19.34335 1.67560 -13.24655 -18.24986 -26.18588 -38.24722 -48.37653 -61.48559 -62.05684 -68.68322 -74.07135 -74.60129 -71.25765 -75.04264 -72.61779 -69.07343 -65.34648 -57.15664 -59.08062 -66.17062 -72.39131 -72.89970 -77.20617 -79.04872 -74.80506 -75.08537 -80.66799 -86.43064 -88.78631 -88.46083 -90.15165 -89.27414 -91.11152 -94.45553 -96.26832 -93.68921 -93.32996 -98.34396 -101.32326 -102.49555 -103.47141 -103.68502 -108.84538 -116.29155 -116.56821 -115.80956 -114.37444 -116.41823 -122.13772 -133.08441 -147.65401 -285.01955 -420.91993 -545.27686 -589.64979 -579.19868 -731.42428 -880.30970 -895.83064 -1045.35998 -1080.59237 -1068.51122 -1100.59329 -1122.86941 -1126.12862 -1131.09308 -1132.02717 -1128.81569 -1117.21196 -1113.62702 -1111.09502 -1101.34963 -1098.92236 -1095.96994 -1131.53118 -1152.10973 -1176.56635 -1267.20541 -1519.28677 -1643.00445 -1703.61998 -1772.04557 -1826.75439 -1932.87679 -1971.63893 -1982.30785 -1981.26126 -1993.45646 -2012.18321 -2013.20539 -2022.13756 -2032.83886 -2043.26409 -2061.88617 -2072.84873 -2083.32764 -2091.06441 -2104.53888 -2114.28395 -2127.58461 -2143.28563 -2143.38563
526.90900 527.00900 442.65429 326.92119 280.97668 248.08592 184.08582 158.68628 112.22886 99.66431 75.64619 100.72155 81.70059 66.80852 99.21131 160.09675 232.85847 265.14112 309.61111 281.38313 263.17598 266.04954 233.35745 179.54383 110.48742 44.43263 13.21805 10.77808 3.93020 -1.86608 -4.74421 3.89982 16.32785 23.73222 20.30811 0.79410 -15.50121 -21.16317 -35.97541 -43.75474 -60.05239 -64.79010 -73.41538 -69.31800 -67.71956 -70.77823 -75.73182 -77.85426 -75.18778 -68.98297 -58.36843 -56.18698 -57.76703 -66.68666 -69.02347 -71.15999 -75.34429 -75.86088 -79.06606 -79.64137 -80.79351 -84.55421 -86.29026 -83.18092 -81.61896 -83.01062 -84.67423 -94.58872 -97.30463 -98.84388 -100.13448 -99.96707 -103.35982 -103.64578 -102.15658 -106.94727 -113.19466 -115.36665 -114.01046 -111.28090 -114.82127 -115.93604 -121.25315 -132.99812 -148.19123 -272.73430 -375.97947 -379.11591 -446.19588 -483.44536 -500.12234 -625.94309 -662.12476 -897.82308 -940.28759 -963.41729 -987.15186 -1106.63497 -1119.30949 -1126.69206 -1133.03255 -1133.74500 -1126.09321 -1115.74115 -1111.80409 -1099.34545 -1091.17531 -1089.62728 -1087.82808 -1104.72985 -1153.99580 -1256.27972 -1419.33094 -1571.20392 -1674.99325 -1737.84603 -1777.48222 -1884.56461 -1930.46138 -1931.07181 -1961.02735 -1943.22073 -1957.17437 -1965.24177 -1999.52290 -2001.12245 -2014.57197 -2051.71704 -2064.54950 -2070.08331 -2087.64614 -2098.53188 -2107.35254 -2126.66070 -2133.37730 -2133.47730
535.51628 535.61628 443.45689 302.26198 262.11859 218.35046 202.27054 148.86781 107.41433 91.86230 63.85402 35.10004 21.20176 17.56975 42.39983 76.43228 113.79314 221.96899 228.79493 254.23598 267.28890 270.51216 245.70253 186.69245 137.86090 71.82176 10.17113 10.13567 15.59128 17.96835 13.19914 10.70336 12.44771 21.54807 9.28473 -10.65711 -28.02373 -31.21201 -38.85609 -56.51384 -66.43117 -69.92867 -70.19473 -65.09757 -54.09330 -59.37537 -68.67856 -72.74703 -66.91490 -55.85071 -55.03377 -52.75711 -57.23791 -62.37757 -69.52621 -69.59813 -71.58094 -78.68592 -81.33553 -78.25214 -77.85287 -77.08737 -76.25733 -76.05688 -76.12414 -78.45645 -82.65309 -90.53879 -98.01698 -100.61065 -98.03693 -96.44052 -103.81844 -107.14349 -109.07319 -113.55583 -114.35370 -111.49166 -108.22419 -109.01674 -116.04935 -117.60540 -127.32474 -138.94580 -151.69998 -196.13115 -221.44371 -331.08387 -331.40366 -338.16713 -382.77008 -408.39435 -594.49695 -703.71818 -731.74161 -759.70308 -797.64263 -982.25784 -1122.93819 -1101.22678 -1132.34569 -1131.24161 -1126.70229 -1120.57848 -1117.56748 -1104.78089 -1077.33142 -1075.31743 -1074.79731 -1096.61177 -1125.13701 -1207.21785 -1330.11748 -1481.02190 -1629.74903 -1667.11799 -1750.10987 -1804.32104 -1848.66591 -1872.06711 -1863.17569 -1853.09405 -1862.55475 -1883.83687 -1895.97930 -1946.63575 -1995.56859 -2018.03069 -2047.14195 -2054.58507 -2067.29695 -2080.24422 -2090.41616 -2110.25268 -2119.64449 -2119.74449
603.10458 603.20458 488.18089 307.99936 268.74297 230.40527 226.77976 189.72549 116.49453 95.56028 76.53328 44.15935 38.84259 45.75668 29.14445 42.90681 30.44252 102.14213 136.78831 220.00198 226.60194 269.86667 244.56456 207.22827 203.59504 137.72353 82.51254 39.61729 39.23174 32.28819 20.97398 17.57136 11.74267 6.19279 -11.02105 -20.67064 -38.23181 -42.15680 -51.96783 -59.02132 -69.23829 -70.13576 -72.22060 -64.87201 -55.69310 -56.49159 -59.93362 -62.09297 -58.84200 -54.40325 -53.92953 -56.08212 -58.61028 -63.16500 -66.10588 -69.66402 -71.08273 -76.86166 -79.41165 -78.23031 -69.78114 -67.09776 -69.62243 -70.68378 -73.61467 -78.01117 -81.33947 -89.21159 -93.95174 -96.49599 -98.28170 -98.31299 -103.64677 -110.26006 -109.80981 -108.84268 -107.49874 -104.69969 -104.33487 -107.00647 -114.61695 -122.39238 -132.10905 -140.36314 -150.53135 -151.34863 -181.23829 -204.80114 -224.81145 -240.18235 -354.58216 -394.13811 -507.85570 -519.60609 -553.29047 -586.89141 -583.65299 -871.61667 -933.74755 -1079.25811 -1095.89449 -1125.47246 -1122.89832 -1117.85654 -1111.84127 -1104.19667 -1081.02620 -1075.98683 -1065.61790 -1071.77303 -1086.48051 -1107.70224 -1294.16488 -1383.14560 -1487.31089 -1549.47683 -1671.29964 -1755.46147 -1783.46666 -1774.61753 -1778.12261 -1823.24926 -1840.50511 -1870.69430 -1875.86899 -1901.50149 -1941.68912 -1958.10530 -2019.30480 -2045.71832 -2055.45052 -2072.87163 -2081.92493 -2100.97984 -2100.22849 -2100.32849
581.34656 581.44656 503.69835 321.82659 303.58662 285.43779 296.10663 211.62079 220.00078 151.94641 144.78317 93.52679 58.54466 78.25595 58.81297 18.58183 15.62449 70.01167 128.87586 80.99305 179.87791 211.48923 256.43647 231.30761 215.01069 168.20694 98.52027 62.44923 75.89182 62.67193 31.51419 29.20645 14.11338 -6.13856 -23.18433 -37.13586 -45.54277 -51.41508 -61.14794 -67.16198 -64.87274 -62.21969 -64.01641 -64.74330 -55.23721 -49.71335 -54.05858 -49.25624 -51.44274 -51.61636 -54.73711 -56.47965 -59.44741 -62.01162 -63.81690 -67.67357 -74.48334 -75.85875 -80.60034 -73.27862 -68.72048 -65.34996 -66.19805 -68.77499 -72.56445 -76.77216 -82.17373 -85.14795 -93.16322 -94.28471 -96.53456 -100.12475 -103.86349 -104.15492 -101.69317 -101.17291 -95.76313 -97.02844 -101.40541 -107.25989 -118.43220 -122.17043 -131.25196 -140.50059 -144.87942 -150.04806 -150.34335 -153.86865 -154.87986 -160.89930 -166.90390 -294.03156 -343.46672 -462.31813 -452.39688 -496.66307 -622.10889 -709.71752 -909.20680 -1002.34474 -1013.98236 -1077.06470 -1116.00250 -1112.62694 -1104.39880 -1101.64695 -1088.80504 -1076.14564 -1056.55649 -1051.67987 -1063.19565 -1138.28951 -1182.51686 -1305.17010 -1440.41916 -1482.11531 -1530.30405 -1559.93531 -1665.31203 -1749.21043 -1724.28724 -1752.21771 -1733.36077 -1793.86198 -1818.28677 -1868.35180 -1866.54709 -1917.91522 -2002.04653 -2013.64995 -2020.94157 -2044.21952 -2053.31627 -2071.98368 -2073.93852 -2074.03852
681.04764 681.14764 642.89710 346.23291 345.29269 362.67436 367.64571 319.30842 239.80730 218.12932 217.69743 131.56732 133.21819 159.10148 115.29542 37.66500 15.75284 62.59303 96.51689 77.49643 75.03507 149.77143 198.42701 221.44374 213.28426 179.61839 150.29813 113.01324 89.44082 90.03540 68.27246 29.94703 9.73359 -15.82088 -35.74820 -54.13899 -59.38675 -67.61035 -60.54262 -61.32689 -47.06986 -53.28068 -57.72086 -63.74915 -57.40853 -52.86654 -46.91382 -47.37723 -50.24906 -50.62442 -50.99613 -54.16923 -55.81959 -60.37142 -61.45374 -65.06959 -74.00460 -76.31385 -73.32202 -67.18328 -64.24452 -63.39688 -65.15047 -68.24112 -73.57091 -78.76423 -81.98184 -87.24503 -90.07747 -92.05520 -95.09602 -97.67499 -97.34512 -96.27171 -99.84107 -95.76879 -94.71345 -95.37310 -100.01367 -102.82229 -116.70675 -126.15202 -131.66317 -136.50252 -139.14864 -144.42401 -147.16070 -151.97101 -153.44288 -159.85843 -164.34841 -164.71020 -269.77551 -166.25504 -233.50315 -290.27941 -430.97575 -677.97593 -850.80136 -852.86835 -934.03269 -974.77207 -1034.07590 -1057.54564 -1091.82809 -1086.68089 -1085.69841 -1072.96067 -1066.07432 -1050.54405 -1063.83587 -1110.89486 -1174.86053 -1225.31281 -1371.02633 -1434.96930 -1448.43214 -1512.30988 -1544.77465 -1616.52263 -1619.60504 -1637.94572 -1655.40177 -1708.75241 -1714.19720 -1778.36282 -1825.37103 -1830.60393 -1934.77180 -1976.83168 -2003.38781 -2028.02815 -2019.74545 -2036.82500 -2040.97431 -2041.07431
650.15319 650.25319 530.32975 399.11126 363.99575 398.06886 459.64812 446.12209 335.20131 287.41476 235.45278 213.90428 172.57351 159.93571 111.89220 38.15181 0.22229 19.34647 37.85962 45.75271 46.38624 145.31485 163.26463 194.23723 191.12267 208.84796 180.41686 144.47509 136.72459 129.71938 82.25968 41.95509 2.10482 -22.75497 -39.65899 -60.36647 -68.04588 -57.20399 -50.21777 -38.59985 -38.78478 -33.73605 -48.63901 -52.17201 -51.33205 -48.94713 -45.99153 -45.41976 -46.76715 -48.09739 -48.32466 -48.57655 -50.52306 -56.09161 -56.24070 -63.46202 -66.99219 -66.90527 -69.32803 -63.00494 -61.05583 -62.12203 -64.68958 -68.93162 -74.58672 -79.01483 -80.44885 -84.58977 -89.97404 -90.33301 -91.28862 -92.00873 -92.47061 -94.52004 -95.38338 -94.73901 -93.26341 -95.24344 -97.70255 -104.42197 -115.82632 -124.64613 -130.94120 -135.39294 -137.55593 -142.41463 -143.28819 -146.89818 -151.32153 -152.44491 -157.25450 -158.03497 -158.68174 -163.14397 -168.52270 -169.44019 -366.20591 -517.58864 -682.89833 -825.03407 -808.63493 -815.28698 -966.39184 -1020.04091 -1038.02636 -1071.25920 -1063.35399 -1070.24236 -1061.20931 -1052.85508 -1078.16209 -1127.05193 -1182.12774 -1193.62210 -1271.45450 -1370.60992 -1382.57464 -1397.06301 -1402.71833 -1396.71734 -1476.15434 -1504.52147 -1541.60055 -1604.98583 -1648.70449 -1719.09222 -1740.68940 -1804.45112 -1851.38499 -1909.00182 -1935.36178 -1945.95158 -1977.11877 -2012.23853 -2001.05453 -2001.15453
673.59127 673.69127 530.83672 375.86121 421.49857 483.93071 524.00117 525.68034 429.60931 379.44813 291.23435 259.75818 219.77068 149.89165 137.80723 83.07986 28.99039 11.19453 -0.52668 -4.86022 0.81585 65.92075 131.52497 155.17303 195.56492 196.67053 201.77306 195.19852 186.64647 163.85936 108.25306 27.42479 4.53358 -5.30798 -36.34228 -57.87726 -67.68543 -51.81186 -38.53069 -23.81223 -23.66244 -30.93120 -40.95106 -45.29098 -46.20134 -38.23917 -37.84978 -40.16677 -42.13604 -41.60607 -41.45774 -43.40699 -46.32865 -55.18462 -54.78556 -59.13279 -64.40852 -68.17280 -61.56931 -58.93277 -58.89932 -62.34717 -65.55260 -68.06630 -72.39423 -75.80773 -80.33025 -83.09384 -85.90362 -89.14095 -90.07403 -91.76402 -91.31988 -93.17415 -95.71132 -96.63511 -97.15958 -97.43570 -97.84306 -104.34775 -115.01278 -122.30153 -124.74198 -129.54890 -134.91834 -138.59470 -141.52500 -143.36743 -146.29838 -147.03443 -149.25607 -150.04059 -152.48239 -161.01085 -163.01489 -165.69457 -220.41788 -263.37003 -439.55727 -526.50655 -685.76874 -762.07938 -750.84730 -951.37637 -1007.01212 -1024.27675 -1061.88030 -1060.15860 -1058.43479 -1064.22695 -1063.76719 -1117.90797 -1140.40893 -1211.34874 -1259.74599 -1309.90674 -1310.56518 -1342.23453 -1323.93951 -1365.56203 -1388.10985 -1425.02231 -1493.20865 -1493.32945 -1517.07376 -1600.23921 -1699.58641 -1730.03768 -1759.96822 -1775.04592 -1834.13353 -1895.61428 -1900.50318 -1950.34467 -1952.79782 -1952.89782
825.41253 825.51253 644.67291 433.10917 512.64354 562.62726 557.63811 581.25645 524.64109 396.46063 338.04990 315.67498 260.61138 190.71421 135.55063 131.65268 95.19115 73.35985 19.46672 10.00867 -13.56918 30.90926 60.92579 133.32252 148.05294 183.84451 185.50954 195.07346 197.42630 158.24360 129.26270 55.35095 16.45152 -7.09580 -34.94346 -52.89785 -59.81953 -54.35450 -41.02943 -24.34745 -17.42263 -20.53367 -30.69125 -36.74228 -35.54577 -32.70636 -36.36121 -36.88405 -35.96329 -36.27248 -40.03003 -45.52982 -47.07593 -54.56187 -58.91461 -59.59286 -64.07290 -66.72383 -63.66573 -59.89813 -58.06919 -61.30766 -65.53433 -67.18046 -70.47272 -73.44515 -79.03141 -83.73255 -84.76610 -86.30853 -88.95430 -92.39945 -92.75619 -95.01118 -95.91273 -100.59374 -100.35780 -99.56241 -98.90452 -105.02965 -113.23125 -120.72379 -123.38813 -127.42683 -132.19137 -137.04592 -138.45858 -142.56604 -141.69449 -144.36114 -144.87010 -145.37225 -151.97906 -153.53006 -157.61473 -160.38198 -193.63047 -206.60338 -227.36510 -320.80279 -373.75252 -442.30371 -622.59137 -763.13850 -922.73449 -930.79147 -999.79116 -1015.55455 -1044.60157 -1057.07648 -1070.12828 -1102.52747 -1153.56880 -1210.59329 -1258.35966 -1268.05780 -1299.75116 -1279.58092 -1293.74385 -1307.57766 -1351.89007 -1357.65760 -1386.66811 -1406.99263 -1468.85218 -1469.81062 -1518.73085 -1554.45008 -1615.83994 -1722.05912 -1786.37993 -1836.44288 -1862.24296 -1855.29394 -1896.16553 -1896.26553
816.56111 816.66111 643.84755 519.60394 504.22966 618.28325 621.86348 641.71781 563.08574 460.29156 375.03919 362.60405 299.75888 189.08390 138.17005 132.93067 117.47207 93.55950 64.78800 26.79301 -7.52806 9.37113 7.30248 73.47925 107.92746 133.51261 148.16449 163.02106 182.11607 147.31906 121.69819 80.70496 -3.63448 -17.40946 -43.22790 -53.81626 -62.66561 -57.73808 -45.87913 -18.49482 -5.23121 -12.14617 -19.74124 -29.50590 -30.02723 -31.59439 -33.27274 -34.03421 -33.40627 -36.36971 -41.35191 -48.15342 -54.71649 -61.90200 -64.47781 -62.37569 -63.44817 -64.86559 -62.24354 -57.27028 -58.11965 -60.94391 -65.03479 -69.00562 -73.36859 -72.37067 -76.43392 -83.75216 -84.56994 -85.51217 -89.13891 -93.66962 -94.95914 -96.17660 -99.32039 -103.65243 -103.00217 -102.66889 -103.67723 -107.69840 -109.89569 -118.11028 -123.52134 -127.01215 -129.45234 -132.79632 -137.21549 -139.42984 -139.06631 -139.29732 -140.26055 -140.92086 -144.10285 -148.82231 -150.70967 -157.85171 -160.48688 -165.29822 -182.30620 -199.08065 -216.77102 -215.60161 -322.38519 -673.21845 -899.18917 -888.17042 -939.77628 -975.53615 -1037.17182 -1043.22474 -1066.38454 -1108.63665 -1141.64501 -1202.19619 -1225.27165 -1243.22273 -1252.65213 -1228.87211 -1207.57625 -1240.67141 -1249.26096 -1263.73152 -1270.94941 -1314.56902 -1324.73660 -1372.88762 -1447.51609 -1470.13793 -1576.12646 -1608.84559 -1685.73448 -1796.88989 -1801.48600 -1849.33502 -1832.26060 -1832.36060
812.10855 812.20855 915.05920 527.13310 601.31109 664.35616 738.76380 750.76957 682.88911 483.38243 382.99629 340.79337 285.89061 191.37469 114.82807 100.14970 111.04718 110.40637 98.62770 57.02459 42.97049 -0.30666 0.33215 19.76390 65.38509 82.99352 103.97034 142.49008 117.63722 110.84975 75.47645 77.04107 -10.98547 -54.77827 -53.24763 -64.21781 -59.72659 -52.41896 -24.77717 -11.02266 -0.89196 -2.75270 -11.87232 -24.26208 -28.58266 -29.09152 -31.51962 -33.31318 -33.28299 -41.89351 -47.16327 -54.90963 -59.08588 -63.05027 -60.36264 -55.87099 -56.08390 -58.52840 -57.96890 -56.27119 -59.33099 -60.33999 -66.41865 -71.53159 -74.64093 -75.50281 -79.41814 -84.06874 -85.19069 -87.33266 -89.65669 -93.20308 -97.96428 -99.34440 -99.78002 -104.49515 -105.81124 -107.56000 -106.62450 -109.45496 -115.53428 -118.68701 -122.44404 -125.01824 -129.04326 -132.38073 -131.07178 -136.24622 -135.05499 -136.29228 -136.53257 -140.44133 -143.23244 -143.60587 -146.56939 -149.97499 -152.43086 -158.84632 -159.51606 -180.12792 -179.13075 -194.49973 -200.87850 -411.39211 -650.42620 -785.80604 -823.64605 -898.17652 -1023.76798 -1042.71782 -1062.13019 -1082.54487 -1136.12189 -1182.39913 -1224.13395 -1217.36016 -1200.72644 -1159.41818 -1153.58562 -1160.92618 -1174.97526 -1163.10539 -1156.78083 -1219.25431 -1203.03790 -1248.61419 -1316.10912 -1366.26196 -1481.31494 -1523.62752 -1576.04195 -1642.93753 -1709.87098 -1744.49997 -1760.66099 -1760.76099
1158.81008 1158.91008 897.51601 715.82239 680.82287 777.73212 831.58462 813.77063 757.18864 608.47981 427.32950 383.83031 231.18405 140.95431 110.78579 65.69213 73.70922 85.19303 89.02623 73.98548 31.14848 1.49905 -6.79793 1.16602 10.41428 64.80807 85.61068 101.45469 58.16761 68.66621 36.48502 -21.90955 -41.97014 -61.93318 -62.34357 -59.30980 -53.55683 -33.24581 -10.55712 -0.88282 5.45418 -0.74198 -10.81624 -17.30869 -18.97188 -23.03843 -26.02242 -33.49126 -37.29297 -46.98993 -52.37830 -55.98583 -59.55058 -56.61104 -49.55737 -52.89525 -50.68347 -51.13445 -54.95447 -57.82559 -59.68637 -63.13713 -68.12979 -73.98723 -77.29721 -79.44234 -82.92778 -85.57872 -85.35807 -89.87759 -94.01205 -95.14809 -97.87109 -99.90740 -103.24470 -107.86018 -109.07592 -111.89526 -112.32013 -115.12445 -117.03196 -120.54379 -120.75599 -123.17797 -127.09891 -130.27583 -130.87163 -132.46260 -133.56829 -133.55861 -134.00205 -136.56407 -137.70262 -142.28065 -145.68328 -145.46913 -145.49519 -149.28529 -154.06118 -157.74580 -157.67099 -174.06163 -187.80326 -190.22092 -441.16516 -546.74584 -741.66572 -858.33844 -988.05654 -1032.09746 -1064.32740 -1079.12272 -1122.75545 -1173.36989 -1199.90850 -1208.76442 -1172.74773 -1146.25601 -1111.46002 -1082.38184 -1087.57366 -1116.03927 -1069.01538 -1098.89710 -1160.20787 -1167.46196 -1177.08234 -1289.60990 -1342.49547 -1400.45939 -1491.21519 -1525.29235 -1610.04293 -1694.01671 -1680.12595 -1680.22595
1318.76200 1318.86200 1161.29109 850.99800 820.21167 854.16013 901.81990 892.07825 810.38555 635.45231 530.26831 376.77487 205.86228 143.49476 94.43634 22.67764 37.66811 43.07360 39.21523 18.65215 15.01016 -3.01705 -20.04059 -19.11492 5.17608 25.40379 45.71128 50.46665 40.22371 -9.86062 -15.31906 -35.40876 -59.91442 -52.51571 -54.38312 -51.80957 -34.11457 -15.93475 6.69253 0.85598 6.43761 1.04793 -5.20572 -12.09395 -10.61882 -15.53447 -23.10401 -29.75713 -37.72823 -45.65042 -54.18912 -58.40366 -54.64212 -47.48983 -42.59721 -46.78585 -46.24261 -50.29322 -53.92182 -58.40685 -62.00523 -65.50286 -68.93456 -73.98157 -78.29922 -80.76659 -83.47905 -85.27419 -87.52449 -89.42987 -94.61136 -98.02887 -99.77828 -102.03463 -106.68592 -108.47249 -110.55151 -113.32255 -114.49130 -117.06034 -117.56366 -119.30890 -119.73788 -122.13940 -124.89822 -129.00676 -129.26107 -130.10503 -131.06113 -131.26153 -132.64403 -134.50774 -133.91469 -136.84529 -138.75141 -143.00853 -144.28811 -144.85262 -150.40039 -150.01361 -152.81760 -155.29030 -169.38314 -183.39971 -293.95747 -403.38788 -707.01502 -841.65728 -976.14565 -1018.33328 -1061.13847 -1087.52529 -1122.35430 -1143.53499 -1189.43890 -1169.75757 -1153.43432 -1108.66637 -1056.49715 -1039.06403 -1027.10951 -1016.80796 -1033.47888 -1041.82085 -1046.76503 -1019.63843 -1023.19859 -1107.58490 -1195.69502 -1245.40792 -1344.96665 -1464.38858 -1463.49690 -1595.92562 -1595.53534 -1595.63534
1555.10555 1555.20555 1312.74646 955.52605 936.58417 973.50639 946.89816 896.95360 775.63583 727.13610 534.37587 370.84534 220.82009 127.95903 106.03948 65.55063 27.51420 13.13893 -1.85255 -1.27069 -4.79502 -32.25264 -33.38209 -20.63419 -1.78703 3.78593 14.56753 25.93210 3.62009 -18.76413 -32.95442 -52.94227 -48.10207 -46.67054 -38.15993 -26.87223 -14.17802 7.18073 39.46632 40.35612 13.30525 5.69777 0.09694 -7.80682 -7.70575 -13.57783 -23.34420 -28.46973 -32.07812 -40.83593 -55.07858 -55.00196 -51.43114 -40.63888 -39.87899 -40.84996 -42.00720 -46.80998 -54.67812 -60.76191 -63.82921 -67.19680 -69.51396 -73.90915 -78.15629 -81.13570 -83.39674 -84.49204 -84.19992 -88.24059 -93.59361 -99.32002 -101.29390 -103.01463 -107.24367 -109.60002 -110.69774 -111.45243 -113.00872 -116.83354 -116.74972 -120.31039 -120.50230 -122.70581 -123.86896 -126.14010 -128.06536 -128.07855 -128.23115 -129.04875 -129.58388 -132.11481 -133.49377 -134.68640 -137.40363 -140.33952 -140.22710 -142.14382 -143.44012 -146.17726 -150.60193 -153.14742 -162.63784 -176.43924 -257.92220 -344.36214 -617.68895 -734.90441 -957.84201 -979.00494 -1026.26832 -1063.27408 -1118.90537 -1122.25193 -1136.24669 -1128.30292 -1098.77292 -1061.04626 -1043.09396 -1026.23350 -1025.59292 -990.39650 -969.15223 -967.47121 -969.86748 -992.86789 -1000.93767 -997.06354 -1034.50695 -1153.36205 -1277.57537 -1340.87930 -1408.83289 -1434.62913 -1512.27723 -1512.37723
1506.37289 1506.47289 1242.18322 1125.39595 1041.97553 1023.97236 972.35297 891.05971 841.15076 629.54062 504.03498 330.45042 291.59440 167.51416 99.02935 85.86186 48.05884 29.11810 -10.77431 -14.16833 -26.45631 -25.23278 -30.22566 -38.75621 -27.52969 -18.27112 -0.86195 -8.07188 -14.65269 -37.11881 -46.12060 -44.49670 -36.06527 -26.00515 -31.40333 33.10819 33.79130 53.72463 63.81116 57.09889 39.32478 21.18018 3.44178 1.04972 -3.69386 -13.49875 -24.30348 -32.50723 -35.04764 -41.85318 -48.43147 -56.43521 -48.09693 -42.39053 -36.19421 -38.55075 -40.98073 -48.03307 -55.42102 -61.16026 -65.60815 -69.98171 -71.11726 -73.83653 -78.36794 -83.32182 -84.13159 -86.03948 -88.10063 -89.28621 -93.52487 -97.34026 -99.64527 -101.83884 -104.95498 -108.39624 -107.04035 -106.98610 -110.42106 -111.49890 -115.18956 -119.86345 -120.34313 -121.60289 -121.57737 -125.34984 -125.11536 -125.10824 -126.66635 -127.47485 -127.91898 -129.29402 -131.20474 -133.32732 -135.80764 -135.75190 -138.99548 -139.93086 -142.25618 -145.06040 -147.80403 -151.14147 -158.55788 -166.42384 -177.36699 -229.14077 -430.49320 -559.12738 -735.80500 -933.58925 -926.27434 -1046.71284 -1064.96214 -1067.92961 -1096.22939 -1058.73519 -1066.72230 -1050.45737 -1024.55106 -993.38761 -981.06912 -973.25947 -931.84528 -934.86700 -890.31292 -907.51281 -909.25075 -924.13506 -999.50222 -1022.33264 -1125.93544 -1320.67990 -1330.01650 -1427.29870 -1433.66380 -1433.76380
1261.83993 1261.93993 1322.21770 966.55743 987.83711 904.02643 788.99434 776.22070 769.48870 712.65563 510.17115 468.28275 353.38612 304.38599 210.56774 164.12633 117.03005 44.97344 28.48192 -0.61773 -5.20707 -19.95024 -31.12151 -32.76559 -42.71105 -29.95754 -28.52306 -28.88884 -38.47198 -42.23602 -54.26358 -43.70696 -9.00271 21.70561 51.36307 70.45364 51.29976 81.22090 99.45244 94.79595 46.91839 10.30837 7.59493 -0.47111 -11.87089 -18.46243 -39.27202 -40.92208 -43.04735 -43.86349 -46.41210 -43.84228 -45.25223 -34.00219 -35.43927 -36.97727 -41.71574 -47.72010 -50.20452 -57.46991 -61.92176 -68.88324 -70.68150 -70.82469 -72.71856 -75.86663 -83.57608 -86.48467 -89.08714 -90.85843 -93.54343 -94.74129 -96.95532 -97.18302 -99.72918 -104.22674 -105.18625 -105.75883 -107.67401 -109.78109 -113.59879 -115.92899 -118.97218 -119.26630 -119.23062 -120.57379 -121.76378 -124.27591 -126.22307 -126.64462 -126.29776 -126.48291 -130.40848 -133.19835 -135.00540 -138.03250 -139.82581 -142.53856 -144.13830 -148.41041 -149.80875 -152.77373 -157.66796 -165.38531 -176.02997 -224.50380 -257.24491 -301.69471 -661.24575 -764.59439 -819.31373 -1005.51733 -1025.37583 -1033.14985 -1034.80720 -1047.73764 -1045.03949 -1019.33863 -1011.78123 -976.70560 -937.57951 -899.02597 -873.43006 -877.20734 -848.43810 -841.04711 -839.88712 -844.89378 -917.54204 -951.68095 -1018.48714 -1136.43200 -1237.79670 -1312.43984 -1360.87996 -1360.97996
1223.10813 1223.20813 1050.19189 876.14365 807.12528 767.14599 598.07378 690.13625 776.20813 803.11858 688.71645 528.19679 489.85097 373.44423 335.76238 287.51349 252.57451 153.28512 71.78693 29.18908 0.91130 6.64982 14.28829 -38.57710 -40.73509 -42.01121 -46.92472 -36.81238 -50.64303 -49.22202 -51.04061 -22.70161 -0.52403 45.90019 66.84968 117.85264 104.68908 106.91696 110.11862 97.60128 36.60476 8.99952 7.94846 -7.30170 -19.57083 -31.18351 -39.78496 -40.56569 -40.36960 -36.01250 -35.46934 -37.82505 -33.35183 -34.07956 -34.38635 -39.36538 -44.03702 -44.93261 -49.21270 -51.63128 -59.40637 -62.38230 -67.07574 -68.23207 -70.13518 -75.58485 -78.23313 -84.09726 -83.85698 -88.39246 -88.46361 -88.85673 -88.50964 -91.53187 -93.61125 -97.23338 -103.06879 -105.40147 -109.68602 -110.31744 -113.44928 -115.22862 -116.79648 -118.12265 -117.24710 -117.51442 -120.52391 -122.24130 -123.42777 -124.77351 -124.49918 -125.51292 -128.22035 -130.79195 -135.13210 -137.74073 -137.38033 -140.34056 -144.20565 -146.93869 -149.67590 -155.32725 -158.36526 -164.88137 -172.71060 -193.78353 -251.00433 -286.55731 -618.06651 -701.97462 -744.67786 -794.33067 -958.00654 -1015.69538 -1020.41686 -1030.78649 -1021.24635 -1009.12158 -1006.35146 -938.57448 -907.26296 -884.53249 -861.16100 -811.53337 -803.12705 -798.59006 -807.65213 -827.16644 -862.66446 -880.99536 -907.91965 -1032.13476 -1148.43711 -1268.34052 -1297.76877 -1297.86877
1190.96041 1191.06041 982.66501 785.68222 634.43552 541.58328 581.82164 618.51498 715.81489 741.77911 714.99632 602.22610 519.65453 411.42427 346.11526 354.55493 320.70947 270.49980 169.94412 81.22556 42.23258 49.57976 39.73827 10.99401 -33.72619 -39.54465 -39.31623 -44.48581 -44.64331 -46.88685 -46.75294 -15.16383 14.63339 47.76913 99.21553 116.64718 143.52424 132.72055 115.21367 59.95877 6.99609 1.16646 1.73029 -11.23458 -28.85340 -32.61758 -38.27981 -36.84622 -31.86504 -29.36231 -28.78719 -32.23391 -33.46551 -36.90088 -37.10793 -43.24733 -47.01247 -50.97122 -55.03968 -53.39371 -53.65422 -59.64590 -62.63116 -64.75671 -68.84940 -71.06189 -78.75657 -84.10345 -83.36389 -87.42646 -85.30934 -88.84092 -91.90430 -91.21436 -92.64997 -96.66603 -102.38731 -105.93233 -108.81617 -110.31287 -112.54919 -112.72117 -114.80421 -113.65776 -116.42431 -116.98435 -118.78733 -120.77676 -122.81100 -123.85196 -124.06834 -124.33410 -128.25162 -132.19186 -133.60074 -135.16979 -134.58325 -135.42279 -140.64411 -144.65267 -147.56841 -148.89438 -154.49719 -156.84827 -165.85553 -216.39001 -238.16906 -321.28808 -420.80139 -565.87327 -588.47406 -731.51830 -873.73846 -996.02153 -1009.89142 -1012.42080 -1014.85722 -994.48980 -963.90233 -915.67418 -889.51344 -873.29795 -814.20434 -781.80097 -754.00979 -741.87442 -754.97882 -762.38226 -806.91195 -826.19948 -893.69960 -984.24726 -1046.26755 -1250.77638 -1249.15132 -1249.25132
990.83358 990.93358 1026.86558 635.02207 607.89830 525.02242 478.81606 517.16634 620.62450 667.40505 588.36206 604.24381 580.95638 476.70132 448.31143 387.54360 392.19732 337.23796 214.78104 175.65342 129.66415 117.50414 51.27293 9.22294 -15.12189 -8.20758 -36.73519 -38.13781 -40.08399 -38.79214 -34.95661 -6.23280 33.05358 42.57748 93.71872 133.32876 155.98018 121.87392 93.31106 42.13093 -0.43436 -9.96746 -12.34820 -24.88971 -36.77850 -30.79111 -27.70026 -20.27411 -10.46664 -10.53906 -26.50685 -32.29907 -36.86687 -39.59296 -46.69616 -51.08155 -54.48034 -57.03563 -59.65260 -60.52105 -60.91772 -62.77199 -65.14772 -64.30462 -68.34701 -77.09341 -85.50302 -85.48780 -89.06903 -86.38658 -90.38397 -92.38731 -93.38648 -91.37712 -90.77520 -95.41595 -101.81341 -103.86408 -107.74857 -108.61513 -108.78180 -108.91065 -109.20907 -112.11771 -113.39273 -115.13494 -117.73211 -120.06899 -121.93715 -123.06200 -124.30103 -125.53551 -129.43153 -132.57675 -131.06455 -131.46702 -132.27008 -135.39340 -138.20180 -139.36548 -143.72814 -147.20655 -149.82637 -153.73452 -155.78438 -171.89568 -216.82777 -244.92042 -352.11176 -438.18115 -535.00444 -727.74143 -768.70843 -913.88817 -990.94739 -1001.49823 -998.65883 -988.36018 -950.14926 -898.24028 -858.58646 -845.80664 -812.37393 -759.55181 -737.18893 -726.28565 -726.35779 -714.28392 -750.82170 -787.54759 -862.71683 -960.84854 -1047.07298 -1142.60067 -1206.08219 -1206.18219
913.38627 913.48627 741.94275 640.29115 552.34014 472.80325 440.00228 491.30250 504.58540 485.37779 487.01693 563.02903 587.77709 518.67660 464.02181 399.74082 393.87867 358.16252 218.70918 152.27239 127.74314 48.39774 29.77621 -22.29731 2.04164 14.43004 -4.70131 -6.95048 -11.50782 -13.03177 -12.85991 -12.64427 19.21957 50.12644 93.82596 127.91335 141.88578 108.03058 68.00462 10.29525 -5.61550 -21.88508 -28.98290 -32.55015 -33.34368 -21.03319 -3.19208 4.36837 6.88169 -1.71974 -12.02997 -32.31754 -36.91009 -41.09472 -48.92936 -51.20650 -51.71637 -52.89845 -55.94748 -65.68089 -65.37063 -69.34878 -66.96255 -68.58061 -74.80719 -85.33258 -85.98964 -85.83960 -85.83160 -87.95510 -93.68930 -95.02462 -96.45518 -94.91394 -94.54817 -96.01958 -101.74802 -104.84149 -107.52400 -105.96193 -107.15329 -106.84212 -110.06504 -110.19594 -111.36709 -113.12629 -115.77172 -118.23279 -121.43827 -123.88626 -124.45035 -126.38201 -129.92527 -131.04911 -130.22140 -129.79385 -131.84018 -134.03690 -137.26608 -138.38655 -141.40991 -144.50754 -148.12208 -149.63461 -158.92101 -166.11135 -172.88240 -182.05945 -193.34620 -262.96813 -490.60762 -576.25115 -757.43418 -885.58305 -987.77307 -996.33254 -992.52004 -978.03038 -928.52628 -880.91920 -835.10478 -819.10402 -755.26991 -714.37625 -710.16371 -685.59730 -695.62408 -710.26203 -748.83576 -784.55254 -805.34163 -926.72331 -981.24239 -1119.76825 -1164.81860 -1164.91860
866.16224 866.26224 737.53927 585.71365 480.86901 397.18214 435.35844 486.18137 476.90828 444.34427 397.49550 483.37938 523.57193 569.97328 545.33185 463.16001 391.74638 322.62961 186.76042 66.32589 55.10709 18.66983 0.80887 2.97431 38.15345 65.74212 18.08171 -4.69276 10.66318 17.31961 -0.21256 3.48042 20.00490 46.12385 92.48603 134.25483 145.60643 110.86313 61.82328 0.48117 -10.69347 -23.75638 -28.16581 -30.47000 -19.75017 -6.18076 9.87037 29.50856 34.18861 16.11500 1.57640 -18.38746 -30.63244 -33.25908 -49.12690 -48.58608 -47.96673 -46.27247 -54.64305 -60.45571 -66.26667 -69.56419 -71.69530 -72.14579 -79.64539 -84.79308 -83.75233 -83.58032 -79.37575 -85.24739 -87.63146 -92.80308 -95.90151 -97.06508 -96.44352 -96.50489 -102.14192 -105.94423 -108.72522 -107.00896 -107.20648 -109.39916 -111.93735 -111.53403 -110.21433 -112.72938 -115.33864 -117.92239 -120.93477 -122.65779 -122.76660 -125.69055 -129.26592 -130.24826 -127.62242 -128.50311 -130.63005 -135.12666 -135.97565 -138.37141 -140.27090 -143.96951 -147.99980 -149.34857 -154.74817 -161.24466 -167.29441 -173.16192 -187.29052 -193.26264 -366.76649 -633.18562 -777.62475 -853.55820 -982.31999 -990.18503 -970.60562 -952.91423 -893.48417 -845.10611 -805.33136 -788.04766 -720.50881 -706.71451 -672.41546 -674.23007 -668.49005 -677.71745 -716.54834 -748.13685 -788.63065 -872.49974 -905.74013 -1118.04078 -1121.26967 -1121.36967
845.30919 845.40919 723.86461 585.93754 477.15165 377.71993 372.23287 392.04221 401.39175 376.61502 379.16600 400.20733 540.71856 561.25719 555.70589 457.18513 430.38150 359.04874 201.53926 29.40753 31.83863 29.96343 39.37789 32.76732 46.04803 48.01516 41.22560 14.18981 42.63124 53.39872 61.64874 44.74141 26.20156 77.04196 108.92853 137.90638 139.62998 112.76801 64.99433 27.60478 -10.28843 -19.66608 -17.81966 -14.05650 -4.03961 -0.34885 25.28588 53.17991 44.23207 34.18796 10.12023 -8.89492 -12.62041 -26.40867 -31.98188 -41.51537 -42.69534 -49.34752 -54.36860 -60.88155 -62.10213 -63.05491 -67.75565 -68.86996 -77.35766 -79.33648 -73.14857 -74.17470 -76.48843 -85.17001 -86.31291 -92.35737 -96.11846 -100.17073 -97.41089 -101.00810 -104.29176 -106.84712 -108.09952 -109.41305 -109.84410 -113.50128 -116.13210 -114.73602 -112.73206 -113.84910 -115.49781 -118.79432 -120.25678 -121.55847 -121.78532 -123.42862 -125.65565 -127.24034 -126.44414 -127.27438 -130.60775 -132.90906 -135.83779 -137.35644 -138.06593 -142.63910 -144.68116 -148.36215 -153.87437 -158.37923 -161.45333 -163.46396 -174.87340 -191.16642 -407.88973 -733.16698 -781.78268 -878.50638 -953.08740 -964.59951 -954.01710 -925.72046 -884.63068 -804.79933 -772.23397 -729.15288 -680.88730 -630.40339 -639.96094 -641.03099 -637.60465 -643.56076 -676.48615 -700.10306 -753.19734 -798.21090 -879.11213 -973.81370 -1066.69663 -1066.79663
784.13068 784.23068 686.41027 580.01497 527.73079 402.08752 312.69536 308.67825 272.09639 303.52763 357.95540 422.13714 508.80219 556.42027 591.05954 483.64079 394.43121 277.40221 166.96211 96.83882 93.52234 66.71515 119.85357 107.91370 127.04326 70.78092 49.17935 25.91413 47.94933 92.81850 105.85667 106.12082 73.65952 99.17567 152.89422 175.84838 144.44815 101.63713 74.02368 14.44478 -3.85285 -5.20519 4.42433 9.76272 14.89898 38.76274 57.02883 91.71035 83.13775 56.79194 31.69870 -0.73210 -15.46637 -18.36084 -30.89810 -37.16982 -37.43653 -40.72788 -50.92513 -56.33604 -55.32024 -60.09392 -59.57098 -65.52723 -65.84923 -67.29347 -68.98760 -68.27074 -68.56472 -76.06072 -76.42111 -88.48841 -91.69534 -93.26074 -97.91530 -100.42165 -105.18816 -104.54424 -106.36839 -109.05098 -114.38365 -114.20945 -114.81711 -115.94736 -116.61410 -115.57552 -118.17965 -117.38984 -119.08533 -121.10604 -121.24175 -121.82776 -122.95029 -125.62951 -125.50118 -127.51538 -129.57567 -132.16922 -133.00411 -137.16966 -139.05634 -142.49449 -144.28347 -147.82517 -153.21177 -157.21396 -160.81394 -161.80858 -173.64012 -185.68603 -354.26440 -625.89349 -786.57278 -914.79184 -934.28891 -959.07786 -900.59624 -843.87849 -833.70604 -791.88175 -728.71133 -698.62794 -639.67712 -619.47345 -590.12397 -606.25071 -603.36733 -630.10963 -655.71219 -696.09086 -705.54339 -746.15728 -835.59689 -966.46429 -1002.16640 -1002.26640
704.27297 704.37297 654.62095 567.26202 526.94338 418.26820 313.62717 288.41410 255.21518 296.57051 367.17000 467.44955 490.82919 558.51344 604.10456 509.66961 385.95795 274.26448 261.12168 181.45657 188.27215 163.71211 145.82041 182.00287 157.11546 133.81479 91.33264 73.02146 67.57032 96.02118 132.78518 125.26305 124.79103 147.34712 202.50434 196.79217 169.12833 118.26438 85.42610 43.05099 18.02795 13.70151 15.82162 53.89494 67.19773 58.95245 89.62154 104.62490 130.14290 80.38212 40.20163 -2.48948 -8.52611 -18.77183 -27.07315 -28.51623 -33.74351 -36.00055 -49.21535 -56.01000 -55.03603 -57.13099 -58.62048 -59.93037 -59.51929 -60.20704 -63.85655 -65.41764 -64.33915 -69.48202 -70.43292 -78.44684 -87.12445 -90.31459 -93.27760 -98.56922 -101.83961 -105.21166 -107.70500 -111.32521 -113.85523 -112.50743 -110.49209 -112.42297 -116.31958 -115.81524 -115.84005 -115.72755 -117.57285 -119.44139 -121.57194 -122.78440 -123.14572 -125.19651 -125.77029 -127.87225 -129.95017 -131.99668 -133.76224 -135.72409 -139.74858 -142.88370 -144.63593 -148.09865 -152.99441 -156.41446 -158.50491 -165.11484 -179.21182 -184.88770 -352.79254 -584.52810 -746.10241 -845.94758 -909.73918 -912.02700 -879.23774 -834.32486 -805.43466 -736.96318 -689.26752 -626.82912 -601.69304 -586.48338 -571.78584 -553.21298 -565.45086 -588.05411 -584.50164 -628.23044 -653.54384 -712.10471 -722.98967 -928.42459 -929.95154 -930.05154
648.34585 648.44585 618.83846 514.98414 443.76054 421.19674 351.49722 268.78044 241.08279 302.16396 360.38816 459.14845 535.33582 590.32485 601.05823 569.73165 435.46204 327.83263 266.87718 247.49659 229.92932 243.30896 228.81700 244.46567 240.28151 179.63874 155.25564 102.88169 98.83086 115.31733 150.29313 187.97683 187.49986 223.52709 237.68704 227.01300 171.89447 157.33372 107.85432 79.97059 61.82691 30.58472 29.37133 74.30183 112.63362 113.22927 142.75877 150.56687 149.38542 118.00685 34.56115 -2.63472 -3.89859 -11.61173 -19.39799 -22.62339 -29.94338 -33.48535 -45.00319 -55.64542 -60.69901 -57.32449 -65.34049 -62.31494 -61.19869 -61.91515 -63.89981 -65.82124 -65.04613 -66.66563 -68.96753 -74.83110 -81.04644 -89.14681 -91.49155 -97.34530 -104.87044 -109.08898 -111.53004 -111.40750 -107.59365 -107.14308 -106.57115 -111.15213 -113.32765 -114.52642 -114.86246 -115.88991 -117.24245 -120.30396 -122.10115 -122.88962 -124.56939 -125.71960 -126.97549 -128.83832 -129.87443 -132.05692 -133.80001 -134.89915 -138.91556 -142.24144 -146.19192 -150.46359 -152.04967 -154.19234 -156.98160 -166.99789 -177.93285 -187.21517 -409.29460 -565.74198 -757.65436 -811.31772 -860.97561 -872.60497 -844.25664 -824.30720 -740.98233 -720.14197 -626.97864 -588.85427 -547.17197 -513.68001 -515.26752 -509.17356 -513.03933 -535.19006 -515.98517 -557.86921 -576.03974 -644.39203 -709.45611 -795.20708 -852.52333 -852.62333
570.00710 570.10710 569.24957 468.27592 411.76306 366.82826 301.89332 245.30022 221.70590 297.51325 367.63945 455.52221 488.36809 554.66899 583.92915 543.92456 490.38630 428.32728 378.19916 325.19115 323.60296 341.01711 300.04233 298.58703 301.10581 264.62033 200.38508 115.02815 110.62257 143.28456 189.38278 251.02958 247.25472 263.53702 276.42986 233.49234 195.69509 160.62895 154.89131 121.17922 99.41186 68.78755 70.56880 132.04754 152.58154 147.38039 168.55800 179.34860 149.20133 89.53205 16.41732 2.26402 -1.50313 -18.64835 -27.19361 -27.48965 -31.76258 -34.51913 -46.15636 -60.53322 -63.22647 -74.09710 -74.41842 -69.38007 -70.17676 -71.19682 -69.04989 -66.62645 -67.11006 -67.93606 -71.31674 -79.84170 -78.17902 -87.10783 -93.48454 -99.03501 -106.80870 -110.84055 -110.37623 -105.40212 -103.27701 -104.17696 -108.80430 -109.78146 -111.52200 -112.31156 -115.89416 -117.75045 -120.96176 -121.30329 -122.15729 -124.35268 -125.80951 -126.31696 -128.65571 -128.87071 -131.64803 -132.64950 -134.43189 -136.34030 -138.94780 -141.69836 -145.73875 -150.17830 -153.36919 -154.17255 -157.42311 -162.95979 -174.68584 -249.15912 -419.18088 -546.26459 -760.94673 -812.62876 -869.09283 -840.12886 -832.65884 -818.80155 -704.24356 -624.37872 -609.79121 -513.57708 -495.37876 -482.37143 -462.11430 -462.54971 -477.11323 -473.15496 -497.84423 -500.82168 -545.33466 -606.10514 -650.06889 -753.38808 -775.91725 -776.01725
488.74055 488.84055 504.55166 367.09627 337.77284 348.99915 274.49405 193.69591 205.87944 274.02726 351.92382 415.70274 456.37453 470.62411 495.98342 508.16837 487.60811 466.90277 434.73565 392.52182 427.18775 426.22682 393.72079 350.72548 310.13982 281.49653 229.94379 193.03152 142.66730 177.58811 256.20136 303.34546 305.94319 284.48850 252.06652 198.89041 176.78786 163.39622 181.18481 170.67398 138.36300 124.36781 128.83509 150.16837 152.88873 144.85083 152.09429 137.00300 115.40836 77.67444 16.32524 -0.95093 -18.51255 -30.76809 -44.65086 -38.06947 -35.58694 -39.27759 -50.04399 -61.38919 -70.87939 -77.48350 -79.71368 -77.31219 -79.26107 -76.46207 -78.74878 -76.36607 -74.04774 -73.69923 -78.77857 -84.71451 -85.83773 -85.80238 -89.63680 -103.38229 -106.37705 -106.39793 -105.44764 -102.37466 -101.46078 -104.18902 -107.20328 -109.81602 -111.73767 -113.58395 -117.24891 -119.78098 -121.11841 -122.92127 -123.90155 -125.38340 -126.40172 -127.30800 -128.31993 -129.42965 -131.58568 -133.73596 -135.91405 -136.92575 -139.27158 -142.51341 -146.43207 -148.79509 -154.54406 -156.71118 -161.00475 -165.81449 -208.15783 -290.53348 -552.32683 -633.43798 -766.38534 -789.68931 -829.21965 -818.80899 -793.57541 -737.26533 -643.58011 -600.19039 -535.57724 -509.55178 -477.43226 -445.93920 -453.62276 -435.94688 -434.45484 -436.54976 -454.61255 -472.03145 -491.31693 -517.61443 -572.33437 -630.16141 -702.04127 -702.14127
461.11510 461.21510 389.67260 313.80249 303.96620 302.23819 243.23599 201.96775 198.63760 233.30715 334.53116 368.79101 389.28468 426.50288 453.10455 461.54274 455.31371 469.44454 506.21195 513.65266 507.24658 456.00557 424.21979 368.18644 316.86197 335.99968 301.65557 269.06821 287.84229 274.41304 357.04142 340.12540 319.65194 286.52804 225.40046 148.77565 138.72707 153.64590 180.01035 166.02366 139.78569 133.30832 134.05644 129.89174 137.21837 134.70493 112.26272 71.77658 60.52248 34.74498 13.12162 -16.19340 -23.07351 -36.80850 -44.91707 -47.33291 -48.34889 -53.06799 -56.06715 -67.59082 -67.40297 -74.41841 -74.83153 -70.37618 -73.85257 -76.83265 -87.84650 -86.89996 -84.41207 -84.76498 -85.64640 -92.24579 -88.01285 -84.99859 -87.68771 -96.81334 -104.40647 -105.21729 -100.84232 -97.75049 -101.09619 -103.99860 -106.90357 -108.32303 -111.24309 -115.47192 -118.32353 -119.32258 -120.92771 -122.47698 -123.81988 -124.48171 -126.26377 -126.52203 -128.27296 -129.81736 -131.60616 -132.14278 -132.94009 -136.07999 -139.00379 -142.80749 -145.82637 -147.78346 -153.62234 -157.59930 -160.83282 -166.38081 -227.92833 -305.63525 -490.72228 -648.78154 -765.26304 -790.69597 -805.56901 -777.06041 -720.17009 -685.62105 -648.53879 -533.10627 -499.84281 -450.32687 -430.93140 -424.75670 -422.88765 -414.15983 -416.22918 -424.68829 -441.77951 -461.63730 -467.73035 -500.82710 -549.01272 -623.00907 -637.40490 -637.50490
454.69469 454.79469 388.94882 302.27539 284.61287 239.77834 204.47773 173.60759 172.90660 213.40062 279.43042 365.69963 371.99904 350.21002 351.04041 372.01103 411.41715 471.64101 516.29544 528.66104 491.16818 418.44842 392.90815 348.69150 337.69807 357.18103 370.05746 350.29815 353.87917 415.36808 384.49275 350.16110 288.03327 274.34218 192.89927 98.48556 78.44765 121.99535 151.58454 144.81917 109.28547 109.92332 80.16168 101.03090 115.23554 106.32750 82.99523 42.43603 8.66829 6.58381 -11.10736 -27.33069 -25.98037 -33.74457 -49.67346 -55.44377 -59.43220 -64.16483 -68.22739 -68.15679 -63.94482 -58.96556 -59.35995 -63.77912 -63.75317 -73.83607 -84.84159 -90.15025 -85.72895 -86.01797 -87.41030 -88.47446 -89.18891 -88.62095 -88.58226 -94.68124 -101.71744 -103.61006 -101.02241 -96.35021 -99.52250 -102.99824 -103.76770 -107.08486 -110.95114 -114.30174 -117.84661 -119.10656 -120.56151 -121.43956 -123.34274 -123.70768 -125.05352 -126.22274 -127.10556 -128.25207 -129.50042 -131.56716 -131.36118 -134.80519 -136.91149 -141.96738 -142.27702 -143.24109 -149.97450 -154.74951 -158.00552 -162.68042 -220.59662 -368.65526 -532.98575 -600.56509 -756.34122 -763.83679 -764.24085 -759.68915 -701.31818 -670.93007 -568.86220 -537.92026 -479.67197 -430.62155 -409.62480 -387.65934 -391.64656 -398.21080 -404.81128 -422.92125 -424.21673 -438.73437 -455.14268 -491.63067 -514.98515 -567.77218 -590.07063 -590.17063
471.96213 472.06213 405.77297 283.32183 266.77365 189.77382 154.03886 152.86436 172.12242 227.80824 246.63326 322.88832 318.66287 308.09329 304.34702 314.73819 422.14528 462.50447 505.17298 513.22874 474.39400 413.67495 382.18320 296.30798 301.92876 340.29845 376.18930 391.64178 409.27496 432.10462 430.59747 349.30641 238.27374 207.09817 130.69444 61.86930 53.37742 54.71931 59.17088 80.18882 59.31777 61.60123 31.55492 46.65635 51.14969 47.05655 27.20589 -16.03445 -26.76044 -31.71466 -34.00087 -33.69384 -22.66240 -32.15309 -45.55479 -57.36110 -58.65673 -62.42115 -66.05650 -60.68258 -55.04606 -49.26647 -49.62247 -57.86460 -62.86602 -72.16649 -83.00741 -83.54993 -80.56297 -76.35905 -77.43934 -84.42913 -92.92426 -91.74230 -91.82725 -95.73774 -100.78225 -102.52340 -97.24562 -95.18630 -94.61203 -100.71090 -103.28804 -105.73872 -110.38107 -114.35801 -117.58655 -118.23117 -118.96391 -120.32631 -121.73007 -122.53023 -123.77148 -125.28213 -126.19515 -126.82393 -128.06396 -130.44371 -130.77227 -133.70386 -137.08402 -140.19555 -139.99590 -142.00968 -143.63375 -149.78216 -156.24114 -161.02581 -250.82646 -327.90225 -499.49296 -623.92519 -678.01390 -721.95637 -645.70901 -718.78382 -597.49146 -581.55930 -500.66412 -454.54373 -437.47951 -391.29899 -373.58006 -363.86143 -363.81767 -371.03114 -388.37697 -404.31091 -413.95191 -436.31315 -452.63126 -473.21503 -497.26575 -531.35713 -558.64617 -558.74617
480.40165 480.50165 418.29509 289.52522 223.85605 188.61383 135.30564 113.38340 153.93145 196.50828 218.79381 246.03366 238.72082 246.06709 254.44547 304.10123 347.20366 445.07943 463.37568 443.38297 416.78142 368.87365 311.65965 270.83339 258.37141 284.67795 354.62965 366.52978 406.12915 430.43135 439.42811 411.24120 317.98683 188.98413 135.45311 65.21609 39.90301 22.25430 34.86859 51.34158 46.05343 22.40333 19.93653 18.51821 38.37034 3.78957 -9.99394 -17.05331 -36.19762 -47.44791 -47.63346 -42.31765 -40.12459 -43.53392 -56.65666 -50.75461 -46.67077 -52.30294 -56.45856 -58.29970 -49.89044 -46.75216 -45.48070 -52.24162 -60.03720 -67.31551 -75.26147 -76.04524 -70.08256 -69.49625 -69.82820 -76.15410 -84.53099 -92.81102 -98.05967 -96.87662 -98.46722 -99.50633 -94.96003 -91.58146 -94.59464 -96.72949 -100.05837 -105.97517 -110.16893 -113.48120 -116.15803 -117.78258 -118.52559 -118.87731 -120.44202 -121.46612 -123.31304 -123.37775 -125.02146 -126.65920 -126.87491 -128.31183 -130.10373 -134.31714 -137.32731 -137.97960 -137.67309 -139.79256 -142.04581 -146.55188 -151.86183 -160.15341 -233.91574 -297.80490 -353.57626 -484.84394 -561.43585 -603.26005 -574.95943 -469.49527 -516.24679 -407.38436 -409.21258 -349.61113 -372.81935 -356.04266 -329.58799 -333.21963 -347.67118 -357.39238 -384.00607 -394.83250 -411.41438 -434.30886 -453.00231 -476.87268 -504.25854 -560.47770 -549.40679 -549.50679
524.09131 524.19131 442.20488 294.52654 265.34475 168.65618 156.51615 119.59912 141.79819 101.02802 142.62912 168.66504 180.78241 166.37444 226.82215 265.94183 329.59241 345.08876 331.32653 315.11190 301.81737 293.02903 236.11425 200.08097 193.98767 264.48510 288.88055 320.72636 363.60874 380.96578 439.57410 392.00019 300.45679 195.87852 151.61950 83.08169 48.23052 14.44000 14.18818 0.75305 -1.85234 -15.07025 -17.49742 -15.01962 -7.25510 -22.62649 -27.81312 -40.38123 -43.37418 -49.35586 -47.06058 -45.93328 -49.09089 -56.25087 -48.78753 -39.26854 -27.72937 -33.43028 -40.05397 -51.48965 -39.81623 -37.21571 -36.34328 -42.46691 -52.83197 -65.02032 -68.19298 -70.35675 -68.64204 -65.71158 -69.64745 -73.34280 -83.01155 -89.77760 -91.59250 -92.65839 -92.12706 -93.49134 -93.05018 -92.29551 -95.09620 -96.68184 -100.62782 -104.98277 -109.80466 -113.07064 -116.00917 -116.42762 -117.60759 -118.65187 -120.17735 -121.28738 -121.66368 -122.63833 -123.88535 -125.26189 -127.42312 -127.90313 -130.43285 -134.55047 -136.40277 -137.07753 -136.39959 -138.17438 -142.93546 -146.29285 -149.84966 -156.11191 -163.56368 -254.48231 -283.46004 -418.15184 -423.44274 -382.77553 -370.24616 -389.19285 -299.50511 -357.31442 -289.57927 -287.30029 -312.41920 -298.15131 -317.39641 -299.35185 -311.44896 -320.11782 -336.40449 -380.56029 -392.41548 -443.37400 -452.97335 -492.86094 -533.59034 -582.27390 -577.96585 -578.06585
526.10830 526.20830 442.39296 299.89627 280.03855 210.67656 180.27753 157.00052 151.29194 136.53008 100.17022 122.71515 117.42685 136.77810 191.24636 214.65065 250.76113 243.89142 258.22094 269.21426 276.01636 245.17219 182.58393 154.12706 147.89250 201.29425 268.19525 294.39974 286.61420 332.09926 389.87556 372.29172 329.70111 213.47855 174.04845 100.27429 120.38907 31.99921 34.95965 22.89893 15.55170 -8.66632 -9.14507 -16.18718 -30.91510 -33.42132 -36.86619 -38.54313 -44.95422 -48.33993 -41.35986 -34.75715 -38.00651 -37.87520 -40.30127 -35.80684 -20.53148 -26.47165 -25.96987 -32.71100 -27.49173 -27.88147 -29.83784 -34.75252 -48.83678 -56.06980 -60.32252 -64.42550 -65.61371 -66.04976 -67.07641 -71.19675 -78.13412 -83.17816 -87.99834 -86.51299 -87.10086 -87.88252 -88.57335 -90.68928 -94.76566 -97.94620 -99.58632 -104.14190 -109.34010 -110.76211 -114.94539 -116.16710 -117.16623 -118.32408 -119.53554 -120.19717 -120.68864 -121.78258 -123.55466 -124.09464 -126.45788 -128.24604 -130.51407 -132.08933 -133.42721 -134.95914 -136.21670 -137.79127 -140.02000 -143.35797 -146.97124 -154.08658 -156.02496 -195.65555 -229.21193 -208.19133 -231.67730 -237.98735 -273.42856 -265.17091 -244.31274 -259.62513 -236.17440 -273.78885 -289.60611 -284.45205 -256.59609 -284.30928 -278.20510 -303.77879 -319.56303 -329.82066 -399.02313 -420.87317 -453.72909 -556.22271 -561.03521 -588.04538 -639.86078 -639.96078
559.44725 559.54725 555.02988 357.32391 302.67745 264.43277 225.07304 221.23827 198.17198 147.69265 125.98448 87.18680 102.50696 116.91632 181.54950 189.18040 224.32552 225.94029 206.55121 231.47928 277.60135 256.41431 187.29168 139.25141 117.15721 159.98153 207.25478 203.72502 208.66513 292.15995 372.35183 358.07044 354.89200 284.15863 203.13584 205.72199 242.12223 159.82579 119.27745 97.05335 95.67382 56.97760 11.24628 5.83500 -6.74025 -28.34548 -25.37816 -26.32134 -31.17688 -33.50359 -3.32759 -9.28643 -11.29971 -29.39448 -13.93924 -7.06312 -16.73682 -8.24722 -4.16892 -13.37960 -23.60458 -21.43390 -21.54625 -28.81339 -43.80509 -46.58794 -54.08638 -58.16814 -64.00684 -64.40765 -67.71151 -71.18628 -74.77111 -81.94480 -82.75290 -87.13945 -89.42746 -88.27481 -90.79453 -91.07626 -95.07426 -98.69250 -100.53308 -103.92592 -108.76088 -110.97525 -114.32632 -115.38548 -117.07012 -118.07971 -119.02123 -119.96895 -120.16920 -121.67949 -122.74205 -124.46159 -125.79780 -127.62767 -127.78958 -130.55300 -131.90517 -132.59178 -133.02945 -137.07790 -138.07591 -138.19482 -145.11786 -149.56685 -151.07758 -183.41975 -190.74910 -188.60215 -174.61960 -204.26713 -203.67042 -229.41223 -207.14334 -205.45028 -215.73130 -223.45494 -248.68742 -225.98610 -238.36789 -230.89637 -261.44819 -266.41272 -290.88804 -319.63504 -382.77059 -418.28603 -491.26046 -561.78828 -632.88353 -699.30897 -711.99265 -712.09265
