442.39515 446.53485 337.97411 142.60867 34.85956 6.05065 25.41106 61.09799 61.13265 24.69238 1.25038 -4.94899 -36.79914 -86.92624 -95.00693 -92.56053 -99.16410 -112.62125 -127.08838 -123.60571 -101.45632 -88.80250 -85.19379 -95.31719 -89.76470 -89.08127 -106.64440 -115.94152 -127.43905 -120.61466 -104.87445 -116.26385 -117.68161 -116.18546 -115.46125 -127.64010 -121.96750 -129.55546 -131.53949 -134.98273 -128.82482 -136.05529 -146.58137 -148.91503 -155.98058 -150.05235 -153.28285 -158.48952 -159.72929 -162.94529 -168.34894 -172.48528 -176.08690 -168.43384 -163.14761 -160.52586 -155.83227 -156.92842 -159.57406 -171.79849 -171.39600 -166.82629 -168.03194 -164.26965 -162.30644 -165.94701 -165.85671 -161.32287 -161.20759 -167.37505 -162.50419 -165.50157 -167.40487 -167.78185 -162.48036 -163.43202 -173.86880 -169.87082 -177.61443 -173.48163 -176.96829 -169.97071 -175.44758 -176.13827 -173.20804 -174.67607 -176.53210 -178.35374 -173.62990 -176.64915 -183.17360 -185.09758 -198.22762 -251.80103 -345.55660 -556.06469 -852.37663 -1196.22982 -1449.19277 -1566.32439 -1597.40458 -1665.13405 -1703.42944 -1748.09422 -1813.83323 -1877.63533 -1921.54447 -1916.90178 -1951.89121 -1971.75104 -1973.10331 -1973.22173 -1969.21056 -1972.00889 -1970.41325 -1983.36693 -1990.62275 -1997.30568 -1998.89343 -2011.37094 -2019.15584 -2032.13348 -2032.69681 -2032.62019 -2022.37196 -2020.09490 -2022.52777 -2022.52869 -2022.27839 -2027.00460 -2044.10165 -2051.65433 -2061.68862 -2085.49693 -2099.10485 -2097.39928
408.95870 401.19593 298.31575 169.68483 125.88970 65.00541 60.08265 108.94568 93.59046 92.12880 52.43492 -15.27483 -54.63141 -71.27291 -64.04271 -76.70976 -89.15950 -109.02451 -127.27996 -121.91943 -86.98459 -79.96850 -71.57005 -71.78703 -76.42960 -80.10300 -99.10464 -102.20999 -97.38518 -105.26436 -97.84429 -101.90390 -114.11852 -119.27884 -120.58351 -120.52146 -129.57555 -135.06504 -141.91917 -135.86364 -141.40913 -142.77940 -152.72387 -165.46440 -165.47818 -165.19088 -160.34551 -158.14807 -160.93764 -160.04334 -167.22175 -168.27494 -171.98608 -173.45915 -168.16939 -158.83043 -160.52237 -156.56690 -163.33289 -165.91744 -167.65167 -166.11699 -166.34401 -159.75269 -158.11872 -164.08239 -165.06916 -164.09100 -156.56257 -161.01658 -163.30338 -162.87335 -167.70636 -163.11706 -166.16011 -169.96179 -167.32643 -168.97015 -167.77795 -177.14395 -172.37839 -174.69830 -173.82194 -174.49229 -173.61051 -173.39901 -177.78297 -175.15777 -179.44282 -180.33113 -186.96554 -193.22131 -203.76662 -264.15675 -334.88131 -576.57453 -1038.21640 -1335.73769 -1463.19917 -1600.92899 -1633.39598 -1677.79488 -1730.25237 -1764.79356 -1816.77356 -1867.12698 -1898.68721 -1946.96178 -1963.21197 -1981.08888 -1987.91879 -1986.20525 -1984.13986 -1983.55883 -1988.44889 -1998.00234 -1999.61257 -2007.40779 -2009.84885 -2033.00701 -2036.24570 -2037.82277 -2037.40620 -2032.02513 -2033.33398 -2029.42590 -2020.61214 -2027.67561 -2029.29377 -2038.67546 -2037.55646 -2055.97894 -2060.04920 -2089.38494 -2083.98512 -2088.49195
398.55356 403.75270 329.06335 205.82917 135.86290 145.14270 133.65063 115.89963 133.62148 110.74549 81.51370 -4.48352 -30.47053 -45.16386 -44.57170 -66.39199 -72.59933 -117.12271 -121.91892 -95.49059 -80.46796 -61.27827 -51.16225 -57.05079 -60.19348 -78.87046 -83.02095 -91.36801 -82.49316 -79.23445 -83.90414 -99.16849 -109.86121 -117.72120 -117.25065 -123.07955 -139.32909 -151.03675 -144.78099 -143.01643 -144.42882 -157.22462 -163.38685 -170.20725 -169.67751 -170.53264 -165.60312 -155.98214 -160.80223 -159.80902 -168.22178 -170.65170 -168.91346 -161.87761 -158.53760 -155.41991 -151.12229 -157.19600 -161.91111 -159.78264 -156.95946 -155.99088 -159.01506 -158.92524 -160.91937 -158.91590 -166.36447 -166.42792 -165.11971 -167.39264 -168.94058 -163.79900 -165.82428 -168.01703 -164.68244 -175.73515 -174.06487 -170.02703 -178.70960 -172.91704 -173.14652 -174.83062 -167.28032 -168.69883 -171.20752 -175.61236 -175.38625 -179.77987 -180.41474 -181.69333 -187.55843 -200.65230 -199.21546 -298.48041 -347.71116 -661.65960 -1026.64305 -1339.57509 -1465.85167 -1603.02129 -1649.24440 -1664.96265 -1755.21596 -1770.15968 -1804.06429 -1854.11041 -1892.36432 -1939.89439 -1969.92625 -1984.70144 -1986.95109 -1988.48306 -1994.93810 -1997.72427 -2000.58078 -2007.59868 -2017.12773 -2010.88511 -2034.85795 -2041.85425 -2041.20284 -2043.72993 -2041.55239 -2040.67153 -2032.42666 -2035.03615 -2033.01192 -2035.29749 -2029.49431 -2036.58583 -2045.85915 -2049.14346 -2061.27524 -2072.48866 -2086.62622 -2085.44836
389.20635 394.23688 324.47030 211.68429 166.56588 161.35068 172.38736 157.92150 153.82983 122.26267 73.12894 43.53126 -23.09062 -32.54424 -48.43521 -71.38661 -87.53632 -108.97331 -106.10692 -72.26074 -53.23855 -55.98142 -45.92516 -50.05496 -64.67833 -76.77737 -82.99262 -80.22605 -81.32555 -76.65151 -78.25935 -87.09551 -103.76214 -113.76297 -130.05831 -127.73778 -148.00217 -152.91200 -151.71205 -145.90117 -150.77564 -153.64814 -168.49163 -170.55291 -174.94901 -171.33033 -169.73337 -157.26897 -158.74761 -158.49422 -167.53587 -178.51686 -169.00707 -162.71638 -147.74250 -146.59033 -148.61396 -148.66313 -154.93123 -149.85956 -154.60293 -153.63579 -150.97728 -156.98594 -158.81728 -163.57516 -168.39813 -168.18800 -168.92040 -164.20058 -168.05787 -173.13070 -168.53961 -168.07960 -171.80468 -175.12737 -175.77664 -175.19376 -175.24248 -173.72814 -178.94094 -176.27051 -174.52080 -177.66130 -175.50091 -176.83982 -175.80341 -177.64192 -180.91985 -191.63330 -195.93052 -206.53247 -251.95359 -331.60061 -563.33119 -893.42679 -1011.75201 -1320.33002 -1479.87422 -1587.74738 -1621.79762 -1678.35309 -1711.69477 -1779.05907 -1804.89424 -1851.53641 -1888.67332 -1916.31749 -1961.55841 -1982.15094 -1992.18654 -1994.62068 -1996.05634 -1996.40491 -2005.78258 -2011.91885 -2017.35721 -2031.71476 -2035.64112 -2040.64524 -2043.04493 -2048.45893 -2045.23832 -2040.53403 -2038.54083 -2037.93811 -2032.75971 -2034.34956 -2033.70791 -2035.92279 -2042.48128 -2047.77326 -2060.03045 -2075.64341 -2083.40246 -2080.11279
351.84146 356.49404 360.79418 138.07871 137.84064 176.05115 175.71840 177.93808 160.54250 133.72000 110.64700 65.73410 23.05461 -28.53555 -60.33506 -82.72033 -95.87583 -103.13423 -88.29485 -59.63332 -42.93784 -52.84031 -52.38042 -57.52524 -71.91205 -78.05721 -80.98306 -82.54661 -79.25953 -73.07135 -88.33349 -96.61288 -122.08685 -124.57620 -132.14665 -144.83437 -149.40075 -159.32821 -156.16284 -159.37614 -153.67640 -156.23417 -171.95843 -167.31497 -172.93213 -173.37776 -171.84946 -165.48897 -163.65346 -170.40211 -176.27788 -170.53729 -162.38200 -160.27246 -149.76552 -145.81276 -142.83917 -151.66387 -150.39081 -153.20108 -152.62828 -155.78931 -157.98717 -159.97162 -160.16431 -171.71774 -174.34596 -167.30364 -172.61935 -170.77722 -170.46256 -169.27282 -174.25401 -174.83060 -175.99121 -174.13674 -175.15149 -176.25519 -178.53305 -174.00212 -175.68861 -171.33929 -176.65478 -173.68975 -172.74185 -176.38176 -176.39124 -181.69892 -179.67234 -186.63319 -198.28097 -227.54585 -286.85205 -343.13637 -573.33046 -897.83645 -1205.27590 -1327.43578 -1488.87894 -1532.85418 -1610.07903 -1667.24904 -1681.66380 -1751.31660 -1812.29550 -1843.51225 -1866.03201 -1920.82193 -1945.24075 -1966.54520 -1994.21338 -1990.50951 -1998.56214 -2003.26025 -2004.45176 -2017.24824 -2025.38819 -2029.56237 -2038.59082 -2042.29570 -2049.44208 -2051.21822 -2047.59545 -2044.86174 -2039.77036 -2036.22169 -2035.01094 -2032.94069 -2032.10856 -2040.28744 -2046.19399 -2050.20908 -2054.73627 -2080.34706 -2082.00035 -2080.26862
328.27441 327.96198 247.36335 156.94211 126.35136 157.36776 176.30873 164.25521 158.12124 152.15482 149.95282 113.27492 28.62902 -29.24534 -50.97887 -78.09574 -89.84498 -87.07496 -55.76434 -38.88493 -46.47737 -53.05864 -60.08049 -78.59287 -89.58628 -96.33753 -85.68879 -81.57305 -89.56990 -95.85578 -101.69879 -105.74657 -122.85423 -138.09141 -152.97123 -159.77290 -157.68646 -161.39006 -162.67894 -163.78821 -168.05091 -168.57806 -171.68864 -163.13739 -165.56740 -165.73752 -171.03303 -171.75996 -169.59166 -173.22363 -171.49762 -176.97317 -169.69397 -160.27080 -152.83317 -149.75169 -146.92053 -143.66581 -145.76211 -143.94949 -152.39249 -156.56889 -157.71691 -163.70775 -164.00215 -171.44190 -171.62308 -172.62607 -177.01578 -173.56662 -171.91824 -176.34872 -175.20686 -174.88232 -174.44554 -174.51666 -169.38576 -171.42022 -175.12552 -175.55844 -173.13304 -176.41750 -167.90082 -173.69821 -178.17920 -174.87419 -173.34972 -176.25221 -180.19292 -189.77724 -196.65051 -203.94867 -309.01020 -334.24959 -544.15846 -680.72184 -1199.97966 -1257.87489 -1394.91106 -1512.45445 -1569.84258 -1617.45018 -1673.05606 -1717.52668 -1776.43372 -1833.80564 -1848.70791 -1885.47939 -1931.63424 -1959.45435 -1969.93796 -1992.10278 -1993.53024 -1997.76832 -2004.00078 -2007.06764 -2021.89790 -2027.34306 -2033.29242 -2040.55713 -2048.17263 -2045.88124 -2048.46312 -2043.06732 -2038.14263 -2038.97335 -2034.80668 -2035.19161 -2035.80239 -2038.03891 -2048.34124 -2055.90987 -2059.42187 -2072.33317 -2086.59823 -2082.38639
330.17236 328.03730 218.99753 172.84229 79.47668 63.34249 112.23486 125.32174 152.96585 148.65807 142.89187 100.27576 45.38608 -23.70456 -36.57579 -61.58338 -61.28955 -46.93113 -38.16904 -49.19978 -45.52755 -52.84094 -66.22125 -94.42148 -104.01031 -106.76644 -101.71746 -94.55875 -100.24541 -104.11279 -125.83923 -121.63060 -121.48153 -139.13465 -147.23132 -156.52636 -161.16053 -168.06094 -154.11352 -151.43140 -154.76345 -155.62146 -159.25983 -155.84205 -162.34998 -165.38884 -173.63330 -174.50692 -171.46217 -163.39344 -174.82245 -165.27576 -169.45872 -163.03442 -154.37469 -148.22313 -144.84129 -139.10713 -145.34971 -148.25802 -151.72700 -161.50689 -165.03955 -166.88138 -165.07909 -175.06409 -175.96009 -174.39075 -177.25186 -179.44145 -172.97071 -171.34419 -171.04976 -169.69869 -169.62714 -165.14362 -173.49950 -168.62351 -170.03160 -173.20337 -175.42670 -178.06987 -172.25604 -178.77046 -173.43462 -169.78097 -172.92641 -176.58329 -177.28582 -187.33048 -195.03021 -202.98799 -263.49098 -336.19563 -443.87872 -750.21383 -1060.41115 -1249.33343 -1361.28184 -1431.37007 -1515.22967 -1557.06247 -1625.93075 -1677.07130 -1715.83831 -1763.51845 -1818.38191 -1841.87216 -1900.92321 -1925.83679 -1968.70754 -1991.23402 -1991.66811 -1996.99155 -2000.24180 -2007.29456 -2010.46968 -2017.40610 -2022.30849 -2039.11936 -2040.87581 -2043.24268 -2042.32525 -2043.06255 -2038.16188 -2038.17290 -2038.73410 -2039.60679 -2035.66507 -2037.13421 -2048.20444 -2058.77202 -2060.16613 -2081.56075 -2083.12613 -2081.39262
236.45641 234.28014 250.18448 57.27899 37.93715 35.62632 81.69224 116.70254 133.73672 143.67300 147.59194 105.24620 58.97258 24.44255 -29.93904 -3.49859 -30.01692 -34.39530 -38.59855 -57.64777 -64.25107 -78.53546 -80.27643 -119.23747 -117.56044 -123.26817 -105.76191 -90.66949 -98.79777 -127.36810 -131.07016 -132.28355 -137.88150 -142.00287 -155.40396 -156.76047 -171.73752 -159.61033 -153.42511 -138.93301 -140.29891 -147.69787 -152.96086 -154.45083 -155.03457 -157.20370 -176.94696 -170.16081 -167.57484 -160.80967 -158.71516 -162.59820 -164.96405 -157.80542 -160.04155 -150.07316 -147.66871 -141.21194 -143.77371 -149.05741 -149.63090 -158.54694 -166.90918 -165.20756 -172.47404 -168.94044 -179.44508 -168.85242 -172.77345 -170.98497 -176.19088 -171.90008 -166.15587 -168.89571 -169.91044 -170.14679 -170.25443 -168.73625 -165.72660 -167.52351 -172.31649 -176.25427 -170.59764 -175.62787 -174.43574 -172.70649 -174.66547 -177.47391 -176.59474 -179.26020 -191.13617 -193.84405 -233.92302 -376.86382 -492.11278 -743.08995 -972.88203 -1172.94082 -1289.97445 -1335.98340 -1415.09982 -1528.78514 -1555.65997 -1600.29151 -1704.54572 -1734.23528 -1757.42270 -1840.13705 -1866.37737 -1912.25996 -1926.21011 -1972.31351 -1983.48195 -1994.55327 -1994.76145 -2000.68591 -1997.30146 -2018.69865 -2020.02967 -2024.09995 -2029.38378 -2033.88291 -2037.31492 -2034.72595 -2036.79972 -2034.17797 -2034.13248 -2032.54916 -2038.67422 -2040.01967 -2049.15606 -2047.54121 -2062.36209 -2083.82950 -2086.45550 -2085.37681
200.04070 202.20409 117.55113 47.82789 2.47020 39.09730 79.66442 115.06485 127.91553 129.57117 131.52481 139.08809 109.08516 92.58478 51.60838 15.44404 6.07134 -9.90292 -53.27492 -68.07812 -70.22598 -88.03317 -104.57820 -98.99124 -120.71766 -129.69743 -117.59240 -113.53369 -114.70027 -114.98614 -149.89686 -148.36658 -144.05583 -164.73485 -167.71450 -161.01061 -161.30673 -152.37126 -135.08158 -138.05796 -139.01091 -150.40115 -162.97057 -156.30514 -151.86095 -155.42310 -164.72359 -163.78944 -160.00403 -156.72894 -151.68754 -160.76816 -154.43188 -158.85272 -158.73637 -162.73384 -156.64010 -154.09693 -147.14148 -152.22991 -154.06143 -161.79407 -169.04811 -170.95004 -173.83818 -172.90693 -170.94797 -170.80874 -165.22413 -165.27158 -175.33692 -169.52588 -168.73403 -168.86342 -174.49230 -168.23149 -165.66952 -168.07414 -171.12907 -170.42998 -171.56004 -170.28267 -175.83370 -174.05431 -171.02268 -172.51487 -176.10360 -177.75318 -175.29067 -182.30751 -184.39069 -191.01869 -196.37071 -378.53394 -503.87349 -662.78763 -920.20453 -1060.60536 -1116.20442 -1304.48013 -1342.29979 -1401.82889 -1477.05138 -1549.41476 -1630.58214 -1666.39061 -1702.10901 -1770.52577 -1860.74179 -1879.17268 -1917.76847 -1938.51730 -1962.80456 -1975.50437 -1984.49729 -1986.52018 -1990.50289 -1999.78878 -2008.04905 -2010.17627 -2023.08881 -2023.79603 -2029.57266 -2034.12397 -2033.15334 -2037.41825 -2034.50654 -2031.34818 -2033.79661 -2039.25367 -2046.95755 -2054.33917 -2071.82481 -2093.02071 -2085.55837 -2088.93603
195.93262 195.54312 105.51076 36.52883 8.15059 46.37125 82.49925 115.69243 115.26655 124.28984 125.35260 121.20014 145.28013 150.55185 86.22581 69.58118 16.60348 -9.51771 -57.63866 -58.10021 -56.11590 -75.02683 -85.50737 -95.11695 -108.60907 -126.04979 -127.66803 -128.84971 -124.95793 -144.16521 -152.54781 -157.84564 -165.87312 -167.80572 -171.52614 -161.64644 -159.76252 -153.74742 -143.58083 -140.59487 -140.07532 -141.12066 -146.29568 -141.59803 -140.23258 -154.90298 -160.18153 -157.05285 -159.21704 -151.35324 -156.31574 -152.91814 -155.91132 -160.28563 -163.05743 -163.77731 -162.60010 -158.82868 -161.83944 -158.48145 -163.44989 -167.23716 -168.08126 -170.13367 -169.63809 -174.60964 -165.84259 -168.13810 -166.53864 -167.14285 -170.80398 -167.78564 -162.88950 -166.52065 -164.61216 -169.95286 -169.99320 -170.99726 -173.71795 -171.71128 -174.79636 -175.92926 -173.61739 -174.49833 -175.61724 -176.49418 -172.99341 -175.20967 -170.15199 -174.58542 -174.24731 -174.77921 -187.67661 -191.92624 -378.45736 -564.59296 -731.15539 -989.68497 -1073.97795 -1223.11651 -1321.51299 -1350.02580 -1411.65007 -1503.18531 -1581.72992 -1597.65670 -1654.89439 -1687.33363 -1790.58358 -1848.65402 -1888.73729 -1932.15023 -1945.04812 -1953.22256 -1956.53118 -1974.16913 -1980.70532 -1997.08133 -2002.97147 -2008.94772 -2016.67726 -2021.57392 -2026.99325 -2035.01500 -2035.10648 -2038.26298 -2036.08371 -2039.48479 -2037.95397 -2042.55064 -2053.94774 -2064.91150 -2064.01997 -2086.87442 -2098.57393 -2093.67622
145.29914 142.85592 153.23098 -19.12611 -27.01890 11.36385 53.92431 66.14345 87.30280 89.99630 117.31849 132.32782 142.18144 134.89448 104.79239 85.62932 39.28830 1.55518 -35.45613 -30.52689 -53.19996 -70.15427 -82.03559 -89.14779 -102.46592 -124.71164 -143.26598 -140.55529 -133.48207 -150.27587 -162.10727 -165.40732 -166.10831 -166.05676 -161.17109 -157.17987 -152.89785 -147.49442 -134.82504 -123.01625 -121.34887 -122.42319 -126.28156 -130.48961 -138.37227 -145.35543 -152.74261 -158.52897 -150.79599 -155.21103 -162.10480 -155.32113 -159.86604 -168.80488 -168.61899 -170.58814 -169.11562 -166.31162 -166.13331 -160.55333 -158.48335 -170.85396 -173.69708 -170.63464 -169.63013 -172.85129 -169.33252 -166.74224 -166.64403 -165.82137 -161.60159 -168.56752 -163.29684 -166.60500 -166.90000 -172.96402 -171.48314 -175.66418 -170.60814 -174.13403 -169.86166 -178.60964 -172.73911 -171.51486 -170.54654 -175.00998 -174.72516 -173.37909 -171.77204 -176.44288 -173.98371 -177.18812 -175.52178 -185.97934 -281.31985 -376.58962 -685.46259 -818.40952 -1062.96170 -1178.37095 -1253.74019 -1301.91396 -1382.51660 -1386.08543 -1422.65414 -1539.90227 -1579.69927 -1589.45118 -1699.97082 -1801.38473 -1815.93805 -1877.28261 -1925.53090 -1923.85492 -1950.41460 -1952.32872 -1967.66066 -1988.22194 -1994.28899 -1998.63397 -2014.04112 -2019.23459 -2025.11731 -2031.43508 -2038.01089 -2038.86062 -2045.53306 -2037.29825 -2048.54910 -2057.48745 -2061.94830 -2075.31134 -2075.44661 -2094.30809 -2101.15496 -2104.37531
114.69750 119.85062 70.82018 -13.25360 -32.57132 -29.13251 -4.43954 14.35753 59.58651 74.21798 94.97653 92.41819 99.07252 102.67561 52.95076 46.23301 62.61606 22.54092 12.85409 -19.34898 -48.51086 -88.82860 -91.38244 -105.09499 -107.52141 -131.50687 -149.85617 -142.28161 -141.94902 -149.48682 -144.21584 -155.31412 -164.85185 -165.07513 -151.24131 -146.71959 -127.66599 -121.10743 -122.99541 -113.64621 -110.19580 -114.90981 -116.20471 -121.12195 -134.25124 -137.40774 -154.07487 -152.61914 -154.97531 -158.80329 -156.82868 -164.72850 -169.67784 -168.94868 -168.32170 -169.45476 -172.79673 -166.39935 -167.50144 -166.00945 -167.11389 -166.54521 -169.99368 -174.73090 -176.44708 -171.94563 -169.02683 -163.77030 -163.58324 -160.98207 -157.70376 -159.62258 -165.54171 -164.05806 -167.36334 -172.03068 -170.49428 -170.80339 -174.37078 -170.92091 -175.17223 -174.67009 -173.50534 -177.01921 -173.19353 -173.43164 -173.79828 -176.74584 -177.15267 -173.96284 -177.13983 -176.78579 -182.78791 -184.28097 -304.53056 -350.20219 -673.75964 -961.43010 -1033.59787 -1075.23388 -1168.36672 -1254.59460 -1303.06976 -1314.22427 -1391.36822 -1443.59640 -1464.00451 -1573.78747 -1630.21740 -1662.98155 -1768.11216 -1841.33251 -1855.79244 -1911.26006 -1919.78052 -1925.45366 -1951.58726 -1988.57498 -1983.80992 -1999.87716 -2008.60754 -2020.57983 -2022.29100 -2033.37634 -2043.43330 -2047.39060 -2046.80370 -2049.72031 -2055.41054 -2065.27890 -2071.14176 -2074.67096 -2076.57062 -2098.35939 -2117.00913 -2109.75658
118.07519 117.34386 83.46383 -2.22919 -24.74244 -40.87118 -34.96492 -23.03165 3.93066 17.92592 21.44080 30.06110 17.38214 19.28227 -11.52681 20.59303 53.09761 38.78818 27.71899 -12.74003 -63.05058 -77.54851 -94.92073 -115.30082 -125.69306 -130.15578 -143.19186 -145.20460 -142.22283 -130.10549 -134.89984 -149.53644 -165.10989 -158.18479 -143.05658 -126.10165 -130.26153 -107.24845 -108.18566 -112.92308 -109.14529 -104.51791 -111.07914 -126.81176 -124.88116 -146.61904 -152.29739 -151.66501 -157.52024 -163.81358 -160.66538 -165.24849 -171.91168 -169.95941 -171.80378 -167.96509 -166.69624 -166.04658 -168.32159 -170.05330 -171.98842 -168.74944 -174.68744 -172.62851 -171.11615 -167.55742 -164.67411 -161.19423 -155.93229 -158.81315 -162.07137 -162.90488 -163.72592 -167.19141 -171.42278 -165.74494 -166.32696 -176.28590 -175.09489 -171.80494 -173.89526 -171.15135 -172.12008 -172.58994 -175.51738 -170.84420 -173.41130 -172.95841 -178.08064 -174.78548 -174.61396 -180.35023 -180.11122 -190.51219 -331.18028 -452.33151 -928.88417 -961.93012 -1007.53880 -1085.77381 -1135.72059 -1180.27528 -1218.03401 -1282.22413 -1311.61151 -1355.61840 -1411.01392 -1526.26957 -1570.04699 -1633.24564 -1701.86444 -1758.70300 -1795.03187 -1865.13230 -1906.25060 -1913.78651 -1956.89774 -1964.75742 -1983.87146 -1997.33352 -2014.54124 -2023.92922 -2029.84388 -2034.76422 -2044.42430 -2040.00824 -2050.74615 -2061.02002 -2059.93409 -2071.76817 -2073.40725 -2084.40547 -2090.44671 -2105.40360 -2123.85106 -2122.95512
180.99921 181.47158 97.87198 6.72209 3.77317 -36.39062 -53.50612 -36.23312 -29.46337 -19.13299 -28.04059 -31.50174 -20.99167 -35.56206 -40.98881 -14.13717 40.10224 29.62499 13.84836 -12.67153 -55.79699 -78.38135 -97.78025 -109.21362 -124.08130 -126.54097 -128.26918 -130.44516 -122.63361 -123.87448 -131.05556 -153.81284 -152.67705 -151.19834 -140.90629 -126.96651 -111.28139 -102.87063 -106.28395 -111.43484 -112.66209 -112.04846 -119.22940 -121.18320 -133.05208 -143.98815 -153.15373 -153.70646 -151.37020 -155.45715 -158.58729 -171.13894 -172.65597 -170.06314 -168.79443 -163.95385 -164.14203 -170.48582 -170.47396 -173.09645 -174.75082 -168.71292 -168.65678 -163.15865 -164.23068 -167.51472 -156.87318 -156.41949 -155.58672 -154.04526 -162.95082 -162.83515 -169.17598 -165.25454 -172.05700 -176.49657 -169.89213 -173.53890 -171.90022 -170.62630 -166.07305 -170.90040 -170.41423 -174.36964 -176.57449 -174.81390 -171.51010 -174.50488 -174.13504 -176.45501 -176.75406 -182.14511 -185.37468 -303.77446 -367.54369 -639.76962 -884.77850 -948.32520 -1039.17951 -1085.77245 -1117.56259 -1141.22060 -1145.50821 -1185.42501 -1243.48696 -1325.28737 -1353.17551 -1445.27866 -1478.13275 -1562.23579 -1612.17037 -1667.60117 -1774.88771 -1828.18389 -1857.84795 -1921.10847 -1948.94375 -1967.72646 -1989.07047 -1997.13899 -2026.35681 -2030.51963 -2037.11774 -2036.38600 -2040.81728 -2052.26153 -2062.34542 -2067.31789 -2075.22303 -2075.39695 -2081.23413 -2102.57994 -2104.19457 -2121.86642 -2135.46078 -2137.96580
188.38024 188.80977 110.98983 51.17871 4.78775 -31.41720 -44.57044 -40.85707 -33.89739 -30.07003 -31.38522 -45.78741 -55.45748 -61.74684 -49.75565 -16.72159 20.67720 26.31152 11.14101 -14.92889 -28.19936 -70.10758 -95.93262 -89.22328 -105.82237 -118.97693 -113.87247 -112.61400 -116.77043 -123.51513 -147.86603 -147.51779 -148.36281 -142.10940 -128.20529 -111.79985 -103.66238 -101.54210 -107.83962 -118.02987 -122.69009 -116.85708 -123.09758 -117.90346 -136.08165 -146.58865 -156.50590 -157.75612 -160.53959 -160.96751 -161.65386 -170.94299 -170.31892 -169.91116 -169.18612 -164.13123 -169.33674 -162.50025 -173.87913 -171.25504 -168.39539 -168.26523 -164.52736 -166.42374 -158.81767 -155.69849 -159.95990 -150.85939 -151.05370 -153.04975 -152.06710 -162.54174 -157.38217 -167.02912 -169.78681 -172.30601 -170.26938 -174.69347 -173.27728 -172.55764 -170.66710 -168.11790 -170.43299 -176.90138 -174.54705 -173.85434 -172.81919 -175.13044 -176.99332 -172.14984 -177.63516 -182.12823 -186.70327 -372.58353 -514.61089 -824.57063 -878.26964 -976.77573 -1061.12801 -1089.34377 -1104.54059 -1118.01268 -1126.71673 -1145.72957 -1174.12530 -1215.74126 -1262.88884 -1313.45410 -1424.73352 -1474.97508 -1554.62937 -1638.71436 -1718.09899 -1793.46224 -1843.00204 -1922.14272 -1958.27802 -1965.74364 -1990.04553 -2008.38708 -2024.10862 -2030.94121 -2035.38111 -2042.27027 -2050.76518 -2058.44830 -2071.22517 -2075.77815 -2080.83936 -2081.93518 -2099.26380 -2099.68422 -2116.25474 -2128.81463 -2143.19464 -2146.63104
189.21254 192.22137 184.47888 12.64043 3.99095 -24.63305 -49.24387 -53.46339 -50.78461 -33.39516 -35.10723 -38.76547 -47.24809 -73.27381 -59.99951 -41.45681 5.90045 20.31695 5.15786 -3.31048 -17.43633 -79.65251 -89.20159 -96.27201 -101.27885 -100.04387 -107.36485 -117.41383 -126.75285 -137.93086 -149.88652 -145.53010 -143.59914 -122.71413 -110.69625 -104.66817 -97.98845 -102.11594 -118.98560 -120.41366 -133.07372 -142.01421 -137.59985 -132.76120 -140.03413 -152.70366 -160.97410 -166.02736 -170.50239 -166.51514 -162.38790 -169.12240 -174.50013 -172.21115 -160.43895 -164.21533 -161.00232 -166.12386 -169.07613 -172.51288 -165.74311 -161.69604 -160.54801 -160.76758 -161.17305 -151.83026 -157.57051 -159.23215 -152.89453 -151.00836 -154.57344 -154.56889 -159.15971 -169.54868 -166.57736 -172.49121 -167.06497 -170.84137 -173.42462 -170.31512 -176.21881 -171.49681 -169.10980 -167.97750 -172.00912 -175.67896 -170.21158 -175.76557 -170.85943 -170.96094 -180.66846 -181.58931 -182.86597 -386.95298 -674.13593 -849.78342 -951.84712 -1010.86246 -1068.74017 -1096.21176 -1104.77179 -1106.88195 -1114.95339 -1122.57911 -1165.52250 -1184.00927 -1256.30949 -1275.26510 -1286.22408 -1389.50702 -1461.81339 -1558.33984 -1603.63461 -1770.61821 -1799.60350 -1906.38345 -1944.96946 -1978.61034 -2001.85238 -2012.27904 -2031.04920 -2028.14453 -2044.82957 -2043.55310 -2054.41247 -2057.49308 -2068.42309 -2076.71740 -2086.49641 -2090.88019 -2098.46317 -2107.08284 -2122.02163 -2151.06592 -2153.90934 -2149.51163
176.76714 179.83710 115.68035 26.93312 -3.71245 -27.51647 -54.37334 -66.51187 -57.80455 -53.41701 -35.25249 -39.51152 -62.34001 -77.51205 -69.64971 -39.73572 -32.19807 -2.90777 5.11935 -24.49683 -44.51524 -80.88421 -83.35798 -101.67692 -106.95958 -110.82778 -119.14164 -127.25851 -137.97547 -142.46121 -131.42107 -126.35421 -118.30418 -113.61437 -102.55889 -103.15760 -100.24158 -106.93605 -118.04780 -137.45572 -149.59053 -151.22578 -145.53464 -135.27307 -140.49345 -154.76292 -165.21004 -169.42473 -170.18132 -169.19597 -163.24946 -167.10626 -172.67897 -174.07962 -163.15243 -162.87871 -164.09038 -167.69438 -167.64577 -169.51415 -164.90187 -159.37549 -157.83447 -160.30979 -155.89635 -158.11203 -156.16836 -159.68164 -149.93932 -151.58601 -144.76979 -153.14270 -153.48042 -161.45765 -165.55647 -168.41722 -170.33011 -172.71901 -170.22627 -171.79785 -175.72263 -172.09417 -166.32132 -172.83584 -169.72224 -171.29598 -176.63410 -172.18676 -175.56584 -174.88093 -173.72429 -186.67395 -277.24459 -480.33406 -779.48051 -897.37899 -928.35868 -1060.59457 -1075.25306 -1096.55973 -1102.74697 -1099.39698 -1094.69043 -1106.32307 -1130.25991 -1162.03098 -1191.51894 -1237.21627 -1252.50939 -1315.24841 -1417.79527 -1441.01906 -1610.87799 -1699.48965 -1805.15160 -1846.50331 -1907.71323 -1969.18898 -2008.26442 -2022.42993 -2036.84964 -2039.32680 -2039.44770 -2047.66720 -2049.44460 -2059.79869 -2067.57617 -2073.39243 -2086.77947 -2094.31473 -2106.45932 -2110.55671 -2121.70534 -2156.01261 -2153.94184 -2152.66911
188.56320 189.24138 118.32292 22.84611 -25.74535 -44.93648 -67.90674 -73.41646 -70.59927 -59.72871 -46.10261 -59.08197 -62.26209 -93.49123 -80.45625 -58.89850 -25.20546 -17.22503 -3.37198 -26.22884 -59.63195 -69.77621 -93.10423 -94.67605 -107.48860 -117.90836 -124.26140 -130.12129 -136.38986 -124.97160 -111.12675 -112.80643 -101.50135 -104.63268 -90.59049 -99.00867 -108.44322 -113.90630 -128.87388 -136.42914 -148.46834 -153.65285 -153.77400 -147.08290 -150.06275 -156.85758 -160.24126 -171.05361 -171.23420 -172.27140 -164.13922 -159.97515 -158.76294 -167.40088 -163.94480 -159.61301 -164.58125 -171.85624 -165.55459 -168.79113 -157.79740 -161.65173 -157.31620 -160.43246 -163.04065 -167.57782 -168.41023 -163.23540 -160.84853 -154.89747 -156.93799 -159.16526 -156.49617 -164.26260 -163.10408 -168.24947 -174.63872 -177.75323 -172.22248 -173.79060 -168.76641 -168.87035 -174.29356 -169.96368 -175.55137 -175.47401 -174.42601 -175.45164 -176.66382 -174.71310 -171.29116 -177.53064 -347.96033 -598.44815 -806.72951 -891.41349 -998.92135 -1056.45278 -1087.93489 -1104.58708 -1107.92020 -1106.04005 -1104.62684 -1109.15037 -1112.30826 -1137.55805 -1148.76408 -1186.85146 -1228.75514 -1278.69454 -1317.95478 -1470.87344 -1514.94170 -1697.24828 -1790.49105 -1816.58584 -1889.20155 -2000.78755 -2007.63050 -2018.77417 -2024.56076 -2029.84959 -2026.85753 -2039.29508 -2038.11901 -2053.12057 -2058.82557 -2072.15337 -2081.43062 -2092.45247 -2103.18885 -2102.44484 -2117.83781 -2141.89142 -2156.00251 -2155.66940
174.76593 181.30856 102.22617 23.27748 -24.82539 -69.91341 -70.90993 -76.13903 -62.39489 -56.39434 -65.53374 -70.55838 -89.11414 -100.08181 -89.75614 -38.11910 -23.83091 -7.55325 -9.20190 -22.37598 -30.24539 -59.60736 -71.14805 -86.58518 -92.42979 -101.69046 -123.67939 -123.04884 -113.36565 -105.59686 -102.69364 -91.75193 -92.34350 -97.89414 -103.19922 -105.49839 -115.63047 -120.02825 -120.77404 -131.18318 -145.36896 -156.99627 -166.79235 -160.76138 -171.63298 -165.44076 -166.24029 -167.27866 -169.67204 -171.93850 -164.66316 -154.66009 -154.53256 -153.88244 -161.31416 -161.42701 -162.34269 -168.65446 -162.33807 -159.97056 -164.28210 -162.77680 -164.76579 -163.37555 -170.74448 -169.53846 -165.00943 -168.11486 -156.97152 -155.15472 -160.30601 -162.98833 -165.25914 -167.67242 -167.06725 -174.20080 -174.95773 -169.25217 -173.98820 -172.17539 -172.87082 -169.13292 -174.50667 -170.87673 -175.30494 -175.25556 -177.31326 -172.78893 -174.96109 -179.10765 -178.83261 -265.91344 -349.87890 -595.91376 -766.97098 -820.06778 -940.83416 -1056.02063 -1072.45884 -1103.95374 -1116.14783 -1111.84304 -1112.17262 -1103.92109 -1108.58848 -1112.56051 -1132.23464 -1140.69201 -1198.81084 -1207.92712 -1268.56446 -1430.37210 -1497.19437 -1690.81436 -1773.64649 -1819.98542 -1845.67154 -1957.51353 -1977.80295 -2004.47327 -2004.12482 -2014.02796 -2021.50368 -2029.68696 -2027.94589 -2037.02498 -2056.07918 -2065.75878 -2079.60307 -2088.41636 -2096.12679 -2107.58265 -2118.57055 -2138.66386 -2153.69906 -2156.16205
133.09210 133.95722 71.73637 -14.43650 -33.25171 -56.99340 -73.15360 -90.00122 -75.19139 -82.71436 -66.72040 -82.60738 -89.49763 -104.70573 -79.14140 -38.10351 -18.62796 2.56439 -9.05755 -22.67800 -22.14119 -40.55387 -55.05271 -58.81464 -84.02050 -95.30375 -105.66852 -110.10013 -109.05640 -105.06506 -97.87698 -92.53909 -91.84707 -98.28214 -105.73645 -105.92439 -119.40958 -122.10909 -126.33198 -138.37729 -159.45169 -167.62981 -173.11811 -172.88415 -172.00556 -168.02528 -168.79495 -168.97508 -169.08621 -172.23242 -165.17180 -150.59873 -147.94470 -150.39663 -157.79347 -160.19822 -157.00315 -166.39095 -160.24719 -160.06598 -164.22813 -168.57530 -167.57757 -171.47070 -168.65329 -168.84979 -165.29860 -169.08902 -171.01349 -167.29671 -166.07833 -168.35092 -171.64620 -173.33637 -167.55426 -169.54194 -175.81722 -170.69738 -172.16329 -168.68859 -172.20208 -168.36122 -173.94569 -170.19429 -172.85221 -177.58710 -172.96557 -178.81593 -172.59905 -172.36065 -177.16871 -242.11448 -308.30922 -563.17135 -797.89483 -845.77453 -976.67969 -1040.40722 -1058.95249 -1096.13070 -1108.20332 -1110.47018 -1111.18391 -1104.85411 -1107.51044 -1102.71313 -1100.24333 -1099.46645 -1137.47770 -1158.84640 -1181.49773 -1272.15868 -1514.31290 -1631.47468 -1681.77386 -1754.53159 -1805.27761 -1909.69949 -1949.69564 -1968.41871 -1968.17750 -1990.26847 -2007.33072 -2011.63391 -2020.17273 -2033.11717 -2043.28862 -2056.44165 -2075.35479 -2081.78612 -2088.26742 -2102.63617 -2114.53586 -2125.53940 -2144.48181 -2140.63262
93.22257 98.97377 25.30136 -43.95803 -52.62199 -56.99993 -73.78247 -89.64035 -96.96376 -95.03168 -103.61019 -95.93533 -103.43348 -100.32233 -86.54266 -66.82265 -44.05276 -34.96356 -14.31485 -23.95220 -23.46128 -15.99322 -28.86964 -43.55948 -62.13004 -89.71798 -98.59581 -98.58691 -96.57244 -95.29784 -94.13559 -88.03426 -103.79956 -106.54092 -108.86232 -124.58373 -126.83083 -123.53018 -146.17513 -151.13748 -166.90152 -170.89026 -172.71586 -166.78854 -167.54419 -168.68346 -168.46361 -172.31751 -172.72512 -172.61161 -157.08989 -149.97492 -136.38078 -143.44418 -144.32756 -143.58415 -155.46632 -156.06664 -165.97358 -163.31199 -163.82355 -165.34774 -169.10857 -164.04620 -159.72259 -160.30318 -161.33352 -171.23476 -170.74126 -172.82959 -168.46601 -170.02232 -172.82236 -172.10634 -172.52183 -174.39712 -170.16887 -172.33204 -174.67913 -170.55791 -170.61604 -168.52889 -169.77971 -168.82228 -173.84619 -171.57869 -172.27327 -171.82027 -174.60314 -175.26180 -173.47204 -177.70279 -180.73209 -550.07230 -718.58624 -820.71277 -856.42510 -1011.87048 -1079.85749 -1097.39992 -1100.35384 -1096.68160 -1102.64726 -1100.81433 -1102.68693 -1099.20789 -1087.55000 -1089.22515 -1092.60871 -1109.14417 -1159.55482 -1256.30893 -1410.90286 -1557.30784 -1650.37817 -1715.17258 -1746.03099 -1855.50841 -1901.73834 -1909.86975 -1945.77608 -1934.91914 -1954.63296 -1962.83557 -1997.20167 -1994.69544 -2014.03453 -2048.79229 -2062.94811 -2071.04764 -2091.53068 -2097.07710 -2109.37202 -2126.03871 -2133.66608 -2131.83113
95.44932 95.45829 30.33889 -54.87602 -61.95324 -64.99273 -68.36859 -87.07238 -92.17076 -98.56721 -107.58074 -113.01311 -119.60025 -116.74969 -116.10280 -98.33849 -87.67162 -47.97802 -46.65236 -38.11227 -23.09497 -28.23717 -31.83134 -38.87653 -56.38730 -82.21657 -100.29273 -95.84045 -95.88356 -89.41432 -87.86514 -94.56633 -110.50913 -123.41062 -134.21840 -142.97143 -148.14172 -147.06371 -148.16368 -160.44671 -168.86913 -167.27086 -167.30957 -168.68042 -152.37036 -154.07693 -167.31989 -172.47728 -169.72069 -154.26469 -151.56643 -146.75688 -136.26484 -135.17556 -136.79729 -147.55519 -151.18359 -162.35531 -166.24567 -163.36914 -160.33746 -153.68780 -156.32910 -155.56547 -149.58084 -152.07826 -153.94311 -167.66170 -173.33745 -174.67685 -173.05268 -167.41283 -170.85762 -170.43516 -172.14502 -170.36987 -170.30774 -172.75850 -173.98255 -167.17792 -166.91284 -169.01421 -170.82960 -171.84747 -177.93387 -173.98149 -176.79034 -175.12137 -173.82325 -173.37567 -175.75030 -181.69126 -181.88112 -479.59888 -577.79564 -683.66367 -748.47418 -932.79066 -1073.93924 -1054.28036 -1091.58159 -1086.67511 -1080.54234 -1082.97977 -1066.37615 -1086.80907 -1040.65965 -1047.73064 -1070.25184 -1096.91431 -1131.60558 -1207.98226 -1327.20174 -1472.13852 -1615.14637 -1645.77396 -1725.01292 -1778.03086 -1824.49430 -1851.23723 -1854.28985 -1844.34976 -1858.76897 -1879.50940 -1893.63301 -1943.13941 -1987.47766 -2013.26192 -2044.06515 -2054.16235 -2059.25780 -2076.96262 -2087.82495 -2111.12428 -2118.88108 -2118.11927
161.72149 163.74373 62.58137 -47.99134 -64.28920 -70.00234 -70.01435 -80.04204 -95.05470 -98.63962 -105.14370 -113.53130 -112.89236 -109.16059 -115.50015 -111.19228 -112.93529 -92.14331 -78.67812 -47.51717 -46.72755 -30.63421 -34.33543 -34.91026 -37.26493 -56.19147 -71.40794 -87.38241 -81.20567 -87.44930 -92.46882 -104.16261 -117.67722 -122.65361 -143.13598 -148.91387 -159.71146 -156.16399 -161.95848 -164.85287 -169.71883 -170.29892 -168.55127 -164.74351 -157.97187 -152.56179 -163.90497 -169.12994 -168.37884 -160.47279 -151.16184 -138.91058 -137.00990 -131.52035 -139.44044 -148.99549 -156.66078 -160.36353 -167.44628 -160.98472 -149.70945 -141.64045 -138.99138 -143.68949 -147.14461 -151.27083 -156.45169 -165.67987 -168.48929 -171.58006 -167.20612 -169.90781 -171.05538 -173.97577 -174.33227 -171.06690 -169.61520 -164.55795 -164.42820 -162.49339 -166.62953 -168.10596 -168.88019 -171.87527 -173.78383 -176.22271 -173.18008 -178.84061 -174.63146 -174.47253 -174.32579 -185.98909 -183.47109 -321.68303 -456.07282 -558.26054 -563.74411 -830.72270 -882.31915 -1025.01725 -1043.68922 -1077.73189 -1073.17427 -1049.78560 -1026.32738 -997.98012 -998.63413 -1023.87469 -1041.99217 -1045.15087 -1049.39244 -1070.00656 -1280.61695 -1364.75497 -1473.46090 -1533.01058 -1649.77142 -1731.09572 -1761.89594 -1763.96395 -1767.31156 -1811.15235 -1835.95019 -1872.42927 -1873.83823 -1901.25104 -1939.25387 -1954.66101 -2018.13122 -2040.59584 -2049.62845 -2072.44367 -2081.98621 -2105.76094 -2095.87108 -2096.93904
114.05473 114.20051 64.17980 -48.85613 -58.84845 -59.52023 -50.33834 -73.52337 -67.15736 -84.24361 -89.10039 -94.93715 -101.43674 -97.63473 -105.99132 -115.56116 -123.42284 -105.54399 -80.72177 -96.58649 -63.21445 -54.31401 -36.82613 -34.98337 -26.39747 -37.23465 -67.61790 -78.96827 -86.06560 -107.21137 -118.35013 -120.30043 -124.46147 -127.77661 -135.06355 -155.90794 -163.27827 -160.32919 -166.08740 -170.38247 -166.39162 -157.02285 -163.76646 -163.90173 -155.66059 -152.07469 -160.82616 -160.75960 -158.96007 -157.41448 -153.55135 -145.08653 -139.94613 -135.47759 -137.36969 -154.95681 -160.16848 -160.48090 -167.95887 -153.85069 -145.28321 -136.30127 -132.30699 -132.76745 -140.74378 -145.04725 -156.58445 -161.81319 -166.93395 -172.04879 -172.88533 -169.48580 -170.21066 -167.82324 -171.57347 -166.93077 -159.46202 -154.56508 -159.83159 -165.13187 -167.46300 -166.36836 -167.44655 -172.89394 -171.51274 -173.17328 -174.07871 -174.77520 -170.47952 -175.03340 -175.63384 -178.67500 -186.57346 -315.44862 -445.19268 -488.61045 -607.72366 -680.84979 -850.97792 -934.51216 -946.81652 -1012.49749 -1042.23553 -1021.71592 -981.92012 -981.91998 -924.25085 -910.45211 -907.37198 -922.05681 -993.37560 -1088.68793 -1149.91484 -1294.00979 -1427.16542 -1459.25719 -1509.66569 -1543.39455 -1651.66438 -1733.14528 -1718.43420 -1742.95120 -1727.59678 -1796.35522 -1817.01339 -1864.05102 -1862.37700 -1912.44220 -1995.86721 -2009.91240 -2018.08623 -2037.96011 -2052.95454 -2073.68362 -2077.86659 -2072.69134
199.72362 200.95935 154.79080 -43.70142 -38.00107 -28.09043 -25.45724 -36.32440 -60.19725 -71.57268 -66.26066 -88.30615 -82.43561 -71.40815 -82.04325 -118.52356 -120.42084 -108.16597 -98.20300 -106.40328 -100.87309 -81.23845 -59.36936 -43.83218 -33.92343 -35.35761 -47.81799 -72.14939 -92.03513 -115.57509 -127.06850 -141.79065 -143.84359 -140.52226 -151.34199 -159.99802 -172.85356 -169.27051 -169.76978 -165.21519 -154.29523 -160.41829 -165.22467 -168.25580 -162.80196 -157.55338 -158.21308 -166.40573 -155.42834 -150.17262 -133.43654 -137.32963 -132.59069 -135.75701 -138.19198 -145.87497 -159.45052 -165.31283 -158.25168 -145.73287 -140.69898 -128.68903 -128.65668 -132.52163 -141.54598 -157.08749 -165.79623 -168.97215 -167.07074 -171.93652 -169.62679 -162.98505 -166.73819 -171.14780 -171.79381 -159.97022 -158.50247 -155.76144 -156.68042 -163.05777 -164.41029 -172.29919 -169.43488 -168.58810 -177.37220 -171.88428 -170.12988 -174.51403 -178.72440 -172.31786 -173.93255 -176.22763 -173.81796 -187.24013 -251.13838 -307.37257 -437.31216 -650.56030 -793.93410 -795.89223 -850.42588 -888.39877 -922.75582 -936.52324 -811.08294 -751.95393 -874.44932 -699.22356 -811.54521 -894.67054 -938.37502 -1066.90320 -1145.26657 -1192.23271 -1354.82285 -1412.75150 -1425.73643 -1495.51644 -1534.34077 -1608.48435 -1612.57826 -1634.40275 -1652.26700 -1703.98305 -1712.85006 -1777.00456 -1818.19962 -1828.28222 -1923.32086 -1974.60641 -1997.45725 -2025.79445 -2020.65151 -2035.23777 -2036.75251 -2042.93808
124.35526 129.75420 66.29207 -16.50228 -35.03944 -9.54446 15.16646 9.73726 -29.17798 -50.32286 -62.16563 -68.51953 -73.52894 -72.17289 -83.89566 -114.02877 -128.31911 -125.41745 -114.34841 -115.40685 -112.18291 -85.06683 -79.80176 -63.61047 -54.45303 -35.98397 -41.38877 -65.33852 -98.32293 -118.97001 -130.87065 -141.42906 -152.42480 -155.13525 -160.26428 -168.63065 -175.10113 -168.07820 -161.80815 -150.81720 -144.91609 -144.94782 -159.15931 -162.60726 -159.04547 -148.60044 -158.01366 -155.12855 -148.88879 -136.73120 -130.38122 -126.63785 -122.01529 -134.86667 -133.00286 -144.06571 -147.63925 -151.10711 -149.12376 -140.43088 -129.41310 -126.18944 -125.13432 -131.33813 -144.46071 -149.54094 -151.79700 -154.41755 -158.69010 -158.73478 -154.02305 -152.41280 -160.55417 -162.77385 -161.76157 -164.71656 -152.61250 -157.78353 -152.91119 -162.76025 -163.56078 -170.87132 -171.41309 -165.64123 -167.48286 -176.28653 -170.07186 -178.45028 -172.68615 -167.86723 -174.93083 -174.40185 -178.96447 -186.36489 -189.46775 -187.36658 -376.39039 -507.07435 -651.35992 -778.58748 -741.64628 -724.22362 -715.11187 -636.44550 -438.28880 -415.70767 -382.60429 -608.80800 -653.79625 -668.45579 -880.17951 -960.89540 -1139.76365 -1139.40915 -1231.19162 -1340.24447 -1358.65605 -1376.63838 -1391.95558 -1393.51735 -1471.64354 -1502.95561 -1540.30858 -1607.98188 -1641.48907 -1715.85287 -1737.26907 -1800.78849 -1842.89383 -1907.06978 -1933.47487 -1937.93400 -1973.94396 -2011.84211 -1997.35262 -2000.17709
127.04134 127.32991 53.12457 -33.15524 -1.13677 29.61407 47.92754 45.75937 5.55667 -19.52849 -47.43125 -48.14527 -57.52689 -70.00626 -65.42131 -94.46909 -121.31581 -133.66351 -133.71012 -139.88276 -139.33595 -114.15849 -91.69074 -84.36839 -58.49571 -49.33136 -36.29677 -65.04682 -74.41673 -94.58968 -114.67629 -130.87863 -141.99122 -143.86745 -158.96154 -166.99083 -173.16780 -157.27018 -150.94543 -134.99519 -136.41953 -143.32437 -158.15478 -161.24395 -149.36019 -135.98896 -136.40813 -140.60753 -141.00132 -126.43702 -118.48673 -114.90863 -120.02860 -129.21976 -126.77805 -135.72232 -146.32559 -151.40114 -139.50357 -135.39935 -129.60616 -119.29903 -122.33004 -124.63620 -134.04138 -135.35664 -146.49508 -145.76062 -147.02917 -156.13577 -152.93611 -153.01690 -153.58719 -156.38713 -157.61778 -159.55028 -156.25289 -157.70620 -160.57532 -163.25034 -168.01463 -170.41056 -170.98267 -168.06615 -174.72158 -175.81490 -178.65685 -174.57741 -173.76084 -174.24315 -173.21432 -171.28620 -174.10180 -182.71593 -177.57848 -176.35411 -235.15393 -274.28477 -437.95301 -519.87888 -635.45191 -688.94664 -536.96829 -387.39644 -215.39845 -220.88343 -298.75892 -318.08454 -355.39857 -435.96702 -531.65878 -818.47857 -938.44236 -994.99592 -1174.52011 -1251.09352 -1257.45867 -1326.84551 -1316.65260 -1359.10910 -1384.90612 -1423.91222 -1491.04539 -1496.58176 -1514.34452 -1594.22835 -1699.87415 -1726.55130 -1753.26763 -1774.13708 -1827.44397 -1888.24098 -1899.46877 -1948.79743 -1950.91556 -1951.92879
222.35539 223.72057 107.82223 -9.90195 37.66513 68.92591 68.23847 69.57065 40.98250 -9.68033 -31.13681 -31.48913 -40.97535 -56.18587 -74.05313 -80.73018 -93.44990 -105.46420 -128.52875 -131.19224 -146.57354 -133.28437 -114.19369 -85.19396 -80.20626 -54.67137 -53.21780 -55.91105 -77.46451 -88.00374 -94.56252 -121.38953 -135.03445 -141.40302 -156.02821 -163.74504 -168.99160 -159.06722 -156.88133 -135.41534 -126.37908 -127.33325 -146.60504 -149.23118 -136.13765 -122.78241 -132.00184 -127.63979 -127.63852 -117.67659 -113.62741 -116.09887 -118.61381 -128.84410 -134.01819 -138.42545 -143.34733 -148.12877 -142.10686 -136.03056 -123.24928 -120.07098 -124.12859 -123.90003 -131.62299 -136.65292 -133.67593 -140.23713 -140.99164 -150.81676 -151.84924 -151.88001 -147.51061 -156.38368 -151.46802 -157.96625 -154.49268 -154.81269 -154.99974 -160.42877 -169.46667 -174.41093 -170.40089 -173.66888 -173.37471 -176.55805 -173.11793 -175.40321 -169.09993 -174.25827 -175.96900 -171.25133 -169.02727 -174.96737 -175.96133 -171.35548 -207.97352 -216.79663 -244.92419 -340.08437 -382.53677 -416.67329 -390.86730 -224.12790 -214.42704 -204.58792 -200.99642 -202.62521 -203.92543 -264.01954 -375.34345 -577.02431 -649.29058 -754.71472 -916.56436 -1036.95637 -1220.05929 -1239.52844 -1283.15109 -1298.54684 -1347.55719 -1356.10193 -1387.24208 -1410.85381 -1472.91820 -1467.51765 -1517.74247 -1557.47274 -1614.21278 -1718.46581 -1782.05440 -1830.68815 -1858.63827 -1850.40450 -1896.37397 -1894.16517
184.48690 186.62055 107.52086 30.39061 21.83527 84.72745 95.06357 97.12247 55.32319 15.03452 -22.79051 -17.61938 -42.51389 -73.83651 -83.98229 -76.27695 -82.38842 -94.27935 -109.30136 -125.42406 -142.28361 -137.78027 -132.01789 -105.29112 -91.75340 -76.48335 -66.53261 -70.24851 -74.69706 -90.72039 -97.18800 -114.00606 -138.03885 -144.84572 -155.80048 -166.02137 -173.17520 -170.21790 -159.97950 -143.72851 -122.57822 -128.31900 -136.72157 -142.57389 -129.04578 -120.48306 -118.08820 -113.20134 -113.68729 -114.23449 -119.40403 -121.65991 -131.91442 -141.63246 -147.68477 -147.77175 -142.16628 -147.11488 -142.20543 -137.29123 -120.71726 -114.10784 -122.55926 -126.79902 -127.38203 -133.33373 -132.88731 -140.46007 -147.99764 -148.98103 -149.80519 -153.86077 -146.55952 -154.34253 -162.92808 -161.15811 -158.29985 -160.34179 -159.83470 -168.93702 -166.44267 -176.78987 -172.01537 -172.59606 -172.30274 -174.31398 -173.59316 -170.86955 -170.55151 -168.32713 -168.84525 -168.92483 -171.64689 -167.73078 -174.07545 -177.07703 -180.40291 -173.22697 -196.55690 -220.68647 -238.31511 -233.69157 -227.89976 -221.83988 -205.05887 -186.72470 -185.62378 -187.49478 -190.19899 -200.90539 -306.62182 -397.58916 -413.69761 -479.84741 -808.43387 -997.29583 -1141.23012 -1183.11220 -1192.38472 -1236.01271 -1246.74485 -1263.88929 -1268.30960 -1314.22817 -1326.67228 -1377.94499 -1450.98218 -1466.53573 -1571.99691 -1603.61030 -1682.22834 -1792.23194 -1801.58304 -1844.53837 -1833.32164 -1835.43053
221.25362 217.13208 265.91094 34.88804 59.33055 98.38344 127.45535 130.53017 106.35546 22.42682 -17.82694 -34.79913 -43.98086 -74.49219 -94.98987 -90.60378 -89.31440 -85.79094 -93.18663 -112.28509 -125.55011 -138.24468 -139.12683 -130.37589 -104.40443 -94.24725 -87.75663 -83.26098 -99.23107 -105.19175 -112.93695 -117.24749 -146.41987 -170.75403 -168.55027 -167.90984 -172.46915 -167.64171 -158.58673 -144.45455 -121.98119 -115.23882 -123.98696 -124.99487 -120.84738 -119.21779 -109.48385 -105.87635 -108.88978 -118.74512 -121.85431 -129.53178 -138.41254 -145.28270 -137.07743 -132.73009 -134.53548 -140.21067 -141.65559 -130.70168 -118.70158 -109.17049 -124.27976 -130.30414 -133.47415 -138.04776 -143.19446 -151.29972 -151.00899 -157.53944 -158.06190 -154.57214 -155.41236 -158.83301 -157.24570 -160.47883 -162.84294 -163.75981 -162.55573 -164.74149 -170.71795 -170.15466 -175.47605 -173.66241 -176.60382 -175.33196 -170.71684 -171.35470 -168.64262 -170.79754 -170.22643 -169.44123 -169.41515 -174.79293 -170.45058 -174.52177 -170.82752 -177.62374 -174.28539 -197.20830 -193.91203 -203.32066 -211.51740 -213.05431 -191.18050 -188.90993 -175.77077 -168.45053 -186.64219 -190.04386 -205.48545 -269.30412 -281.88135 -358.99091 -645.99635 -922.44154 -1079.82000 -1093.49293 -1117.33183 -1154.65207 -1172.61746 -1166.42910 -1155.46410 -1223.79256 -1209.80832 -1255.67898 -1317.75881 -1370.07129 -1478.88406 -1520.46309 -1573.27298 -1636.58147 -1711.57806 -1745.95063 -1759.13840 -1762.90313
424.02529 425.39838 253.79200 127.86186 97.88939 137.67032 161.82044 152.64201 126.71187 59.29895 -4.15356 -24.00419 -66.16351 -89.47142 -98.95034 -109.50572 -102.84144 -98.59468 -92.93773 -103.16699 -120.11389 -136.29767 -141.95905 -134.67220 -131.59516 -102.88022 -99.09998 -98.03721 -120.22243 -119.70494 -134.27758 -154.76074 -164.53934 -170.49553 -175.92095 -174.99770 -165.02364 -160.32637 -146.48739 -152.96737 -139.66911 -118.75456 -113.03091 -99.80881 -99.39364 -98.24959 -95.40345 -102.25949 -105.65331 -119.64334 -129.45176 -130.11255 -139.05442 -131.77644 -125.72468 -125.17836 -124.99582 -126.04522 -129.93597 -121.63822 -112.65661 -107.62840 -121.05758 -135.18497 -145.19858 -144.59001 -151.52594 -158.99736 -153.07815 -159.43920 -162.65899 -155.75557 -159.17457 -157.85052 -163.71327 -166.11976 -170.42032 -169.48962 -166.08401 -170.77918 -174.63597 -167.65406 -172.01644 -173.79369 -171.97433 -172.32652 -168.07407 -170.36963 -171.43388 -164.04261 -167.61415 -165.96523 -168.05382 -170.05819 -173.78741 -167.56440 -174.40079 -174.50399 -170.64616 -174.39727 -173.26492 -182.89784 -189.03520 -188.63891 -172.61523 -173.11082 -171.68326 -175.62994 -177.65741 -178.94143 -183.31625 -181.26775 -233.94644 -338.17781 -564.94945 -809.83106 -839.04751 -1081.71627 -1076.01615 -1071.66294 -1084.30639 -1117.97979 -1069.24629 -1103.28522 -1162.60080 -1174.38225 -1177.73544 -1291.05621 -1346.48195 -1394.49386 -1488.35965 -1518.62862 -1605.73339 -1693.39592 -1682.53261 -1681.31329
453.07777 451.39933 364.12684 180.93936 154.71449 173.84437 196.79135 192.64064 147.18417 66.11602 18.76316 -27.43833 -76.53728 -86.30187 -103.57132 -117.09574 -119.58723 -113.08815 -118.81814 -128.43776 -131.60953 -139.56900 -149.52013 -146.93616 -131.21416 -127.66500 -116.70923 -119.55727 -122.03662 -146.34757 -151.13222 -160.98473 -173.34282 -165.58735 -167.84157 -168.48046 -158.22797 -152.67855 -143.15645 -143.56261 -119.11400 -99.58858 -98.90092 -94.82629 -87.99089 -82.57714 -85.30873 -95.16011 -106.10028 -113.99142 -126.41078 -133.65376 -129.65526 -117.40998 -108.43672 -117.93055 -109.33933 -111.61342 -116.71543 -109.55404 -113.50686 -113.64130 -119.86563 -129.68852 -143.05539 -151.52155 -155.06302 -155.66470 -160.62514 -164.13422 -169.69873 -160.29415 -162.79991 -164.30578 -168.86955 -168.30157 -167.63479 -174.08210 -168.93401 -174.54531 -170.08121 -171.95581 -166.54681 -168.42325 -175.37703 -171.12143 -170.15085 -168.14425 -170.34117 -164.26191 -168.55122 -163.56516 -168.28559 -166.67831 -169.42338 -175.92037 -173.15730 -174.01566 -176.02057 -171.79950 -171.26926 -170.66039 -176.96529 -175.10251 -178.05717 -176.59758 -175.07687 -175.42433 -173.37268 -178.36958 -180.57442 -176.96283 -215.68429 -280.17724 -384.60340 -571.43585 -634.75654 -848.26356 -931.30900 -1021.38817 -1017.82901 -1014.03772 -1034.70867 -1048.10413 -1052.95232 -1027.60131 -1025.35874 -1111.57859 -1196.70003 -1251.42182 -1345.46949 -1462.52434 -1461.68896 -1594.86915 -1596.19886 -1593.27848
583.55989 584.33974 421.65453 217.31941 216.90468 244.05501 223.50140 182.45979 105.20647 80.29293 3.85878 -37.99866 -78.12443 -89.67208 -96.73615 -109.79109 -122.89156 -127.57911 -135.72107 -133.14739 -141.42843 -155.74466 -158.65263 -155.84312 -139.15325 -135.39671 -130.78588 -124.05738 -139.63290 -150.11661 -159.42012 -169.76931 -165.18297 -165.75235 -163.36868 -156.90539 -150.71384 -140.44616 -122.28115 -114.39950 -120.57007 -93.60914 -91.56450 -85.77268 -86.18364 -84.23159 -88.33551 -92.29563 -94.65065 -108.89700 -131.78010 -129.63187 -125.31336 -106.58284 -109.33109 -100.05095 -101.50115 -96.16189 -103.74792 -104.60413 -109.30682 -109.86708 -121.35415 -128.76477 -144.85627 -148.63354 -153.43494 -156.40526 -152.54943 -157.71478 -164.15681 -168.59543 -169.63642 -167.51390 -171.45528 -171.29581 -173.94204 -174.62718 -170.51606 -176.55994 -176.24348 -168.39162 -171.67150 -168.14141 -165.88326 -168.53815 -175.02395 -172.87805 -168.44640 -165.20520 -166.69510 -166.73204 -170.77814 -162.48345 -164.43016 -169.67860 -170.85804 -173.80431 -173.97077 -173.79501 -174.06395 -173.85727 -172.53572 -172.74124 -179.17138 -176.07104 -178.38877 -173.81293 -172.17716 -173.37544 -176.40928 -177.23791 -228.33581 -244.98233 -337.22672 -368.04568 -459.48550 -722.70409 -859.34758 -1001.18421 -1011.59048 -992.03615 -968.44011 -973.61722 -976.25511 -997.97783 -1009.66936 -1004.58045 -1040.11687 -1157.25491 -1284.33620 -1346.00535 -1406.10426 -1433.93044 -1512.17854 -1515.08396
582.13569 577.93221 414.35784 324.47386 281.46262 271.09845 235.83277 171.84923 124.32203 26.88679 -6.11907 -49.59717 -58.58005 -86.31985 -99.83986 -106.16047 -114.56768 -125.48691 -136.59908 -145.29568 -151.51333 -145.42989 -159.17817 -162.41009 -163.53125 -147.97328 -136.98769 -140.03792 -144.88997 -160.32712 -161.64916 -163.77588 -160.33947 -153.56576 -160.67978 -135.75098 -134.22964 -118.96801 -113.26668 -100.32384 -97.34382 -92.45502 -86.64048 -78.96536 -79.58959 -86.96433 -82.60274 -98.85547 -101.90329 -109.73730 -119.30008 -129.09243 -116.95361 -111.49510 -94.42362 -95.10038 -96.88824 -93.78898 -89.77529 -99.22350 -110.06829 -113.15093 -120.25836 -129.43546 -140.27478 -154.64012 -156.91313 -160.30520 -163.34094 -157.54225 -164.58032 -166.44379 -167.81975 -169.66672 -171.89576 -170.44739 -170.15411 -163.72022 -169.63097 -165.98720 -170.56161 -167.31880 -164.40258 -164.13261 -160.40287 -161.80089 -164.70167 -162.81873 -168.25748 -165.81777 -164.40824 -164.60206 -165.22853 -175.26633 -173.37259 -178.63831 -172.11469 -174.47384 -173.16058 -170.52783 -172.95679 -171.86765 -171.68469 -172.46202 -177.24510 -175.31330 -174.68599 -171.80378 -174.01290 -172.77410 -176.18343 -178.30933 -181.40743 -185.25233 -263.00045 -477.37106 -495.78264 -683.08639 -850.44468 -966.93501 -965.47320 -972.10054 -932.98407 -941.47067 -896.76075 -914.15896 -917.73843 -931.36702 -1005.68289 -1029.85716 -1134.04890 -1326.07885 -1331.65310 -1427.00847 -1438.49080 -1432.97417
535.12647 535.34337 528.40633 248.46386 261.90807 222.58913 137.99542 119.42010 97.92554 73.13199 -5.03631 -8.29539 -42.72399 -48.75853 -68.28816 -91.28501 -101.50393 -117.99000 -124.61150 -140.73688 -138.89190 -151.39810 -160.24640 -157.37463 -159.78194 -158.91622 -158.35715 -157.58810 -166.15674 -160.66832 -170.11771 -161.84268 -149.47269 -137.25831 -125.79899 -117.81262 -127.58910 -102.48927 -88.88815 -79.57261 -84.65128 -84.46232 -82.20880 -80.84323 -86.45171 -92.61505 -108.68776 -107.97164 -107.94944 -112.53751 -116.66099 -110.34259 -114.96593 -93.93208 -96.17505 -96.54541 -92.86030 -94.27662 -101.24802 -96.57384 -107.52808 -118.26867 -121.28303 -116.94916 -127.10788 -135.86449 -156.43771 -157.99737 -160.41779 -162.99806 -169.59615 -170.11097 -165.24551 -169.06783 -166.00390 -165.83423 -163.37591 -160.89899 -165.49075 -171.19842 -168.89801 -161.62536 -158.28616 -157.31142 -158.47611 -162.61272 -157.66301 -161.93164 -169.60383 -166.10435 -168.85935 -164.19093 -168.95591 -169.89608 -176.15686 -178.82585 -171.09285 -174.27847 -173.17285 -176.78991 -171.37518 -172.05131 -170.07088 -170.36093 -173.41907 -173.49372 -171.67122 -177.19501 -175.29593 -177.66422 -172.53911 -179.08415 -193.94750 -198.82194 -219.50869 -463.51754 -678.94652 -844.57079 -889.45993 -943.37754 -933.34584 -898.10951 -877.11672 -878.94423 -851.88315 -849.38072 -851.12587 -851.57119 -921.71749 -960.76565 -1024.18928 -1140.43569 -1240.17593 -1311.64890 -1359.18318 -1361.98781
485.31140 483.65316 366.74896 235.15316 182.01179 160.66835 75.86769 98.01107 133.87468 134.36229 92.63174 14.02498 1.41844 -25.48808 -43.32075 -69.03393 -71.33726 -100.83934 -109.89718 -126.60553 -133.33896 -135.05575 -134.06785 -164.59577 -159.04603 -166.02827 -171.47427 -161.97924 -163.97347 -166.70557 -163.73884 -156.38455 -150.44242 -130.67204 -114.43359 -93.82528 -98.97803 -87.90450 -87.44200 -72.66872 -76.91328 -82.14759 -81.64968 -86.13774 -91.91116 -106.21259 -107.74081 -113.21514 -110.12341 -108.01092 -103.05579 -107.50222 -98.68556 -99.79831 -94.64716 -98.85754 -105.21757 -103.72435 -109.94949 -106.55789 -116.65513 -118.15989 -115.89365 -121.24109 -123.88143 -138.52663 -145.18280 -155.95797 -157.13654 -162.89425 -162.24631 -164.90787 -156.06818 -162.90469 -160.30231 -160.66299 -165.88692 -166.78589 -164.75738 -161.62479 -160.01919 -165.02902 -153.85005 -158.34213 -157.85176 -157.29782 -165.04095 -166.42712 -167.17493 -173.44426 -170.11259 -167.74871 -173.35764 -173.91868 -173.43158 -171.63723 -172.17250 -176.13942 -178.48515 -176.59634 -175.88730 -176.06739 -180.81889 -174.85322 -177.24683 -178.00044 -171.86405 -176.19812 -177.82113 -172.67853 -170.65084 -176.32448 -181.32606 -203.82063 -293.99715 -458.03499 -746.92436 -821.41787 -891.24875 -913.03272 -904.84579 -884.94063 -860.89852 -820.05167 -805.59115 -805.28807 -813.62425 -836.47315 -870.03556 -888.51990 -920.46219 -1035.10467 -1153.65328 -1263.95266 -1296.95531 -1298.11162
480.38421 472.21054 323.93465 189.22479 103.30408 62.25331 71.48481 85.22575 141.28179 141.95877 89.92618 42.10745 17.58239 -21.66854 -45.48623 -63.32980 -60.73363 -65.40041 -80.30178 -111.38067 -118.12700 -114.92165 -122.08728 -137.19688 -157.01641 -162.53427 -160.74076 -160.96640 -165.37745 -166.77917 -164.49215 -157.81941 -146.91811 -134.97458 -106.05822 -93.05793 -74.07137 -63.28119 -74.65179 -69.23025 -75.84042 -78.39212 -84.94700 -88.88017 -100.94288 -101.88915 -113.73265 -113.71177 -105.92851 -99.90904 -95.81742 -99.41524 -98.95992 -98.31151 -97.97310 -106.04479 -115.78541 -115.61817 -120.59341 -116.15194 -116.15816 -115.85191 -116.97801 -120.14003 -130.21420 -130.24813 -147.45282 -158.70848 -156.57233 -163.37625 -155.31976 -158.35473 -162.85494 -163.17916 -153.97778 -159.70775 -157.64518 -158.50008 -159.03495 -157.72937 -158.38559 -163.02782 -161.28502 -156.47922 -157.66222 -156.15234 -166.82582 -167.18554 -173.74638 -169.99649 -172.81759 -174.08858 -171.04504 -178.17172 -176.28259 -171.63676 -172.62422 -169.88365 -174.58376 -175.26096 -175.65019 -176.42194 -177.52584 -174.55926 -170.66537 -171.49021 -176.75455 -177.69990 -169.61966 -173.28336 -174.71141 -172.26513 -175.62882 -201.90334 -341.58355 -429.27262 -698.80524 -777.44045 -843.97754 -885.39892 -889.14658 -869.62602 -812.65645 -784.45774 -757.72290 -749.15063 -763.73308 -772.34465 -816.53422 -833.21382 -901.69781 -986.35403 -1048.43940 -1251.28600 -1249.93772 -1243.91688
325.31266 327.37527 355.49920 103.87758 94.13986 54.58780 35.33005 66.42005 132.99976 133.65947 89.85658 76.09247 58.54203 7.58172 -6.98898 -40.17879 -27.05570 -43.43601 -68.33158 -82.64077 -87.74429 -93.81058 -121.72291 -135.10102 -144.99699 -145.74001 -158.14759 -161.45268 -160.28219 -159.16037 -158.19146 -149.11829 -133.10043 -132.46821 -108.89188 -80.84641 -62.77441 -63.20178 -61.93600 -65.60836 -78.06014 -80.75012 -84.99656 -94.97629 -107.52332 -99.91740 -98.31784 -95.55296 -85.07735 -83.66489 -94.71288 -101.39576 -100.80016 -102.87593 -109.82406 -118.37632 -119.40036 -125.10474 -127.06687 -125.46913 -125.66034 -123.61693 -126.55295 -127.53239 -131.31956 -147.84554 -157.53931 -163.09218 -167.68019 -160.26310 -164.28073 -167.02639 -162.48135 -164.81818 -150.31336 -150.80048 -156.46197 -154.75373 -162.11891 -160.21358 -154.93533 -162.44823 -162.16811 -156.34953 -156.63796 -161.72183 -167.96384 -170.73997 -175.36138 -176.59958 -172.99725 -170.42410 -174.51753 -179.58703 -174.09781 -172.63559 -170.05804 -172.06755 -172.24315 -170.23397 -176.21199 -174.82817 -174.25429 -176.65626 -175.82930 -176.10057 -175.35600 -175.81654 -174.44467 -171.05969 -175.69783 -175.62818 -177.86034 -186.11332 -278.86994 -391.05161 -521.74406 -703.84302 -793.51485 -823.94321 -852.38987 -840.60489 -812.61328 -765.20206 -739.71206 -730.38211 -729.17235 -719.72136 -752.01611 -792.82870 -870.00726 -963.31499 -1055.37171 -1149.12274 -1207.92718 -1205.44947
275.24807 278.63716 181.41835 113.27930 71.66635 38.76042 23.94793 66.21948 96.26898 91.18816 83.61594 72.26430 75.17947 30.02934 4.21647 -25.63378 -19.20740 -21.16805 -63.66937 -84.92691 -90.95305 -117.71259 -119.57714 -145.84757 -144.26704 -132.31528 -142.84962 -142.01177 -142.39808 -146.75355 -142.55377 -146.20413 -133.23626 -122.83762 -100.63786 -73.50717 -60.97835 -55.38683 -65.61371 -69.38282 -76.42137 -81.46418 -97.03246 -96.30126 -98.58488 -93.34702 -83.92200 -79.64614 -76.96975 -80.02786 -86.24389 -94.82636 -104.47942 -105.51200 -117.22506 -114.54659 -111.32365 -115.99026 -122.11342 -135.19619 -135.09079 -136.53696 -130.21416 -132.44768 -146.66692 -163.35404 -163.67914 -165.22008 -163.42034 -160.00777 -169.90444 -168.99214 -171.52100 -166.23439 -164.38351 -160.35760 -159.90442 -156.93171 -159.36014 -162.31988 -162.27441 -164.77437 -162.86145 -166.75876 -162.45367 -158.21194 -164.24265 -172.48246 -173.77009 -172.20203 -176.71971 -175.68554 -175.08065 -171.92516 -172.94399 -174.32831 -173.00238 -170.59591 -173.12621 -173.11684 -172.57820 -174.44245 -168.94804 -174.14658 -170.63161 -178.58966 -175.37612 -172.14933 -168.81982 -180.15788 -175.87780 -176.14432 -170.36847 -177.09373 -246.30668 -282.02454 -454.80332 -609.44994 -710.93412 -804.08976 -823.81586 -816.00058 -759.30065 -716.66133 -709.77248 -692.04299 -702.47511 -714.27885 -753.06219 -786.08681 -810.86928 -930.61219 -982.96143 -1121.71090 -1165.35572 -1170.34100
273.23063 270.08472 181.84167 85.98457 47.88784 11.45098 22.57370 52.47990 73.25496 71.32294 54.93321 66.15795 67.03073 54.47432 30.06578 -6.32811 -18.55630 -33.62982 -74.90704 -108.26339 -116.75851 -121.95409 -136.71856 -134.14389 -122.12525 -112.84437 -127.93759 -134.35267 -131.88294 -130.09847 -135.06060 -133.67676 -124.72697 -118.00470 -103.39667 -75.89432 -55.84090 -52.91320 -56.05327 -80.43599 -77.56467 -84.21305 -96.79932 -99.49299 -89.65138 -84.41879 -81.24498 -71.84858 -64.13467 -71.99832 -80.64021 -84.92916 -94.73072 -98.15436 -109.40814 -104.94387 -109.31670 -110.40869 -124.69501 -130.41527 -142.15592 -143.92105 -147.07051 -146.04555 -155.16279 -163.86600 -159.96810 -157.22124 -156.32619 -161.39199 -164.28988 -171.83883 -170.66503 -172.16767 -164.96449 -159.00009 -164.10515 -159.71346 -169.89419 -163.31208 -168.14326 -168.81018 -169.98636 -165.55640 -171.52322 -165.37316 -171.88031 -170.43853 -171.00075 -177.45329 -179.04198 -174.33553 -175.77609 -174.45561 -171.82398 -173.58154 -167.02375 -167.98161 -171.70690 -169.73474 -174.32948 -172.81697 -176.56433 -171.27036 -172.67576 -176.99987 -176.33587 -172.75196 -175.75478 -171.37325 -176.79074 -172.42586 -176.23110 -174.94369 -186.09316 -183.10123 -393.00331 -514.62321 -670.40884 -761.43072 -796.11357 -780.24764 -722.84675 -706.43700 -675.07922 -682.25255 -668.03132 -674.93392 -716.73580 -750.60011 -790.49075 -874.06481 -912.35533 -1117.48917 -1121.20932 -1121.51150
338.32515 345.40108 227.41737 101.81764 52.72060 17.43616 5.33598 17.56816 33.99588 31.81989 39.10492 41.59713 53.83219 49.92857 23.49727 -9.54798 -12.25292 -32.51823 -74.49744 -116.07562 -121.02726 -118.32024 -119.39295 -120.65222 -115.23739 -119.45907 -122.00908 -125.21860 -112.61114 -109.74005 -108.64944 -114.66840 -120.63809 -102.17968 -86.60179 -66.01228 -53.85517 -51.14848 -56.84983 -72.29078 -81.12980 -85.93864 -83.31679 -92.26911 -87.71219 -80.29197 -67.73114 -61.82970 -59.74878 -66.91598 -73.91267 -79.82514 -79.73255 -94.13722 -94.28208 -92.58192 -97.71404 -113.44487 -122.96236 -131.30462 -137.95158 -134.21756 -138.30386 -145.28119 -155.22926 -153.03343 -147.45276 -149.90570 -154.05435 -155.98461 -157.76081 -168.50503 -165.03353 -173.86759 -167.03431 -166.20242 -169.01783 -168.21712 -163.27531 -164.08900 -169.83254 -173.59558 -178.06014 -169.22534 -166.74193 -170.12335 -168.95499 -172.78504 -176.54542 -171.22912 -175.02781 -172.98481 -170.67099 -173.72467 -173.69597 -175.06452 -168.20663 -162.83209 -163.70206 -164.90197 -170.20053 -172.08225 -174.90127 -173.99694 -172.74310 -175.02360 -174.69869 -174.02742 -174.03487 -172.41044 -173.66546 -174.64733 -174.88160 -173.78137 -180.75307 -180.90653 -322.56012 -542.70891 -647.30756 -705.45703 -758.68932 -721.58525 -681.91639 -630.18995 -640.74984 -643.88421 -642.53624 -645.81649 -674.97645 -701.45112 -758.03723 -797.17284 -883.09340 -976.33727 -1067.08777 -1064.54962
311.57003 306.20454 210.86946 104.36621 87.63105 32.26684 -10.47742 -11.52609 -20.67217 -0.91727 19.28312 44.17574 61.87311 53.01188 21.42490 -8.04742 -27.88217 -66.52017 -90.04053 -102.32896 -101.67550 -114.29482 -97.91907 -99.24884 -92.28918 -108.63856 -117.11649 -126.91702 -109.58944 -92.33718 -90.38379 -84.89672 -100.56076 -84.26657 -66.94848 -54.20519 -48.77635 -50.84506 -55.56432 -69.05163 -74.87924 -81.80135 -79.82379 -80.23485 -68.69377 -65.91745 -59.61901 -48.82446 -51.27250 -60.27280 -71.77879 -79.50942 -84.67819 -91.24468 -97.72857 -94.77530 -91.16938 -103.31488 -114.37018 -135.28998 -126.94815 -129.70899 -131.36927 -142.78664 -141.11878 -142.44538 -146.37285 -139.64156 -139.79201 -148.72702 -150.08367 -156.89551 -160.35499 -165.41050 -171.56326 -174.41548 -171.69920 -166.72690 -168.49775 -167.18153 -173.82294 -174.07872 -169.17090 -173.80744 -169.77263 -172.88647 -175.53951 -170.34375 -174.38390 -173.80653 -169.33231 -167.28485 -167.03502 -171.12446 -165.76627 -168.60554 -160.14309 -164.91393 -167.47018 -165.06165 -169.82994 -171.69591 -168.49306 -170.73660 -173.10246 -176.12834 -172.22492 -172.01689 -171.53245 -174.33664 -173.18566 -174.97537 -174.99654 -173.34731 -176.50906 -177.51926 -369.67988 -525.25666 -554.10196 -690.44089 -702.21099 -689.05627 -639.99366 -618.68957 -593.92570 -609.04649 -607.59719 -631.35947 -651.82597 -698.48401 -707.58909 -750.09222 -841.07506 -966.65873 -1001.97644 -999.97627
284.60761 281.56057 206.70731 104.45835 89.37494 36.38802 -1.26909 -10.45232 -20.27582 -12.50341 15.43756 58.80666 65.50519 59.96582 49.81923 1.83178 -35.73126 -69.43704 -63.76433 -84.04485 -91.52794 -93.29843 -90.80619 -77.90671 -85.05417 -88.98981 -99.24235 -105.91649 -107.93684 -96.08918 -69.18302 -74.82664 -76.52876 -70.72096 -46.38849 -39.71466 -38.97212 -41.16767 -54.04465 -66.78573 -68.12856 -72.10245 -71.56826 -62.66977 -55.14942 -58.06089 -52.17183 -43.82923 -42.22947 -52.98980 -69.12100 -84.18630 -100.12332 -99.94151 -101.98781 -101.76181 -100.65090 -102.77042 -129.67370 -138.34292 -138.90443 -130.59556 -135.21703 -139.88459 -136.65565 -130.51565 -141.14080 -136.57894 -135.17413 -138.64324 -136.36864 -151.77291 -155.69010 -159.58663 -166.57937 -172.21891 -168.19134 -169.25934 -171.58840 -173.71222 -173.15079 -172.58253 -174.04409 -169.65373 -175.08540 -173.88926 -172.06619 -169.21765 -169.08830 -166.01859 -166.11321 -163.09889 -166.62450 -166.03636 -169.35741 -169.66682 -164.65792 -164.18404 -167.71368 -171.66238 -169.81385 -172.97662 -170.58369 -173.13632 -172.77505 -175.98143 -172.11441 -177.29699 -174.00701 -182.70723 -174.54629 -176.55434 -171.71046 -177.09243 -175.77060 -178.59995 -250.23958 -391.75604 -526.04322 -650.35329 -659.91390 -614.55423 -598.93438 -594.75906 -579.11845 -556.10204 -565.92850 -586.24233 -582.86549 -633.81526 -658.50857 -714.39005 -726.02681 -927.87374 -926.55791 -927.39072
277.47456 274.59408 196.08824 80.94107 45.64762 36.59856 9.14998 -20.02644 -29.37929 -6.77236 7.08391 52.20243 87.05008 75.19743 54.57474 29.35288 -9.64760 -45.64630 -60.14951 -69.23767 -82.58345 -73.73940 -76.24905 -52.65802 -55.66406 -73.14143 -82.96456 -94.32099 -97.56087 -90.32494 -71.75853 -56.40990 -55.55060 -36.57304 -34.84487 -27.63745 -37.65546 -40.70817 -46.44412 -54.85978 -54.53945 -63.42464 -64.15008 -56.00224 -44.23196 -44.86210 -40.26530 -43.07282 -39.98491 -59.29989 -92.10601 -109.42205 -108.59305 -118.47749 -127.05178 -110.10847 -106.02432 -110.74739 -136.60564 -145.92601 -151.01536 -145.31643 -152.98431 -147.91767 -143.42612 -141.44882 -146.37059 -148.64936 -136.46576 -141.60732 -143.44305 -148.95134 -148.40304 -159.41125 -157.69158 -165.87846 -170.14025 -174.73094 -175.18456 -172.14267 -171.07207 -169.07925 -168.53235 -168.33456 -169.04137 -173.11144 -174.83826 -168.06990 -167.71086 -164.57550 -157.90166 -163.23227 -167.94951 -170.66683 -170.21238 -166.00402 -170.43149 -168.44430 -171.33802 -173.13867 -172.51688 -171.32631 -175.65765 -176.50910 -172.23211 -169.94845 -176.29813 -170.58191 -176.03625 -175.37961 -172.75229 -172.32981 -177.93017 -173.02107 -177.12677 -206.09629 -226.57788 -361.13123 -479.74498 -544.50744 -565.76180 -577.96999 -548.11848 -510.63032 -520.00519 -511.08129 -511.99303 -536.14109 -519.76802 -559.84987 -576.71512 -648.68600 -717.65285 -798.20961 -854.79691 -851.07595
224.97863 224.03199 219.78405 84.29692 29.90383 13.75871 -8.30401 -25.52398 -35.75974 -14.21983 14.39204 50.79699 66.47413 74.50186 56.68559 38.04283 24.40063 -9.77750 -19.02992 -38.68056 -54.53206 -49.93480 -49.96716 -45.11188 -40.45928 -48.05203 -72.42888 -92.17667 -95.55442 -78.34992 -65.71102 -37.87362 -30.12755 -18.40378 -13.97931 -27.79316 -40.56972 -41.93427 -50.86961 -44.18052 -46.65359 -56.76766 -62.44219 -47.66807 -36.47481 -39.57425 -44.54617 -40.63918 -51.93723 -80.53559 -101.58651 -117.38815 -115.78098 -126.72181 -132.66185 -132.39886 -120.68182 -123.39638 -145.32046 -155.27883 -155.51831 -164.27149 -163.45485 -150.26984 -156.35992 -150.41117 -153.93304 -149.73927 -145.40692 -143.30701 -147.87135 -156.06326 -150.75109 -156.78060 -164.20527 -164.38586 -170.62889 -174.95110 -172.65011 -167.65020 -161.61058 -160.03774 -164.52000 -163.20905 -166.99542 -168.18739 -173.56433 -169.27158 -158.09743 -160.51304 -163.17515 -160.09359 -168.34341 -170.29798 -174.14256 -175.41544 -171.73230 -174.68702 -174.56720 -172.17929 -174.23440 -176.26524 -170.96937 -177.68442 -169.85541 -169.87966 -172.64404 -174.70107 -175.34502 -171.57370 -174.20635 -178.21114 -176.25547 -168.28166 -172.14520 -180.38309 -213.42992 -228.59732 -459.18737 -518.55434 -532.37771 -511.04435 -493.62818 -485.57800 -465.88973 -468.22058 -478.86466 -477.16206 -506.40530 -507.16487 -549.24074 -609.75293 -656.07876 -752.93390 -775.27375 -774.93144
143.32502 137.82099 157.31802 31.58475 -0.43107 5.74945 -13.24479 -35.71349 -34.16371 -17.12479 10.45371 36.34586 60.36728 46.38778 50.55491 44.16706 33.56978 28.37097 3.18730 -15.97545 -12.84276 -12.86307 -14.76412 -19.58261 -30.82331 -33.98702 -56.87483 -67.46096 -86.09777 -70.88182 -38.49638 -11.15613 -0.26091 -10.89508 -20.03845 -41.26582 -58.92482 -55.81631 -50.28836 -49.68128 -49.06813 -50.53933 -52.00819 -50.81290 -45.24850 -54.45765 -54.55665 -65.09802 -68.93047 -83.88419 -109.79155 -116.24392 -131.87679 -137.36085 -147.63258 -135.22906 -126.71584 -131.56846 -136.15663 -156.53209 -164.77709 -170.74574 -168.34901 -161.19509 -165.83712 -159.04756 -169.16456 -157.52469 -155.11081 -156.16289 -155.53894 -161.14731 -159.73019 -163.76597 -162.42098 -168.28194 -173.91014 -172.26152 -171.28173 -165.30509 -162.51743 -156.27624 -157.42668 -158.06647 -163.91047 -161.78594 -164.11587 -158.37851 -160.55771 -163.14185 -166.08542 -168.41971 -170.84460 -175.28663 -172.91388 -170.36944 -177.28589 -175.75619 -173.03163 -176.21338 -175.37834 -175.83752 -178.79300 -175.75989 -173.70675 -171.44038 -170.75079 -170.63502 -177.48976 -172.80037 -171.92954 -176.82340 -175.33035 -177.03157 -178.42496 -175.78173 -182.35793 -230.78959 -312.83970 -380.71013 -452.03648 -466.34173 -470.99516 -438.58070 -462.24812 -437.63023 -436.58525 -438.12513 -457.73564 -474.96366 -496.70026 -524.53787 -578.89148 -633.91683 -699.44751 -700.11639
117.57231 116.54414 69.68035 6.38513 -6.03975 -9.77283 -24.61479 -36.37734 -37.07771 -28.16727 3.16696 15.47595 38.87278 46.27940 50.76176 54.87970 49.49272 35.51915 53.80026 52.97196 55.70965 15.40467 24.74841 1.61396 -13.30654 -11.54978 -20.08220 -50.11885 -36.33600 -28.12497 18.53318 17.57018 15.07916 -5.38746 -27.15946 -61.89940 -66.33395 -59.06219 -57.49796 -54.19529 -57.79559 -64.00633 -62.95507 -62.78870 -59.73375 -61.18201 -72.69247 -89.99421 -88.13385 -103.84970 -111.22583 -122.43738 -132.62091 -137.39881 -146.75859 -142.00156 -142.73030 -145.21888 -149.61144 -156.58155 -159.95762 -163.32450 -163.42234 -153.87070 -164.52761 -164.46151 -167.26373 -167.22637 -168.35510 -164.03693 -168.73335 -173.25918 -167.64847 -157.12746 -165.04961 -168.58192 -169.48181 -173.86227 -173.49416 -168.22338 -159.61578 -150.12235 -149.73183 -151.14210 -156.16675 -160.86183 -160.68395 -162.86170 -165.94441 -171.12597 -170.25441 -170.85754 -170.01846 -172.65455 -174.12457 -174.01082 -171.23786 -171.63596 -176.20348 -174.76309 -176.34909 -174.31975 -174.34346 -179.90699 -172.63276 -177.78085 -172.96803 -172.50212 -174.41929 -178.34022 -175.34018 -176.70708 -176.96959 -178.35924 -173.24348 -173.16380 -189.99783 -235.81507 -289.50445 -398.52341 -407.93059 -429.18756 -423.48455 -421.59003 -422.82070 -412.25927 -417.21702 -425.69140 -445.13642 -467.38798 -472.87673 -500.15901 -557.14762 -623.17992 -631.07489 -641.34828
125.30903 115.35049 68.59224 2.26862 -16.71395 -26.13532 -35.23662 -44.26586 -47.88790 -36.33096 -13.46415 28.13133 31.97006 32.91155 32.01330 32.82339 54.45190 63.73694 86.99530 99.54600 71.96558 32.71808 31.94049 22.20814 17.01940 20.12605 8.03059 -18.48732 -15.22301 32.54605 30.46162 31.68251 -0.18587 -9.53826 -39.18112 -71.75221 -82.63109 -71.81317 -57.72121 -60.26709 -71.37742 -77.10682 -83.23651 -68.14684 -65.98859 -74.40956 -85.04693 -101.31303 -110.72323 -113.73146 -119.86261 -124.22752 -127.11344 -138.59942 -150.52787 -150.65564 -152.83349 -158.41553 -161.53775 -159.20554 -150.94692 -150.55546 -148.93003 -153.59702 -152.74140 -156.88603 -168.27190 -168.23010 -169.03981 -165.64526 -168.59703 -167.80842 -169.59296 -166.06389 -162.85073 -168.59144 -174.97421 -173.83875 -167.97365 -161.60009 -151.50673 -144.53373 -150.43890 -143.70199 -154.52769 -158.52746 -165.62547 -163.86047 -164.63248 -167.70974 -167.59127 -168.21931 -168.68140 -169.54834 -165.38724 -172.72537 -172.70229 -170.55918 -170.85687 -172.64136 -175.82043 -174.49187 -170.22287 -173.07621 -173.46116 -172.38379 -174.64497 -177.53710 -172.20592 -177.37252 -176.63236 -172.59063 -174.08505 -174.32447 -170.32628 -176.63628 -201.07503 -211.74360 -310.30796 -337.39656 -389.35552 -393.94410 -388.40228 -379.05349 -379.96691 -392.70421 -401.43714 -424.45097 -420.27372 -441.48958 -452.13671 -492.53273 -516.42374 -571.52975 -590.68777 -592.98371
119.44043 118.89267 65.76933 -14.41133 -22.96452 -39.53210 -48.98289 -50.69881 -46.38319 -31.20087 -19.81997 6.69793 11.39869 10.60278 9.91212 9.19161 60.38344 83.26303 94.12419 106.31805 75.32204 49.27891 33.35729 18.56587 8.09210 24.14922 10.80606 7.15924 16.41134 41.54186 52.92262 16.64530 -26.93853 -36.06010 -68.90530 -85.42024 -91.40443 -93.40796 -94.53999 -87.58908 -92.87115 -94.32723 -108.14089 -97.98808 -91.72355 -87.37527 -98.42162 -122.24500 -130.55259 -130.55570 -136.51620 -131.34675 -128.12115 -130.70646 -144.64887 -155.35611 -153.14617 -161.24021 -156.97117 -153.35904 -145.74089 -138.33030 -134.53348 -145.93276 -149.50399 -158.81861 -164.24937 -169.92209 -166.24059 -158.40569 -153.98500 -167.24914 -169.83557 -173.11485 -165.94784 -165.92729 -172.65904 -173.31991 -170.55456 -172.10176 -155.47010 -142.72818 -146.61045 -144.54406 -144.76960 -159.88780 -166.25508 -168.21703 -167.21092 -165.69446 -166.18711 -165.69778 -164.66836 -167.24250 -167.06052 -167.45181 -171.22293 -171.19940 -173.72147 -175.61314 -173.90169 -172.77473 -171.38926 -171.20375 -176.10137 -171.20023 -173.50885 -173.83201 -172.11418 -174.40975 -174.50645 -170.61526 -176.04333 -169.31754 -178.80429 -182.34459 -199.00583 -217.89251 -248.02254 -287.18208 -358.49993 -332.90661 -331.63569 -342.72800 -349.02643 -360.35235 -374.47622 -396.05205 -407.31198 -435.35440 -454.57065 -472.42434 -500.23279 -534.27402 -558.27605 -557.37604
122.10202 116.96059 76.67422 -11.40031 -31.44754 -42.01104 -59.01429 -60.89637 -52.87756 -40.52082 -29.34714 -18.60639 -24.05780 -10.11962 -14.53379 9.11674 31.70498 79.10096 86.73962 76.54854 57.49841 40.46980 17.47505 -2.10651 -5.10387 0.31889 12.06666 10.48801 21.29842 48.25969 53.37000 48.18986 8.23545 -48.78249 -65.37554 -84.97826 -91.79602 -99.01887 -95.72201 -95.84261 -97.50907 -111.44840 -105.26859 -107.86157 -93.87181 -105.38410 -119.12662 -125.20061 -136.51296 -145.17105 -142.22456 -141.73199 -142.06401 -142.11729 -154.08168 -146.09173 -140.48678 -150.66771 -155.43980 -147.75363 -142.83065 -132.23309 -125.28441 -134.90439 -148.23839 -155.70031 -167.84496 -161.47181 -150.87293 -150.12389 -156.79279 -163.15229 -165.52064 -168.70418 -174.58999 -170.05636 -169.93983 -172.50671 -166.19699 -162.89594 -148.40612 -145.43830 -146.57323 -140.86661 -148.87866 -158.87437 -161.43888 -166.59901 -161.53684 -164.88323 -160.12740 -157.01187 -166.84431 -165.74508 -170.51533 -168.20884 -167.86383 -169.83152 -169.49768 -170.06582 -172.60931 -174.42776 -171.54603 -173.46462 -173.14097 -176.77492 -171.40609 -176.60662 -176.82867 -175.25195 -173.24832 -172.79839 -175.83752 -177.92681 -171.23983 -180.24139 -190.44723 -199.58598 -222.66575 -246.53611 -283.49500 -274.03610 -278.92727 -294.58427 -338.87050 -340.69692 -367.42604 -374.32888 -400.48832 -429.21324 -450.22521 -479.58118 -510.37136 -560.36743 -550.81513 -551.35943
171.71955 170.74585 89.69616 -9.35358 -21.94861 -50.14727 -49.84768 -60.55187 -51.00648 -61.95639 -58.19337 -43.27596 -45.94085 -49.50184 -20.92057 -6.36420 17.40095 24.49704 17.16425 7.98861 5.50164 1.38436 -18.68785 -26.64761 -31.83981 -6.97722 -6.06794 5.07317 18.99921 37.37517 72.65243 39.63447 -4.69702 -50.42616 -63.06774 -85.07473 -95.10395 -99.92515 -105.48033 -112.61041 -115.41906 -118.98600 -117.03296 -118.18791 -117.00290 -125.51229 -129.78425 -138.18292 -141.17056 -145.45982 -148.76768 -151.76407 -149.09593 -155.05247 -146.21752 -141.27693 -132.80547 -133.00370 -137.41544 -142.55621 -135.73817 -126.41106 -115.15739 -120.31758 -141.43746 -156.09504 -161.13318 -158.05289 -150.65643 -141.11871 -154.83610 -159.45363 -171.00465 -166.99453 -162.50591 -165.51837 -165.81898 -166.90544 -171.04233 -169.62376 -150.92263 -146.47311 -144.45457 -146.08070 -144.37558 -157.00436 -158.65197 -162.80629 -156.30646 -159.81722 -158.66452 -161.25884 -165.80903 -167.51204 -171.12954 -169.51355 -167.34461 -170.94554 -177.70263 -172.15861 -177.19931 -170.55163 -173.81112 -170.80117 -169.35176 -176.26584 -173.87267 -170.11063 -175.66420 -170.90901 -174.17694 -178.48264 -176.09351 -177.94783 -176.48078 -173.13841 -173.66667 -186.33732 -177.33959 -189.35166 -213.12558 -221.94046 -250.95641 -260.48892 -287.47196 -294.36311 -315.73238 -362.36950 -373.80729 -432.56293 -446.36776 -492.07362 -532.46921 -582.85781 -577.98898 -579.20808
134.72398 139.83553 87.25655 -13.36078 -17.42557 -36.44797 -46.41247 -49.61014 -46.00846 -55.69549 -68.02070 -59.40212 -63.42935 -56.21360 -34.72183 -27.77807 -12.48738 -18.85977 -10.84886 -6.80665 -9.10698 -20.13680 -42.45848 -46.49823 -48.38567 -33.09410 -8.29345 -5.28449 -8.00212 12.23638 37.84633 25.47767 -4.19250 -48.72169 -63.34728 -83.27562 -72.88997 -99.82408 -98.32690 -101.79288 -106.39720 -119.36421 -120.27509 -119.92133 -129.49866 -129.78914 -132.71003 -137.54654 -141.99192 -145.24256 -145.03826 -143.46577 -143.82705 -146.35519 -145.04891 -138.34921 -125.40919 -129.99683 -129.39280 -135.68310 -125.15710 -115.80353 -113.98522 -120.85250 -137.10258 -149.28059 -147.61293 -147.63882 -143.54463 -147.37868 -152.98015 -149.70908 -156.87001 -155.52634 -158.63598 -163.22699 -157.53126 -162.14836 -171.01228 -160.95588 -150.19940 -140.06434 -139.80323 -141.50504 -147.34996 -146.79686 -155.13863 -152.42338 -154.19160 -156.29374 -160.15269 -166.40363 -168.73698 -173.07032 -173.28929 -171.88127 -173.92867 -170.45843 -174.71942 -171.47267 -173.35734 -172.55704 -170.44645 -169.41758 -170.38863 -172.91451 -171.09314 -174.87376 -176.79044 -173.00384 -173.94632 -173.52944 -176.18569 -177.20493 -174.59203 -180.56717 -175.06485 -176.83595 -174.41495 -193.40794 -207.00172 -209.41467 -210.75231 -249.26007 -255.99706 -279.59253 -299.99159 -308.80221 -388.42532 -401.83550 -441.97184 -544.61340 -554.56310 -588.95658 -638.37743 -639.94462
177.38338 181.52981 169.01411 26.50934 -13.79277 -21.76143 -30.25358 -26.41947 -29.15120 -48.92513 -61.10250 -74.70255 -64.31765 -60.84652 -41.90582 -36.12637 -28.67354 -22.65638 -30.33971 -23.28908 -2.41568 -13.81899 -34.10259 -54.48120 -56.37793 -49.72340 -33.05487 -33.16589 -35.40315 -4.37618 27.53560 6.40132 -2.77239 -27.43426 -55.64644 -52.88827 -35.47852 -60.23555 -75.52598 -89.31630 -86.23261 -93.26717 -110.08775 -113.06876 -123.05015 -125.18483 -127.00792 -125.35770 -131.67127 -132.21712 -125.29232 -127.48240 -132.39698 -145.94606 -132.99216 -125.61217 -121.60520 -113.10921 -109.08418 -118.57193 -126.21115 -113.03606 -114.86214 -118.04182 -138.28377 -134.34654 -140.52261 -136.30640 -139.36944 -134.05727 -144.10006 -142.67721 -142.20297 -149.08430 -141.87388 -150.87949 -148.68552 -156.81457 -157.07711 -158.16769 -148.40659 -141.39122 -141.95638 -136.99049 -144.24247 -146.59509 -149.45057 -150.12497 -153.65433 -159.78387 -160.72599 -167.67899 -164.25271 -170.18805 -170.83050 -178.80546 -172.63367 -177.05995 -169.37409 -171.81233 -174.18549 -172.06400 -170.69921 -170.80342 -170.40606 -169.40067 -172.12185 -169.37390 -173.56464 -172.50388 -173.48190 -177.03288 -176.62291 -177.40156 -169.64942 -170.01960 -175.33633 -174.13131 -177.88416 -180.63084 -186.18945 -179.08333 -194.48815 -205.87746 -236.91195 -244.10515 -273.57344 -298.26784 -364.77397 -406.41860 -469.66306 -541.61137 -600.93443 -640.74811 -672.23318 -671.27277
181.79883 184.06043 179.77229 38.08565 -13.43777 -11.08404 -17.21197 -22.31137 -40.89922 -47.17048 -65.87373 -80.26434 -79.95248 -74.60681 -55.83354 -61.40559 -51.78689 -42.15027 -42.45452 -20.61219 0.88198 6.09864 -21.47409 -52.82169 -63.35860 -69.65787 -56.14130 -48.63186 -50.49081 -20.76319 8.25254 9.88625 -2.42021 -21.07021 -33.71743 -32.39411 -26.15332 -35.78328 -45.84685 -59.58417 -65.43732 -79.21793 -95.50950 -109.24129 -113.57983 -112.39339 -113.22547 -119.79513 -126.37354 -123.70184 -116.95009 -105.76065 -106.28504 -108.63310 -113.52960 -113.90506 -106.45819 -99.56780 -110.87425 -117.33510 -118.69902 -118.04701 -103.66789 -110.13878 -128.08071 -124.28024 -124.21092 -121.42868 -127.49634 -127.64631 -133.41017 -131.68515 -143.39233 -145.64672 -136.53188 -140.69228 -148.62701 -148.68324 -156.13209 -141.49204 -149.98107 -145.59374 -139.16922 -139.19611 -140.01522 -141.38699 -148.93058 -155.61701 -155.07739 -160.73112 -161.64763 -171.44529 -166.28281 -165.06965 -172.05214 -174.99263 -170.68983 -173.00560 -172.93799 -167.04850 -169.21924 -168.43888 -171.33653 -168.11947 -162.45415 -170.18678 -168.88473 -176.45640 -172.86124 -172.42207 -173.93536 -178.08948 -173.14110 -177.58029 -173.36936 -182.10101 -177.17810 -170.69695 -175.17102 -172.73553 -177.60391 -172.80720 -185.94888 -188.51898 -203.28453 -215.36326 -245.99600 -267.83599 -330.77375 -381.11389 -472.06413 -521.62342 -590.38424 -638.63674 -646.15575 -649.53758
189.17677 189.74970 112.75724 37.22553 46.39434 1.90437 -3.26281 -28.48933 -39.22076 -53.99448 -69.92758 -81.04694 -87.80296 -82.03784 -73.32687 -72.20942 -78.18747 -53.14659 -39.20908 -18.77723 -2.51805 -1.74707 -4.73678 -36.55757 -67.57018 -78.90850 -73.97508 -65.40810 -59.16496 -23.89711 -1.93255 18.35472 5.89223 -2.91010 -3.25685 -2.73704 2.87074 -12.37690 -32.26425 -48.12884 -55.61585 -76.09010 -99.34243 -97.95942 -101.94661 -97.33165 -111.00314 -114.77381 -115.80305 -109.60800 -107.58987 -95.91485 -89.26058 -85.08265 -103.03332 -102.81043 -90.04762 -97.72773 -102.37650 -98.63227 -102.55270 -88.19721 -91.90675 -100.85799 -105.93599 -114.13551 -121.74022 -120.47488 -121.08088 -125.00490 -133.77652 -136.33241 -138.29376 -142.23860 -141.42972 -139.83960 -141.83878 -140.87070 -142.47686 -144.75168 -143.43390 -144.03944 -145.97510 -141.74927 -145.25041 -136.50410 -143.19856 -145.79355 -157.64204 -157.10246 -158.79680 -163.29313 -170.21385 -174.71854 -174.36726 -169.27023 -175.08892 -171.49877 -168.10095 -176.33705 -168.41920 -162.90063 -159.23649 -163.86930 -165.73812 -165.28394 -169.81807 -172.14776 -175.06935 -173.21024 -180.93025 -175.71178 -175.93905 -173.49775 -172.46129 -169.88715 -174.05064 -173.12314 -178.33421 -171.51352 -176.52586 -175.02583 -180.31480 -180.56283 -177.97239 -194.67472 -216.90958 -255.73200 -285.85140 -324.23638 -420.85813 -512.10653 -530.87258 -610.48065 -615.95794 -613.70780
189.42002 189.60768 111.35011 80.26197 82.21137 43.77120 2.59236 -17.87135 -37.92696 -48.08873 -63.61872 -72.46894 -82.73702 -87.44688 -90.50440 -85.92514 -90.01711 -71.47566 -53.02051 -25.76351 -17.92485 2.43522 -22.84744 -34.01979 -66.48681 -76.12902 -72.59889 -62.07718 -34.22762 -13.21447 -2.13951 2.80377 -4.56076 -11.69724 -6.26092 5.40840 4.00776 1.80531 -4.01861 -21.61352 -50.33540 -73.97065 -89.73764 -92.34020 -87.16444 -79.30946 -85.02070 -92.12491 -105.67859 -103.42239 -105.79205 -100.51938 -88.33987 -83.15682 -91.49740 -91.88665 -88.37447 -93.06774 -86.18151 -82.72281 -88.53140 -87.42409 -88.01668 -95.53602 -97.90156 -114.70363 -111.14279 -117.88771 -120.09122 -125.49714 -132.90690 -135.38418 -143.37982 -145.35575 -145.66031 -150.31638 -147.63837 -146.67491 -144.61177 -144.18549 -152.11418 -151.22301 -147.90239 -143.42497 -144.46924 -146.22616 -147.69708 -149.18449 -151.85586 -156.01053 -161.49372 -166.12590 -168.37490 -172.62975 -170.70686 -174.37343 -172.63637 -169.85363 -171.94782 -165.67810 -166.79107 -160.73218 -163.33873 -156.42520 -166.30088 -174.63464 -175.01651 -172.38090 -171.79204 -177.45681 -175.07048 -172.99469 -176.84232 -173.54697 -176.28413 -173.51520 -175.64702 -172.78523 -176.13421 -178.07668 -172.93040 -175.56984 -173.46264 -181.43543 -177.52452 -176.36424 -199.74033 -232.57914 -247.15713 -276.88804 -368.84526 -470.56009 -509.16992 -547.70900 -561.01625 -559.90554
244.97067 249.12603 202.02228 95.21790 120.80702 86.68352 53.88938 4.27816 -15.18196 -37.31752 -50.02623 -62.92754 -72.98481 -79.43762 -87.01386 -97.16711 -90.58885 -86.54525 -66.94961 -39.10688 -29.88867 -28.89725 -36.06744 -66.86044 -72.34669 -82.63473 -74.33877 -43.30663 -31.22393 -15.66370 -7.35417 -7.47774 -20.26532 -22.24284 -18.62479 1.72068 12.39532 5.94355 2.95178 -9.19174 -16.90238 -57.66901 -73.52965 -79.28343 -69.06139 -52.18170 -64.91110 -85.54988 -86.41917 -89.67432 -94.28478 -82.66929 -76.70755 -78.10358 -84.95197 -83.51761 -86.07437 -85.20722 -84.68226 -84.73583 -83.68197 -88.59306 -79.00053 -86.63239 -101.86902 -103.70876 -103.13569 -108.74445 -112.31835 -117.38178 -122.56257 -131.78875 -141.53141 -154.98703 -153.67415 -160.49450 -153.23645 -150.98691 -148.74192 -153.78961 -154.63275 -159.83233 -157.42847 -153.23411 -147.40938 -146.00027 -153.96216 -162.26015 -157.92075 -163.54331 -160.35023 -166.43435 -170.65102 -168.11208 -177.35736 -173.68164 -170.25491 -169.78412 -169.74388 -166.66736 -160.69535 -161.28901 -163.60387 -165.37864 -171.41402 -172.29853 -171.89005 -175.63964 -171.87991 -175.25018 -172.90417 -176.27866 -174.30966 -168.90684 -173.65972 -175.45929 -171.81188 -169.70748 -172.91134 -176.15117 -176.63169 -174.41889 -178.23322 -175.58028 -174.93285 -177.60429 -177.13080 -206.28291 -235.89227 -263.71044 -353.86578 -420.53237 -409.78832 -480.35655 -496.90345 -497.38716
323.44212 319.61102 228.47575 135.04013 147.29976 105.05311 57.71841 22.15051 -7.80795 -26.06987 -26.74340 -37.09020 -52.03640 -65.92878 -81.01489 -100.39640 -102.92269 -89.68458 -66.23061 -60.01824 -56.13803 -65.60006 -56.74190 -70.49918 -83.23904 -86.69098 -69.37094 -54.02818 -29.76321 -27.85174 -27.49087 -23.35366 -34.75771 -23.79593 -17.55577 -14.21996 -11.33070 -9.22068 0.95500 5.74554 -10.36727 -41.78361 -66.10546 -58.88223 -59.29852 -48.99779 -51.89478 -62.24801 -69.20224 -71.73160 -80.00209 -78.02288 -72.58375 -78.58482 -80.69333 -87.59301 -90.61671 -88.59387 -88.57124 -88.09727 -89.20247 -87.67795 -81.31045 -71.19411 -83.42104 -97.73045 -96.58452 -110.83916 -110.36390 -112.74645 -124.31207 -126.20183 -145.72387 -155.80201 -163.82527 -170.46745 -158.53458 -153.72000 -154.88730 -161.21390 -162.93190 -164.66601 -165.99087 -164.26613 -157.64288 -160.28034 -157.56819 -163.00138 -162.33865 -166.44270 -166.55511 -174.74707 -170.52573 -174.54118 -174.78445 -174.32237 -170.96466 -170.94286 -165.36789 -166.86458 -163.03657 -162.75273 -162.06364 -168.84045 -168.43689 -176.47600 -170.10265 -175.54768 -167.42650 -176.07515 -168.04694 -174.19153 -173.33872 -174.81265 -172.27531 -183.03902 -175.46560 -178.55636 -172.59410 -171.37045 -174.45198 -177.73372 -173.76768 -171.35649 -175.22893 -172.27188 -172.24211 -189.10965 -200.51133 -255.30581 -282.13808 -350.59983 -340.24498 -395.67214 -419.96566 -416.49530
334.64973 339.28765 331.65141 164.42225 153.65678 119.07961 63.38038 31.76143 12.87594 -7.21099 -16.01541 -39.53837 -54.68762 -72.29891 -86.44072 -99.59393 -99.95964 -93.89832 -71.85035 -64.28505 -65.78737 -73.65760 -85.35072 -87.69464 -93.06909 -90.80160 -69.32489 -41.73782 -34.89888 -32.51692 -37.23604 -53.19615 -53.03771 -29.19944 -35.54585 -46.48790 -44.90198 -34.51853 -13.70257 6.08687 12.28981 -8.60958 -29.92481 -35.75331 -46.58423 -45.45685 -44.52285 -53.57277 -57.30122 -63.52495 -62.71452 -71.09684 -74.99867 -80.55657 -86.43980 -87.43717 -86.66617 -90.48900 -95.37466 -93.21795 -98.94690 -99.09899 -90.09003 -84.11984 -83.05666 -92.73948 -99.43351 -113.91940 -121.27754 -126.52441 -133.84779 -140.93569 -147.04191 -153.45612 -159.93257 -166.54194 -164.47503 -164.57502 -164.28819 -166.07411 -164.14139 -173.60816 -164.99164 -164.23072 -164.71375 -164.34619 -161.44460 -161.44236 -165.66785 -176.17970 -168.81355 -171.33334 -173.28267 -175.06389 -169.92208 -172.49550 -168.00182 -166.22307 -161.44645 -167.91751 -168.88208 -166.80159 -162.68272 -167.68773 -171.94509 -174.61006 -176.43632 -174.61394 -178.02604 -172.24994 -175.31048 -173.55132 -176.55724 -174.16279 -177.04669 -175.89174 -172.75910 -170.32762 -170.89165 -171.07685 -172.47307 -170.74362 -170.21743 -173.00212 -170.40224 -173.99551 -172.82109 -172.04262 -190.60650 -202.02093 -222.68521 -272.41115 -268.17758 -341.79935 -341.66889 -340.93335
325.89277 326.74479 249.19935 194.91729 160.10859 98.07868 26.35358 -3.87043 -12.49789 -15.99726 -23.64577 -29.69976 -48.89306 -62.64340 -87.56447 -96.43868 -97.75379 -103.48360 -94.86113 -84.51944 -91.25087 -89.80304 -92.46524 -99.47266 -93.85298 -76.15539 -58.36332 -41.63517 -28.91392 -42.00548 -61.92104 -69.93439 -63.75539 -51.43932 -49.49234 -62.48487 -55.94640 -49.88466 -10.48966 2.87617 7.41636 7.77457 -20.29554 -26.90996 -39.80460 -41.11678 -47.85082 -51.47150 -55.30679 -55.35915 -63.08331 -74.85646 -88.02226 -86.79893 -92.59061 -92.75840 -100.98115 -98.63423 -103.40652 -106.21235 -104.79549 -105.16921 -92.35147 -87.41929 -86.90555 -89.44475 -106.79531 -117.01352 -127.99505 -135.78970 -143.64224 -141.11892 -144.46867 -156.36152 -151.60112 -159.68048 -164.50205 -166.93276 -173.03796 -172.26211 -171.93700 -168.26716 -171.41081 -169.86796 -167.97959 -164.05824 -162.73168 -168.65268 -171.68678 -174.16771 -171.84549 -173.20490 -173.42434 -175.95110 -174.58484 -170.07998 -169.31697 -170.36592 -168.19427 -158.87488 -157.93960 -165.69641 -170.67720 -171.00430 -169.42360 -172.81452 -168.79541 -173.52256 -172.83668 -174.36055 -176.76284 -171.12716 -174.84669 -172.02357 -171.39932 -175.22773 -174.87234 -174.45776 -170.23664 -170.07015 -171.64201 -165.78070 -172.13918 -168.86940 -171.02199 -172.96065 -170.86796 -170.90129 -174.19669 -173.97128 -175.81738 -203.98001 -216.38276 -260.96752 -281.35995 -285.73867
331.59516 325.63319 246.55513 152.07908 137.36188 59.63292 -14.41008 -33.16310 -46.45790 -44.90581 -40.41364 -54.18146 -52.92691 -83.99021 -69.78338 -83.95872 -88.39794 -111.91126 -107.59850 -108.80975 -107.73398 -109.14015 -104.53146 -109.56774 -95.93158 -80.72607 -60.92875 -45.67845 -45.38429 -50.67696 -58.11093 -83.27758 -80.05036 -74.46569 -72.67545 -72.45370 -50.49352 -45.60217 -14.72709 7.46789 1.15708 7.78637 -18.97707 -22.85205 -42.46416 -42.92914 -50.87878 -53.92243 -54.96274 -62.29153 -68.15452 -85.88931 -90.18585 -87.45322 -97.45868 -92.11630 -92.26737 -94.72224 -98.62271 -103.90204 -108.48469 -106.54485 -101.69021 -85.22584 -86.04565 -87.53245 -103.75359 -115.83518 -119.62362 -131.32476 -130.54844 -138.77371 -140.00517 -147.94287 -145.57341 -151.10421 -162.18962 -168.00283 -168.90181 -171.39472 -169.56965 -166.64214 -172.33984 -170.15630 -168.07318 -171.23028 -168.07055 -171.80964 -168.84722 -171.00462 -176.41345 -177.18045 -177.82511 -175.68261 -172.63513 -171.27666 -167.29304 -161.17101 -159.67246 -159.89416 -162.52771 -166.75550 -167.79483 -169.15928 -170.27080 -173.94308 -174.90191 -176.53241 -174.17819 -172.62415 -170.97651 -173.97918 -174.12361 -174.59153 -176.61539 -171.60228 -175.59735 -174.04159 -170.14403 -169.58245 -168.27469 -166.48064 -163.13166 -164.93516 -164.74376 -170.32943 -171.75394 -174.99244 -176.42429 -177.47382 -174.94911 -169.27439 -179.05268 -206.76898 -258.68702 -252.31593
267.35368 264.65116 207.26967 99.74445 36.81422 -3.04241 -21.14873 -32.79172 -46.44584 -60.15669 -75.47490 -76.66066 -70.19969 -57.35570 -59.85131 -57.94336 -88.20345 -110.76413 -109.32811 -110.46978 -105.34943 -109.41397 -122.33687 -111.21256 -102.98790 -97.42485 -79.14651 -58.84445 -63.08556 -64.39509 -70.68976 -83.14688 -91.88150 -80.97682 -84.93245 -66.42965 -52.61664 -26.98307 -14.61222 -7.89858 -0.16049 -22.09053 -24.88565 -36.44901 -39.14851 -46.84115 -61.01026 -54.97265 -61.39969 -65.70311 -79.69203 -86.23191 -79.88470 -80.50573 -85.47921 -87.46806 -85.43464 -81.54094 -83.75193 -95.08649 -107.48076 -108.93444 -108.35875 -99.15279 -85.42006 -92.39682 -95.90630 -108.53644 -118.06351 -125.30251 -122.50114 -125.18670 -124.67490 -129.81881 -137.59825 -145.52281 -161.31427 -167.30833 -166.63484 -164.73597 -166.98712 -163.72032 -162.13398 -169.02687 -170.90476 -172.07424 -171.55801 -174.52978 -168.66324 -164.12549 -170.12273 -176.51955 -178.10407 -172.31082 -175.31265 -169.58935 -163.75891 -161.19875 -160.13427 -166.45731 -162.19703 -174.11999 -170.06440 -171.58949 -175.16304 -170.68066 -172.11033 -172.11083 -173.21064 -172.83708 -169.30931 -170.59327 -169.99707 -172.27551 -173.01091 -173.27033 -170.31667 -171.23472 -169.29486 -161.29794 -165.58454 -161.82350 -153.79040 -159.90365 -164.34351 -169.92633 -170.23411 -168.87727 -176.95837 -173.85387 -173.78267 -175.75463 -173.48200 -198.53895 -178.97204 -171.06100
229.59107 230.79002 182.67978 96.90121 31.20216 0.33752 -21.83010 -16.71412 -24.51201 -47.83627 -77.70602 -81.87581 -65.18610 -51.27546 -32.57136 -56.13857 -74.24734 -88.63509 -88.20720 -80.68719 -94.62799 -106.25712 -114.50468 -117.40392 -115.24872 -99.92440 -104.80780 -105.08359 -81.82081 -89.15572 -87.83055 -91.67113 -97.61605 -98.27454 -99.44822 -85.24596 -50.17180 -39.42266 -29.15512 -10.28547 -9.58515 -21.59204 -33.23282 -44.94498 -54.55943 -51.68469 -67.81658 -63.16855 -67.75956 -72.40435 -74.30316 -75.37864 -75.31229 -65.95795 -72.14090 -74.49940 -80.02822 -76.48912 -83.11280 -84.43000 -100.84779 -110.15979 -115.79418 -108.37725 -98.33519 -91.48713 -96.23817 -102.20908 -107.54073 -114.04719 -121.59886 -120.78560 -128.19089 -129.08167 -137.21946 -148.29558 -162.99479 -163.81039 -160.52032 -160.94595 -155.63222 -160.79183 -162.72432 -167.14548 -167.38715 -175.05744 -170.71512 -166.64468 -170.38588 -167.87243 -167.87616 -174.62109 -172.88258 -172.27095 -169.66636 -169.57395 -168.78938 -159.19455 -157.92363 -157.55102 -163.52372 -168.12062 -169.79977 -172.60637 -169.81004 -167.27115 -167.65552 -175.96087 -174.80681 -168.20193 -176.35089 -168.70394 -166.85486 -170.61962 -167.53780 -175.66500 -175.10505 -175.00796 -174.62888 -164.48771 -166.88835 -157.32822 -152.74301 -154.93162 -159.80859 -163.36635 -166.93494 -171.38915 -170.22027 -174.56328 -173.69708 -172.89989 -176.37744 -175.86932 -176.11413 -173.15192
179.33674 178.30889 208.14649 71.95826 48.97104 22.10557 21.51945 21.64145 0.95325 -38.99257 -75.78523 -67.51602 -36.89962 -17.85960 -21.23455 -33.50463 -68.65995 -77.58624 -64.35794 -59.53838 -73.76947 -90.58607 -110.94964 -116.54120 -119.81320 -121.70070 -125.48644 -119.22998 -105.60156 -100.83329 -101.18422 -93.79018 -100.20000 -102.98823 -105.33219 -99.39530 -76.73025 -45.50259 -35.28743 -22.86374 -16.46656 -27.28832 -38.57681 -48.99067 -50.64085 -56.38369 -64.37751 -73.62142 -64.89761 -62.65562 -67.78773 -70.74500 -65.51166 -61.43976 -68.52077 -72.67514 -78.38512 -78.37742 -76.83501 -84.71103 -95.80484 -97.42917 -112.80512 -116.67121 -99.19029 -97.31258 -96.31502 -99.80028 -105.45844 -116.65978 -123.49010 -124.86671 -129.20870 -132.19137 -139.27953 -148.36282 -164.02547 -163.13128 -153.00033 -150.85363 -157.50634 -161.60237 -169.51109 -171.29952 -165.39425 -163.51572 -168.40943 -162.04191 -170.49633 -170.59896 -170.98298 -170.06004 -169.84233 -167.79013 -170.15352 -166.40217 -162.52097 -155.14961 -155.83789 -157.81806 -163.84876 -165.70783 -173.50773 -167.87262 -166.04716 -168.61790 -168.63069 -169.63650 -171.08120 -170.50362 -172.69436 -166.81249 -165.33309 -168.55660 -169.25206 -173.71702 -169.39390 -173.83443 -169.27888 -170.99995 -165.14738 -154.54545 -158.84825 -150.66907 -154.51965 -158.76281 -162.10567 -168.99544 -172.33128 -173.45655 -175.66309 -175.62722 -172.80454 -174.34948 -178.71292 -174.34779
