185.44601 181.73453 99.65679 8.77340 1.76105 -37.56166 -48.33051 -29.02754 -30.88190 -21.35763 -23.31578 -26.99360 -24.80314 -31.07421 -38.25650 -9.78356 36.57388 35.63206 18.64965 -8.69510 -53.59833 -78.85408 -92.87207 -100.59550 -119.08780 -130.20214 -127.73919 -133.45123 -121.03974 -124.83106 -131.44667 -154.49874 -152.88878 -152.55662 -140.32446 -120.04376 -113.05570 -105.09256 -111.47416 -108.39501 -107.66299 -109.68351 -121.60405 -119.94977 -132.61301 -141.67150 -149.71698 -152.90818 -154.41571 -154.82642 -157.84641 -164.53747 -175.31291 -172.51976 -169.03385 -172.04770 -165.28152 -169.60400 -171.84829 -171.10629 -171.79741 -167.69197 -167.53593 -161.86475 -163.38590 -167.11001 -158.15784 -154.03730 -154.91083 -154.15036 -159.77397 -164.48585 -168.84218 -164.18064 -168.20019 -169.92283 -172.24005 -173.26598 -175.57968 -172.62055 -170.92176 -170.08379 -165.62077 -177.02196 -170.97918 -172.46163 -180.60364 -173.01748 -171.82671 -174.81426 -181.72413 -180.95609 -185.83768 -307.47999 -369.17383 -638.14486 -886.51965 -942.64426 -1038.03642 -1084.73492 -1115.56111 -1134.63766 -1143.92544 -1179.63815 -1246.88896 -1328.33469 -1354.11981 -1451.56303 -1479.85888 -1564.03494 -1618.93635 -1672.27535 -1779.33267 -1827.58731 -1855.03792 -1921.89240 -1948.07428 -1965.52983 -1989.32500 -1997.19350 -2023.34119 -2022.65967 -2030.13500 -2041.41214 -2040.15587 -2050.49300 -2058.57912 -2062.96049 -2078.97690 -2075.31018 -2087.62760 -2099.70164 -2108.72322 -2123.60768 -2137.60992 -2136.62384
188.03635 185.31500 113.13904 56.54237 5.43872 -31.83997 -49.20171 -37.40952 -37.47709 -32.15528 -31.92090 -36.42180 -53.39862 -61.22217 -52.25989 -16.16654 15.99064 24.44771 14.32594 -17.75702 -28.98074 -71.96634 -99.25665 -97.09645 -103.61149 -118.00232 -114.81582 -114.59004 -111.73556 -124.34233 -141.06480 -150.54757 -147.55255 -143.34500 -129.67789 -113.98720 -100.02189 -99.89242 -108.63797 -120.72606 -123.02389 -109.71224 -120.54811 -119.11513 -127.97056 -148.45958 -154.74031 -154.37194 -156.65526 -162.95333 -166.08397 -165.23305 -173.63580 -167.48546 -164.17805 -158.60713 -164.54411 -166.17939 -175.58548 -172.81341 -172.85478 -170.15858 -170.11475 -161.86442 -162.29555 -159.63770 -157.15140 -150.71143 -153.90018 -152.78781 -154.46948 -167.40249 -161.17638 -170.22191 -171.70307 -172.59595 -169.59260 -174.66119 -168.77691 -173.45254 -167.81279 -168.95711 -175.15529 -173.46539 -176.38879 -166.32128 -174.26014 -175.82301 -174.10924 -178.00460 -175.69820 -181.65006 -183.19146 -377.24645 -517.42559 -828.52508 -879.95402 -973.12833 -1063.45914 -1090.66318 -1101.25842 -1116.24109 -1129.15043 -1141.78477 -1173.55682 -1215.80822 -1266.34733 -1315.90728 -1422.85635 -1473.73800 -1552.86588 -1635.43710 -1716.49693 -1789.84741 -1839.49450 -1915.89275 -1954.44919 -1963.47959 -1990.64196 -2004.95068 -2022.98296 -2036.21415 -2033.63774 -2041.88129 -2050.97296 -2056.24600 -2070.51917 -2069.43273 -2080.63753 -2082.70865 -2099.20832 -2102.36781 -2115.76586 -2129.83621 -2142.79962 -2143.43556
188.32529 188.27588 184.58579 15.43239 4.82945 -24.08822 -54.01774 -51.52971 -55.75690 -35.03278 -32.39800 -36.96797 -44.87190 -67.19091 -63.99718 -41.48663 2.69307 19.54000 3.85179 -4.16571 -17.18014 -82.69819 -94.80197 -98.28331 -99.66198 -107.97539 -103.54105 -116.09352 -123.11116 -137.42180 -148.72235 -144.53463 -139.92252 -122.18370 -107.93391 -106.97222 -103.47721 -95.81369 -121.45738 -121.64207 -131.00187 -137.52836 -132.60521 -131.33598 -138.50703 -148.53234 -161.82146 -167.83621 -169.93560 -164.43621 -160.38478 -167.82370 -172.02958 -174.01639 -170.28697 -159.82857 -163.35926 -165.38993 -169.58752 -171.04565 -168.92889 -161.29857 -164.47058 -163.11323 -160.36861 -154.15241 -156.18504 -152.45117 -150.19122 -153.15451 -150.02632 -156.53545 -154.37414 -167.83810 -167.78206 -168.65800 -168.85186 -174.33967 -170.97799 -175.70218 -168.77619 -165.39149 -168.28724 -169.47618 -172.70656 -170.88043 -173.39858 -176.25259 -177.37309 -176.90069 -176.63198 -187.25966 -186.66313 -391.54506 -670.93963 -848.96997 -952.14682 -1008.48441 -1070.54124 -1098.11195 -1103.33192 -1106.23734 -1112.45015 -1126.30310 -1160.90888 -1183.01571 -1258.58323 -1275.43981 -1285.29040 -1391.73772 -1462.35400 -1557.18875 -1605.16847 -1769.06763 -1800.90940 -1905.16497 -1939.48572 -1973.34248 -2004.25486 -2010.99989 -2022.42414 -2031.97970 -2039.78214 -2043.31247 -2050.20376 -2053.30077 -2067.56239 -2073.24507 -2086.55645 -2091.46872 -2098.77857 -2110.05302 -2119.36626 -2150.23620 -2150.01624 -2150.77486
174.87581 176.94593 118.50435 27.05128 -5.82552 -26.31648 -53.94673 -67.95768 -59.10052 -50.78095 -40.23934 -41.58276 -61.67821 -75.41848 -70.89731 -38.92012 -22.81782 -1.59283 7.55307 -21.30639 -42.82610 -77.29687 -81.15389 -101.01278 -103.71657 -113.44494 -116.25337 -129.86316 -139.20129 -138.37288 -132.41074 -130.31151 -120.04061 -118.19876 -98.77531 -101.09489 -103.78977 -108.19149 -123.80983 -137.81387 -144.03316 -148.11626 -145.97963 -139.09706 -141.56108 -155.12144 -163.95435 -170.82160 -172.86036 -168.68226 -166.70440 -163.43545 -169.30601 -171.18690 -170.22477 -162.66149 -162.36517 -170.58583 -173.12347 -174.39757 -163.55233 -154.79843 -158.42345 -158.24351 -160.78564 -158.39823 -151.40183 -161.99862 -151.23021 -152.02317 -150.46826 -152.94865 -155.80460 -153.26751 -165.10304 -161.06637 -164.68437 -166.26527 -171.61457 -171.67324 -170.44423 -170.35145 -170.63752 -171.00567 -171.24288 -170.19292 -174.37455 -174.48439 -173.87808 -172.08577 -176.60898 -181.93837 -282.03671 -482.01693 -775.16666 -899.14472 -929.75491 -1060.77360 -1078.65791 -1095.38933 -1104.36936 -1096.59763 -1097.20441 -1099.86011 -1128.66615 -1158.40057 -1189.35150 -1231.61565 -1252.94547 -1309.85786 -1418.80730 -1443.35248 -1612.78422 -1698.79460 -1805.84033 -1845.28794 -1907.73805 -1972.26862 -2006.88833 -2020.34417 -2025.94829 -2038.40011 -2039.74331 -2044.49252 -2048.76991 -2057.64990 -2059.34404 -2080.05726 -2088.90584 -2093.46677 -2104.55187 -2110.17250 -2122.67901 -2154.30153 -2153.94837 -2156.08748
192.31682 190.26439 117.70488 28.88705 -25.89658 -47.95957 -65.00819 -72.09193 -66.37391 -58.91597 -49.34690 -57.24715 -68.07654 -95.28265 -80.79138 -58.68244 -30.89398 -11.09513 -2.66920 -26.56140 -58.75484 -67.11637 -94.30836 -91.76303 -107.03295 -116.68035 -123.24571 -134.91624 -132.20380 -121.81718 -115.04342 -108.57895 -108.25639 -103.66227 -94.45686 -97.12143 -103.59571 -112.82142 -128.48394 -136.33401 -145.70260 -151.54613 -151.52967 -149.79306 -154.62099 -153.40636 -161.01523 -168.43501 -169.40678 -166.69223 -165.20639 -157.20919 -158.60422 -167.58277 -164.97084 -158.54101 -158.77478 -169.57776 -173.80816 -164.75982 -158.41165 -158.61522 -157.69163 -161.27310 -169.21880 -164.46078 -162.74607 -158.02482 -159.29806 -149.38928 -152.59357 -153.09696 -157.75114 -165.35008 -168.47091 -170.97815 -167.88710 -166.98024 -170.18481 -171.67436 -172.39755 -166.78265 -175.81759 -171.72628 -172.32423 -174.01567 -176.76383 -177.22158 -172.83355 -172.11103 -178.67260 -183.94450 -352.90627 -600.40908 -808.52356 -892.98514 -998.52540 -1054.06408 -1086.30832 -1108.77761 -1105.00435 -1108.84976 -1101.02318 -1107.43680 -1106.85750 -1135.30895 -1144.08321 -1180.40846 -1224.67539 -1281.38863 -1319.37454 -1471.95318 -1514.97586 -1699.45246 -1788.50961 -1824.70361 -1893.13700 -2002.74701 -2009.89532 -2024.37148 -2020.50937 -2026.23963 -2033.45224 -2037.56576 -2043.93690 -2057.94544 -2063.57887 -2074.51213 -2082.22214 -2097.21536 -2102.01998 -2107.83343 -2116.94894 -2142.95639 -2154.38569 -2155.55645
175.66827 179.39454 101.35411 28.90359 -24.40179 -71.83554 -70.69409 -75.66853 -64.61007 -56.47333 -70.29820 -65.92491 -86.36334 -89.69259 -86.94605 -35.52982 -31.54353 -11.12997 -10.95434 -23.80956 -33.07036 -64.62226 -70.71651 -86.74195 -86.53848 -112.36212 -115.55107 -118.58017 -117.45257 -107.37486 -99.39626 -94.96683 -99.35435 -95.21615 -100.98049 -99.44015 -111.63519 -116.10442 -125.48201 -137.09682 -147.78690 -161.91764 -170.31757 -163.67590 -171.26708 -163.18493 -161.83991 -169.99662 -176.15143 -171.12089 -169.16916 -152.94037 -155.75288 -156.58334 -157.49682 -162.57366 -161.78239 -166.38260 -162.47700 -160.49046 -163.41742 -162.80554 -169.22432 -158.71899 -165.46416 -170.16221 -169.70887 -169.12892 -159.70266 -165.25197 -160.55060 -163.31851 -161.80212 -161.33853 -167.32219 -167.04077 -170.82286 -170.15745 -178.22954 -171.52487 -169.96271 -171.59158 -173.09908 -175.71976 -169.66290 -177.40720 -175.62535 -170.28744 -174.84377 -174.69367 -179.53484 -264.87299 -347.35232 -597.61216 -761.92903 -824.84501 -947.41910 -1056.28197 -1077.61722 -1101.25938 -1115.02253 -1110.10335 -1108.34489 -1107.48931 -1108.02211 -1108.59291 -1132.94033 -1140.29306 -1195.48000 -1206.18520 -1264.10707 -1424.76877 -1497.40425 -1692.67808 -1771.85415 -1821.30810 -1842.98231 -1961.01263 -1981.10354 -2004.79042 -2005.91210 -2015.73792 -2010.72670 -2030.82872 -2030.50217 -2033.80667 -2052.84348 -2066.52348 -2082.51814 -2081.04831 -2099.25476 -2112.98683 -2116.57502 -2137.82697 -2150.26644 -2149.35971
134.51986 131.48141 74.58717 -18.10477 -29.97495 -60.80765 -75.48474 -87.34692 -75.30575 -78.09123 -70.21545 -83.82208 -94.54007 -101.14156 -82.97678 -34.05605 -20.30112 -4.35988 -8.35718 -20.56157 -17.77481 -37.08800 -55.02372 -61.04669 -78.22333 -94.24876 -105.02665 -109.99059 -112.36170 -107.48358 -97.91838 -94.36014 -89.90671 -102.67429 -98.46180 -108.74399 -114.85417 -112.78584 -123.36236 -141.15663 -156.64892 -171.55693 -169.33004 -170.02191 -171.23990 -167.42651 -168.90045 -168.69733 -173.03326 -172.03276 -164.27753 -150.58520 -146.41308 -152.64229 -155.00894 -156.89225 -160.92351 -159.83780 -156.16374 -158.71822 -162.93111 -168.71361 -167.53741 -171.78004 -168.01377 -169.53137 -168.61843 -168.77684 -170.98687 -162.94413 -163.27506 -168.25373 -169.31514 -169.35892 -164.90305 -173.31996 -169.85910 -174.65040 -176.46005 -170.19225 -164.71226 -171.35021 -170.73461 -170.25655 -174.17325 -173.30209 -173.50822 -176.23179 -170.78024 -176.11274 -182.58842 -238.32715 -304.29325 -564.32190 -798.48290 -846.54414 -977.08001 -1043.70872 -1063.10290 -1096.43921 -1106.40380 -1116.52455 -1108.89688 -1107.74492 -1109.24578 -1105.59234 -1102.67010 -1098.49080 -1135.22204 -1164.12785 -1179.83166 -1273.99932 -1508.99596 -1633.07606 -1683.85035 -1751.26325 -1803.73772 -1907.31506 -1945.29950 -1964.54031 -1968.46422 -1988.32344 -2012.21033 -2009.69887 -2018.29349 -2033.46139 -2038.57942 -2059.58222 -2072.97912 -2084.00048 -2087.41679 -2107.69218 -2106.77034 -2129.17169 -2140.40452 -2143.39943
99.63709 94.56209 27.22052 -43.10595 -50.18968 -52.55091 -80.57668 -85.73426 -94.98786 -96.90196 -98.65572 -93.06823 -97.99541 -103.37787 -84.40546 -63.56137 -41.61389 -39.68946 -14.65096 -25.12148 -23.29804 -25.76954 -29.11719 -40.10015 -67.52540 -82.90975 -97.60710 -100.54333 -99.75417 -98.03188 -99.83385 -86.66051 -99.66020 -106.91377 -110.15114 -125.05960 -127.51177 -129.59138 -143.97884 -144.14904 -164.93377 -163.30765 -173.39390 -168.53025 -165.84412 -166.81256 -167.61437 -169.18842 -174.68259 -167.93590 -160.91576 -152.49405 -139.21931 -139.81787 -139.93275 -143.38987 -157.58240 -165.97414 -161.48747 -164.77956 -160.45730 -163.17636 -165.95691 -164.12845 -159.46032 -161.49771 -159.24063 -169.79970 -169.60805 -172.14830 -168.85403 -164.51059 -170.83472 -168.84803 -165.29991 -171.31743 -172.16832 -176.30948 -172.87832 -174.43668 -166.74972 -171.03953 -166.88616 -172.04780 -177.74926 -173.42356 -174.11686 -172.88820 -175.23019 -178.29019 -178.02955 -177.82238 -180.88610 -552.05209 -723.79271 -824.99427 -860.10947 -1011.18437 -1075.80065 -1090.17595 -1099.10100 -1098.30469 -1098.83338 -1103.16252 -1095.83497 -1097.54344 -1091.32829 -1092.72154 -1090.67548 -1104.97428 -1165.99045 -1257.58468 -1417.53578 -1555.04523 -1650.10696 -1719.29679 -1752.28073 -1851.46453 -1902.21811 -1908.06745 -1945.84601 -1936.95476 -1956.36909 -1962.48832 -1995.87101 -1999.44471 -2013.86049 -2051.99931 -2063.04639 -2072.22988 -2085.79347 -2096.02585 -2107.40097 -2126.61569 -2132.30240 -2135.87475
91.46397 90.92854 28.63868 -56.97031 -63.61172 -65.63090 -72.01846 -89.96656 -92.80226 -99.38394 -103.29200 -106.84024 -119.38601 -123.66161 -114.64180 -97.62916 -90.04995 -48.65671 -45.01470 -32.04870 -24.93944 -28.65307 -28.78857 -40.05619 -56.13784 -80.61995 -98.57066 -98.08081 -93.48683 -87.68683 -87.20002 -95.49853 -109.38102 -124.46151 -130.04102 -141.58034 -148.31176 -150.00809 -146.93239 -162.60806 -171.27516 -166.56486 -172.64622 -163.55759 -154.61099 -160.91424 -163.73942 -169.48346 -171.05319 -156.89659 -158.85923 -147.70272 -140.28807 -134.58926 -139.64321 -141.20500 -153.84364 -167.41956 -164.22647 -158.75055 -154.08332 -152.55700 -157.65248 -154.09510 -148.75394 -161.21999 -156.76155 -168.74236 -170.98295 -175.91554 -165.63725 -165.03332 -172.30953 -170.77321 -172.09327 -175.26360 -171.94024 -171.33186 -169.69291 -166.46792 -166.97079 -171.08358 -173.43623 -171.52665 -170.96535 -173.86200 -175.54410 -177.22022 -175.77141 -180.43029 -175.06679 -178.56515 -177.27363 -476.12058 -578.52951 -687.77817 -749.37985 -930.81617 -1071.44501 -1056.73718 -1091.70661 -1089.20699 -1082.79419 -1088.49045 -1071.68466 -1088.82273 -1043.30639 -1048.66475 -1075.89601 -1098.26602 -1128.26229 -1208.86124 -1327.39025 -1471.63538 -1611.32367 -1640.47414 -1730.21634 -1775.52743 -1823.04695 -1854.38816 -1855.13590 -1846.53560 -1856.79139 -1882.17393 -1887.95690 -1947.20158 -1992.65363 -2015.33706 -2044.33243 -2048.68013 -2068.80432 -2078.01136 -2086.67753 -2112.17113 -2120.38749 -2118.79725
162.56137 165.61636 62.20862 -53.14982 -56.69559 -64.71097 -73.53111 -75.49695 -95.14899 -93.56268 -104.05419 -111.09329 -107.25438 -109.55764 -112.70058 -114.18823 -112.52189 -91.08024 -80.33603 -45.29511 -51.86525 -36.70791 -38.77056 -35.54007 -39.83885 -49.48789 -67.99791 -86.62655 -79.54428 -84.38629 -90.37052 -95.87479 -119.31961 -121.54565 -144.76584 -152.99337 -162.52839 -157.22846 -159.92918 -165.04944 -172.41282 -169.81811 -175.37471 -162.31166 -157.24208 -155.61992 -163.55627 -163.59029 -172.01401 -164.56438 -149.96992 -138.84216 -138.23606 -131.39050 -134.36466 -146.93454 -152.64995 -159.68835 -166.23889 -160.47067 -147.34562 -140.03215 -136.41924 -140.72474 -146.51224 -153.60772 -156.86697 -163.56145 -173.65391 -171.58759 -172.65974 -167.25161 -170.38435 -177.21371 -172.72092 -171.17527 -168.13617 -167.83233 -159.88516 -163.02933 -165.67320 -168.21277 -168.47662 -166.88407 -176.14815 -173.62064 -176.88665 -178.95524 -176.46632 -174.80083 -172.52854 -178.50375 -181.99228 -324.72986 -453.68421 -559.19206 -568.68487 -831.75040 -888.34740 -1025.03594 -1039.00032 -1077.39605 -1072.89694 -1048.73223 -1027.08254 -995.24643 -1002.95304 -1017.95005 -1037.52045 -1043.19824 -1048.26178 -1074.00205 -1280.89062 -1371.08314 -1470.44830 -1532.96463 -1650.70619 -1728.54443 -1763.28501 -1759.27172 -1766.48167 -1814.68876 -1833.95926 -1866.36532 -1868.67152 -1899.15455 -1937.41690 -1955.28459 -2015.79763 -2040.82089 -2053.41921 -2071.71044 -2081.25559 -2103.37943 -2097.79252 -2102.71316
116.24869 115.92368 67.69975 -52.10646 -51.79178 -56.69388 -47.67888 -69.93306 -69.25372 -85.53618 -88.57087 -100.38222 -101.91656 -99.67784 -106.07771 -122.59598 -124.24992 -101.77415 -85.16120 -100.44521 -62.44017 -60.44295 -35.64934 -31.19531 -30.62824 -43.88411 -64.21048 -75.75863 -92.06011 -110.91425 -116.68325 -122.68633 -122.02131 -122.06461 -130.58804 -155.78121 -163.38463 -160.91613 -167.14565 -167.19662 -170.41068 -164.32263 -162.10323 -170.40856 -156.87259 -154.26608 -155.43889 -164.18364 -166.31516 -160.65480 -152.66376 -142.24418 -139.02748 -137.45393 -136.95215 -148.72479 -161.35283 -157.48135 -167.55804 -156.84289 -143.66687 -135.45532 -132.97181 -134.27245 -140.05779 -146.49960 -155.14561 -164.03552 -168.57868 -169.14460 -171.04353 -165.98897 -171.08577 -172.91709 -172.93104 -168.47346 -161.16709 -157.89962 -161.03384 -164.96635 -164.12345 -170.10965 -170.44404 -172.69980 -174.13137 -175.71594 -175.77352 -175.79437 -180.46290 -173.97334 -174.80943 -172.90591 -182.93677 -316.22988 -442.95393 -483.03193 -606.31614 -678.45202 -846.72765 -935.19696 -948.32609 -1010.96527 -1042.62527 -1017.65775 -976.33607 -980.82839 -928.00876 -908.21388 -905.45748 -920.23411 -992.85210 -1091.68549 -1146.29060 -1289.25331 -1423.72998 -1461.16430 -1514.59372 -1546.25832 -1648.48700 -1738.42932 -1714.00662 -1751.51020 -1729.08191 -1791.12229 -1812.32235 -1865.86478 -1860.17194 -1909.29493 -1993.37345 -2012.84464 -2019.58345 -2042.90717 -2051.82199 -2069.96177 -2073.79961 -2070.86072
193.64337 200.42265 153.77223 -43.06663 -39.06576 -28.76922 -25.59623 -35.69061 -63.55453 -64.32557 -65.61524 -91.60264 -83.53177 -69.28170 -85.40550 -115.88110 -122.99626 -108.34322 -92.39501 -104.30669 -104.08562 -76.26393 -59.17317 -40.95415 -32.93164 -37.49167 -48.85725 -67.67161 -90.76891 -117.93087 -123.98648 -145.82833 -142.59834 -140.76650 -148.18249 -160.10580 -168.85107 -174.17889 -167.58238 -165.63920 -154.39199 -161.04914 -162.58500 -171.53400 -163.61617 -162.83746 -160.00434 -164.88683 -156.75831 -154.23178 -133.31831 -131.23723 -129.82860 -132.43273 -140.03285 -145.87009 -159.80006 -160.99799 -157.13354 -143.87233 -143.20226 -132.21349 -132.14839 -121.45802 -137.30827 -152.85245 -160.89129 -162.39476 -169.92091 -171.02255 -163.05214 -171.28419 -166.28004 -163.56707 -169.25527 -163.58300 -158.78798 -157.37580 -158.61196 -161.43797 -165.58264 -168.09330 -173.16336 -174.87153 -174.77626 -172.16968 -178.38787 -173.16524 -174.23667 -174.21132 -176.52009 -173.47988 -175.75340 -188.00843 -250.58123 -307.03344 -435.25562 -649.04277 -796.63358 -792.91484 -850.74884 -892.37259 -927.98898 -938.88766 -807.78106 -752.60832 -874.79482 -705.26723 -811.11728 -896.35263 -938.79215 -1068.51077 -1148.33484 -1195.01059 -1352.36399 -1415.16835 -1423.36543 -1493.76511 -1528.97297 -1605.18856 -1610.79610 -1633.57399 -1653.88272 -1705.91296 -1712.03041 -1775.92854 -1820.27614 -1827.61609 -1932.81804 -1971.78866 -2000.75393 -2018.96139 -2022.33013 -2037.55176 -2036.15181 -2043.04973
122.64681 122.43469 65.78534 -18.82597 -28.81696 -12.95600 16.87927 11.30903 -29.94110 -52.54767 -64.67100 -68.81664 -77.19865 -69.49036 -84.88487 -117.00677 -131.03334 -127.02544 -117.32146 -115.28950 -110.76758 -77.71261 -73.20618 -65.35418 -61.98111 -36.96668 -38.50825 -68.31584 -91.75481 -116.24108 -126.09435 -142.26069 -153.88243 -156.79286 -152.19979 -163.85964 -174.27577 -163.68485 -158.60963 -149.89327 -148.76195 -142.88424 -156.49053 -169.53029 -157.28963 -148.29752 -158.64404 -153.25155 -151.64576 -139.13550 -131.18469 -123.94535 -122.60894 -130.45071 -130.52984 -140.20326 -148.92018 -143.73030 -149.92958 -142.33594 -130.78100 -125.58233 -128.42024 -127.11829 -143.11472 -151.67973 -150.60037 -157.02661 -157.09974 -159.59166 -156.66808 -159.09414 -157.54171 -159.94285 -160.94404 -163.68344 -155.54193 -155.89923 -156.77724 -156.89310 -170.13553 -172.99819 -170.40810 -175.52631 -173.43352 -173.81099 -175.60236 -181.20729 -177.70529 -171.84059 -171.55240 -177.67567 -174.62356 -178.51824 -187.42046 -190.41648 -378.19893 -510.09659 -645.97584 -771.58621 -744.45794 -724.76569 -710.37006 -638.71273 -434.95436 -414.71219 -379.61595 -611.29652 -654.33479 -668.90828 -878.12223 -956.07892 -1133.43194 -1137.00252 -1225.69599 -1345.74414 -1361.02253 -1379.55116 -1394.42722 -1390.57304 -1474.78620 -1499.17877 -1541.91063 -1603.45447 -1650.78465 -1717.30642 -1741.44857 -1796.09302 -1847.62778 -1898.54311 -1929.63310 -1940.36252 -1973.59385 -2007.05184 -1999.42660 -1996.37963
122.04289 128.24628 52.57223 -33.55382 -1.21147 31.24564 47.27289 46.35766 3.28234 -15.33569 -45.85895 -55.30697 -54.43632 -62.16241 -71.56506 -96.16019 -121.75592 -128.69899 -131.36272 -139.35568 -137.72312 -111.85448 -83.94331 -79.71786 -60.22942 -48.33943 -39.23066 -65.35716 -71.99604 -94.83755 -110.13060 -138.50459 -146.34146 -145.72947 -158.87011 -166.36509 -175.59554 -158.50470 -148.37443 -138.62966 -136.53635 -140.43199 -159.38080 -156.12567 -153.25832 -132.90970 -132.30722 -142.13221 -139.06283 -122.07652 -119.53494 -116.47910 -122.47001 -129.56212 -128.41507 -131.27903 -143.82379 -155.22054 -138.06662 -131.45028 -127.58459 -122.63871 -118.15581 -120.73481 -133.69789 -138.20455 -139.52401 -149.61893 -140.44524 -151.73541 -157.00232 -153.86112 -152.58789 -157.72705 -157.44298 -155.54236 -156.56926 -161.96562 -158.57077 -164.16528 -167.57654 -169.43084 -166.31862 -172.29175 -169.82424 -174.41854 -173.69526 -173.66449 -176.62313 -173.55645 -176.13173 -174.68221 -176.11518 -179.92213 -178.41283 -185.63574 -237.73100 -279.83067 -438.10381 -518.37524 -641.16167 -684.80477 -539.71041 -387.01186 -219.98917 -219.69662 -296.01744 -316.47639 -361.20787 -439.12836 -533.15560 -816.91991 -943.34277 -995.81689 -1181.47352 -1255.24259 -1260.78626 -1325.97723 -1310.09217 -1360.87680 -1387.38208 -1423.00522 -1494.14917 -1496.74486 -1518.90652 -1601.06764 -1696.13346 -1726.78494 -1756.94337 -1769.85270 -1827.35829 -1893.78773 -1893.57496 -1947.14852 -1954.96865 -1955.11226
221.24495 223.23907 104.53196 -11.58189 36.23216 72.56307 68.33825 70.40421 40.71195 -16.10830 -30.61963 -35.09024 -45.43404 -63.34823 -77.05600 -77.25158 -88.05442 -107.67164 -126.66552 -128.82396 -141.11012 -128.89849 -113.04687 -90.02859 -77.09416 -53.82894 -46.78763 -52.94446 -73.88858 -80.30440 -95.17950 -119.46843 -138.04430 -143.77428 -151.40380 -161.91624 -165.03349 -169.19561 -155.04552 -139.78444 -125.91576 -132.44239 -146.91868 -150.38678 -140.33896 -121.59975 -127.69236 -122.60502 -128.41491 -116.86759 -119.21585 -115.04355 -119.48554 -130.51813 -137.60764 -136.30751 -145.31076 -151.54847 -143.90276 -134.37915 -126.09624 -114.64766 -119.25338 -126.77570 -131.09347 -132.98908 -138.44855 -142.35599 -146.41936 -145.52241 -151.90721 -151.72584 -152.21282 -158.41679 -153.63587 -155.61957 -155.25856 -156.23258 -159.49602 -165.16717 -163.68197 -173.28143 -171.56561 -172.09334 -172.27519 -175.32405 -175.45737 -173.81955 -173.51776 -171.68349 -173.22806 -173.66009 -171.30314 -174.41179 -173.23066 -175.12236 -207.82921 -221.91630 -244.59510 -333.85871 -380.94241 -415.92152 -383.18827 -221.50559 -211.24313 -199.78889 -205.80021 -202.61391 -203.19277 -263.06126 -370.74510 -576.42372 -653.31690 -756.60665 -913.23924 -1037.72257 -1220.14097 -1239.47941 -1289.48167 -1302.96974 -1349.75180 -1354.40337 -1385.92273 -1407.90757 -1467.68126 -1467.45623 -1517.40015 -1555.10091 -1616.68544 -1719.26357 -1781.49350 -1832.98849 -1857.60714 -1855.53255 -1895.35359 -1897.47940
189.37097 187.26890 100.07974 28.90579 30.27135 90.45513 92.32796 91.87417 59.17820 14.62236 -21.31811 -21.97703 -37.45294 -68.76443 -81.43057 -77.99123 -89.02055 -93.94080 -106.54380 -129.09231 -140.47122 -131.89463 -135.49634 -105.10082 -91.98042 -78.81362 -71.78497 -76.75667 -77.25445 -94.54015 -93.68002 -112.20482 -141.97579 -147.25571 -161.79970 -162.81107 -171.87497 -174.05059 -160.19278 -148.75160 -125.61485 -125.87164 -136.71084 -141.55450 -127.83646 -117.56109 -115.59768 -110.91890 -112.76764 -117.94977 -114.44537 -117.22643 -131.91399 -140.71335 -146.13890 -142.38007 -138.84802 -148.94119 -142.46109 -134.66075 -118.89269 -112.87689 -117.55981 -123.64091 -133.75839 -130.55939 -137.41624 -145.44511 -146.47581 -149.21576 -149.73140 -153.26037 -144.56929 -153.10234 -160.19143 -161.52759 -165.79626 -158.69461 -164.60902 -164.45121 -165.90645 -169.59790 -174.74265 -175.04890 -176.01450 -176.76869 -178.44117 -169.45987 -169.32580 -171.97307 -172.70064 -174.68999 -168.94321 -174.56180 -172.29261 -174.99006 -175.53405 -174.78560 -202.46244 -220.89360 -235.89399 -233.56948 -225.95304 -218.45632 -209.34160 -187.48991 -185.80739 -185.44871 -195.05957 -193.39612 -310.16463 -400.89308 -407.36869 -483.58728 -810.72796 -1002.83664 -1138.10838 -1181.78977 -1191.05745 -1235.65508 -1246.09720 -1265.09274 -1274.90719 -1318.43170 -1329.85679 -1373.04781 -1452.25795 -1470.74657 -1570.95117 -1608.59533 -1681.03564 -1792.73509 -1801.86165 -1853.12262 -1833.45340 -1830.37966
222.35460 218.63833 269.78368 31.06958 65.23500 99.13104 131.64534 134.48775 104.69293 20.82408 -16.49138 -29.62931 -44.33018 -73.32357 -94.86527 -91.61972 -92.49008 -87.23061 -90.39151 -111.88264 -116.42622 -144.41167 -135.96247 -129.26805 -104.35163 -97.28273 -88.77849 -81.92125 -99.23240 -102.06784 -121.62974 -112.49009 -151.59283 -169.64165 -166.43301 -171.75006 -171.17207 -167.63946 -157.85738 -141.65830 -131.24856 -119.97157 -122.69289 -123.22216 -121.57071 -119.17710 -106.08619 -106.60411 -108.87393 -117.08980 -127.33355 -131.95813 -138.86671 -146.32028 -144.34184 -134.58777 -133.77794 -137.42307 -137.65207 -126.20139 -121.76319 -116.40473 -123.52849 -130.75677 -141.06850 -135.07775 -147.36561 -153.36226 -152.58113 -148.10430 -155.88163 -152.04486 -153.47424 -157.90559 -156.79837 -167.47435 -161.05043 -167.08101 -166.00508 -166.87391 -169.66126 -171.70140 -176.33492 -174.61848 -178.20871 -173.12335 -172.33293 -168.62009 -168.65074 -167.04734 -166.92818 -168.40404 -171.19569 -174.10423 -170.84709 -174.42813 -172.81273 -174.72924 -174.58613 -195.23760 -192.86792 -205.39405 -210.05818 -204.58124 -186.61553 -183.39957 -177.48582 -175.02946 -181.53064 -188.10563 -206.64514 -272.50797 -281.09336 -360.21731 -644.04479 -918.73829 -1090.16038 -1095.47865 -1116.57546 -1158.06119 -1173.67708 -1164.06292 -1157.98318 -1225.64656 -1204.20188 -1249.15084 -1320.37292 -1364.49655 -1481.49317 -1520.21028 -1572.05239 -1635.94426 -1703.46706 -1746.54423 -1757.85777 -1760.71102
424.19507 418.30096 252.46919 127.45990 92.06724 136.30575 160.13301 149.06599 123.97109 61.22057 -8.45164 -26.74288 -61.91902 -90.77783 -97.33326 -104.89688 -101.19123 -99.98528 -95.45558 -106.37830 -127.58908 -137.19396 -142.38915 -141.64668 -132.13626 -101.00000 -96.84649 -95.48801 -117.47233 -119.44474 -133.63259 -155.45924 -161.41584 -172.53275 -170.30485 -169.29158 -170.50180 -158.66134 -154.76974 -149.27824 -135.68775 -119.40525 -114.52016 -98.93801 -100.43042 -95.74001 -97.12705 -98.76069 -98.85383 -117.66565 -128.47842 -127.40536 -134.83167 -134.61860 -123.56008 -131.75826 -120.97001 -126.56414 -127.22270 -117.96633 -113.06920 -111.45073 -123.06175 -131.85424 -141.74367 -144.15383 -152.76189 -156.78107 -152.19781 -154.43981 -160.99748 -158.59003 -154.40640 -159.25321 -164.68123 -167.43257 -163.52115 -169.12171 -168.13960 -169.23029 -173.29903 -172.55866 -172.96386 -165.92838 -168.01696 -172.19371 -176.77340 -173.19510 -169.61907 -164.39624 -166.23957 -171.93057 -170.21429 -172.78667 -170.81192 -174.64157 -168.66385 -172.16411 -170.79098 -177.43200 -175.30072 -180.87611 -195.87496 -183.75023 -177.95991 -176.73367 -173.26483 -173.04259 -175.09451 -178.88928 -183.42340 -183.10706 -234.59822 -338.73332 -565.46880 -810.44270 -840.28823 -1082.02134 -1080.16920 -1075.99235 -1084.71107 -1114.02862 -1071.94836 -1102.94804 -1167.76314 -1175.38037 -1179.44178 -1294.82044 -1345.40471 -1399.09331 -1488.56713 -1521.23970 -1606.09758 -1689.17208 -1678.50968 -1682.13275
449.27838 456.41013 364.53698 179.49001 148.60838 174.17541 194.08980 188.12052 144.02621 64.47712 13.88475 -32.31006 -76.76764 -88.22882 -99.32788 -119.80576 -116.83702 -114.90657 -118.17519 -123.49702 -128.26908 -143.65909 -152.79027 -149.35882 -132.26167 -121.43960 -113.70293 -117.59183 -125.66263 -147.57559 -154.91756 -161.95991 -173.48641 -171.35363 -169.08873 -164.12833 -162.27900 -159.11725 -146.21300 -145.77410 -121.17130 -103.01479 -100.32979 -94.55945 -86.16099 -83.40466 -91.27281 -95.08797 -104.19858 -115.40528 -122.95733 -135.74179 -130.23663 -115.93332 -110.34378 -116.35453 -115.59198 -114.53205 -113.58995 -113.49471 -106.82484 -110.42928 -119.20844 -132.86650 -141.43206 -148.80125 -154.98154 -155.52150 -164.69844 -163.56129 -168.46368 -161.10372 -164.93297 -159.44747 -170.65158 -168.14355 -172.35402 -174.10116 -171.11662 -176.25252 -171.39506 -169.41170 -166.56054 -166.38189 -166.70360 -175.57730 -171.21926 -173.36536 -170.04322 -163.82341 -166.84115 -171.82179 -167.03204 -168.14909 -169.87178 -176.17749 -174.56309 -170.77727 -178.90820 -169.78904 -174.04730 -171.10254 -174.70797 -176.29453 -174.28498 -178.29348 -176.16417 -172.53110 -174.70021 -177.23580 -180.27135 -180.45108 -212.62067 -279.19878 -387.42395 -569.36767 -635.30991 -845.71759 -928.58579 -1022.58087 -1020.22457 -1013.88924 -1035.16367 -1049.17426 -1049.09585 -1021.01303 -1031.66454 -1111.00760 -1197.13959 -1246.13092 -1346.55359 -1457.38488 -1468.62836 -1598.25581 -1598.52957 -1601.95442
587.62639 586.81116 420.92646 219.45181 219.58031 242.54137 223.36856 174.76691 107.30752 80.10119 4.93337 -41.70405 -75.27078 -91.34912 -98.93524 -106.93825 -120.34947 -130.54804 -131.28012 -134.93128 -135.74889 -156.81684 -154.85490 -148.32106 -143.48751 -136.99625 -131.48060 -128.51188 -133.66511 -147.73416 -159.20344 -164.34024 -169.75422 -163.75371 -159.31445 -160.85020 -151.10513 -144.87880 -126.22179 -115.87111 -123.25388 -91.92353 -91.89994 -84.61505 -82.12572 -84.55360 -86.73171 -87.73599 -97.44943 -112.84538 -129.72980 -130.27128 -121.66055 -108.92033 -107.59734 -103.73517 -98.95196 -99.28472 -102.44569 -97.72651 -112.68199 -109.70207 -120.15682 -130.26023 -141.99537 -148.73108 -153.57434 -157.47872 -152.77302 -156.98309 -167.49429 -174.23582 -168.57175 -164.82695 -175.73188 -175.64769 -169.93110 -167.72220 -169.24512 -172.42386 -172.79497 -167.87207 -168.64060 -163.20297 -166.36546 -164.97890 -169.75629 -170.96327 -165.89440 -166.11626 -165.49091 -165.73430 -170.35733 -174.58747 -169.29053 -173.53644 -173.87037 -167.01919 -171.75386 -174.45311 -172.08978 -175.18636 -173.05085 -169.85850 -172.72391 -172.53701 -171.73410 -170.81675 -176.31799 -179.01814 -178.85067 -182.17160 -229.95346 -242.04021 -339.49824 -369.86144 -456.10646 -718.21029 -858.45735 -998.62240 -1011.25461 -988.25593 -972.84984 -971.00833 -973.12697 -998.55144 -1003.87528 -1004.36851 -1042.75624 -1151.35575 -1279.36970 -1343.16015 -1405.97436 -1435.02475 -1511.16709 -1512.54107
579.78043 576.70083 410.07518 323.56092 281.43930 274.46915 232.95853 168.74060 121.16489 26.08427 -7.42687 -57.58313 -57.77536 -86.82701 -100.50073 -101.39453 -116.58927 -127.03895 -142.43981 -146.82193 -155.48318 -150.79764 -157.94628 -159.11554 -157.59286 -149.10114 -144.58543 -141.19551 -146.62031 -160.11916 -167.11553 -166.61472 -162.12061 -154.37268 -158.19134 -134.25211 -129.76545 -122.75904 -111.98964 -98.46961 -98.48631 -92.87911 -94.08989 -81.95142 -77.65989 -81.86276 -90.13225 -98.01444 -102.78922 -110.94820 -118.26231 -133.91414 -115.21355 -107.00499 -97.09193 -96.81871 -91.19566 -95.15489 -96.12062 -102.21505 -109.14805 -117.64159 -117.38056 -130.82390 -141.86993 -151.98909 -151.93877 -159.65659 -160.79673 -161.88706 -167.89734 -167.75643 -168.46408 -172.68536 -171.10110 -169.96182 -167.05502 -164.94520 -168.16610 -169.62904 -166.20225 -164.00321 -162.50521 -160.82266 -164.32908 -168.95688 -169.06769 -167.29828 -165.00519 -160.33078 -162.96727 -165.42789 -166.77542 -171.69351 -172.96408 -174.13632 -171.36681 -173.58502 -169.26218 -172.61619 -171.96994 -174.86044 -168.47679 -170.13623 -175.02953 -172.29842 -176.28264 -174.64950 -173.88245 -177.29043 -175.38609 -177.40436 -179.76437 -186.74338 -266.39551 -477.36260 -496.65176 -686.65579 -848.65726 -964.08612 -966.71997 -977.89990 -933.33150 -942.04788 -897.36613 -913.73888 -918.31408 -933.37098 -1004.92203 -1030.74704 -1127.35165 -1318.48634 -1331.99562 -1428.71334 -1428.86000 -1434.25512
535.54026 533.18392 528.19262 247.65734 262.86670 219.76009 142.33506 119.83467 96.42616 74.63296 -6.21378 -6.04830 -44.32503 -44.39177 -70.20576 -90.49196 -96.92014 -116.77606 -121.86571 -136.51900 -139.40683 -154.25459 -155.16785 -159.64164 -168.88417 -155.61029 -152.89548 -152.24535 -156.89455 -158.80940 -165.06100 -164.60502 -150.45310 -133.28336 -125.21421 -120.18588 -128.40121 -102.03880 -91.56568 -82.15121 -84.36676 -84.04206 -83.88298 -79.22375 -86.46953 -94.56720 -107.85633 -110.40639 -115.57554 -114.33313 -115.69466 -115.29512 -107.79331 -92.39577 -98.25253 -92.65117 -93.24167 -94.59404 -95.97379 -104.26046 -110.82428 -112.93056 -119.83590 -125.81857 -124.56710 -138.39902 -157.31986 -160.92428 -159.17857 -166.92404 -164.44640 -168.33173 -170.23299 -164.19438 -163.36246 -165.70062 -164.45273 -168.24834 -169.06920 -166.39722 -164.03379 -164.10995 -163.03784 -160.53572 -159.71703 -164.01526 -163.13867 -163.31493 -166.33404 -167.78230 -167.52685 -166.71082 -169.65130 -176.34846 -171.57369 -176.84275 -169.95258 -170.90428 -178.32780 -176.07480 -177.47001 -174.92498 -175.10112 -173.02097 -173.61163 -174.70859 -175.08678 -170.29971 -176.51749 -176.72589 -174.39729 -177.15838 -192.84389 -204.12464 -220.46690 -462.26492 -678.66263 -845.34780 -888.80887 -942.38049 -933.90546 -897.86130 -872.92611 -880.85407 -851.01615 -848.87946 -851.52033 -856.77021 -928.06426 -962.82950 -1025.73599 -1138.08865 -1241.72617 -1309.50606 -1355.31639 -1362.70733
482.87680 487.81492 370.00816 233.31327 183.35264 166.02243 77.42951 93.70745 132.54574 136.44312 90.06820 17.01390 5.95620 -30.09571 -45.96425 -66.14452 -71.15230 -100.14287 -109.33699 -123.36514 -138.74158 -130.07994 -135.76878 -163.18595 -165.63257 -161.57469 -165.43748 -157.87861 -162.80062 -165.66021 -164.50473 -152.72459 -151.55861 -132.23830 -120.53297 -96.94450 -100.54511 -88.77451 -86.40418 -79.42980 -79.73423 -82.60387 -80.63463 -84.43653 -101.26405 -102.64475 -112.64862 -116.67259 -113.83250 -105.79921 -102.80265 -102.31076 -96.01694 -97.85125 -95.78606 -100.39605 -106.38301 -105.26733 -105.14691 -105.63665 -115.41673 -121.09708 -120.15866 -119.36588 -123.78327 -133.24121 -145.87136 -157.23469 -155.62079 -160.41439 -161.60290 -161.76025 -155.28623 -162.40387 -160.98837 -157.15331 -160.50974 -163.78044 -158.99495 -156.44432 -165.24998 -163.05950 -160.06944 -157.23786 -152.11306 -153.75216 -160.57233 -166.98724 -169.66010 -175.77388 -169.77700 -171.70021 -170.33835 -175.06775 -179.80191 -172.33825 -173.30329 -176.11340 -176.64037 -175.00157 -172.71206 -175.40032 -178.64399 -175.31997 -178.04853 -171.98501 -178.02660 -172.84452 -174.00878 -175.67879 -175.37483 -176.34125 -179.08749 -200.66428 -295.77587 -451.35411 -748.34003 -827.80090 -893.88788 -914.77176 -901.36511 -886.49690 -859.47242 -816.22708 -805.65853 -804.18118 -819.59848 -833.16807 -871.27405 -890.52062 -917.55038 -1039.06367 -1149.47196 -1267.36591 -1301.50445 -1295.64664
475.83857 472.41421 322.03630 191.02959 109.23321 56.18094 71.26063 82.71505 146.40516 149.06571 88.17620 46.55142 20.19567 -25.10394 -44.58887 -66.11016 -55.73266 -68.17573 -81.99943 -107.44302 -119.64111 -117.74991 -122.36529 -136.39803 -156.22259 -163.51209 -161.95028 -161.71403 -163.04910 -160.77584 -166.46800 -151.78255 -146.58324 -132.40867 -102.22345 -90.99562 -76.07435 -65.40299 -66.19799 -69.61078 -75.38497 -83.42971 -83.01056 -86.90777 -100.32383 -102.52656 -107.03977 -109.07190 -106.12904 -99.60664 -95.64562 -95.77230 -100.73763 -99.92134 -100.38387 -108.52436 -116.18828 -118.62620 -119.09576 -114.07179 -112.73699 -117.42452 -116.13736 -118.99621 -125.75700 -134.20050 -144.32443 -157.85915 -154.83439 -159.81510 -157.91527 -163.58229 -165.72975 -159.84103 -155.66995 -158.32000 -157.82458 -159.10447 -160.50933 -164.48736 -159.53064 -160.16750 -160.60383 -159.64713 -154.06824 -154.62654 -164.76496 -168.87806 -172.62302 -167.89748 -173.44523 -172.99125 -174.46578 -177.72939 -175.05145 -172.26098 -172.88709 -170.00033 -174.54520 -174.52623 -176.72955 -177.13660 -172.25417 -173.13065 -175.64422 -171.25929 -174.05214 -174.85295 -177.13862 -177.87524 -175.16495 -173.12314 -180.04228 -201.57139 -338.76270 -427.03760 -697.42669 -777.71045 -849.31643 -884.34531 -885.08004 -869.61177 -816.84758 -784.02892 -756.80194 -752.91267 -759.82398 -766.28461 -810.56857 -832.09521 -899.70027 -989.98280 -1047.43531 -1249.05608 -1249.61755 -1251.54225
327.58087 326.91118 353.53958 102.84466 96.66340 54.45230 33.70836 72.28917 129.56284 130.99949 89.66008 77.30749 55.78139 5.36962 -8.22862 -38.96279 -29.72765 -43.03639 -65.66625 -72.52290 -89.93647 -90.94096 -117.18865 -141.76679 -152.31106 -146.26377 -161.56069 -157.79556 -163.84412 -163.07572 -156.41865 -147.98638 -128.74327 -127.24515 -106.73683 -81.42402 -63.37579 -60.90991 -61.01087 -65.46556 -80.11031 -80.16678 -84.98944 -94.81277 -101.85147 -106.48191 -101.37148 -95.55385 -87.57342 -88.04893 -92.54628 -94.29173 -98.37170 -99.67899 -110.55786 -117.57206 -125.56170 -127.88282 -128.17309 -130.88902 -124.29215 -126.74400 -130.11669 -121.77908 -136.41558 -146.88538 -161.96834 -159.01631 -163.77507 -154.87205 -165.82140 -166.86111 -161.62051 -157.21895 -153.64899 -155.53646 -158.80761 -158.45496 -161.17176 -158.55561 -160.58443 -159.13438 -166.69951 -155.37105 -157.47799 -160.79768 -164.86849 -168.43439 -174.38951 -175.10023 -172.21506 -171.61899 -176.97145 -177.06743 -177.65359 -173.06316 -175.83437 -171.14187 -170.22178 -174.79753 -174.90833 -174.14168 -178.79657 -175.06210 -171.35426 -174.63292 -173.76806 -171.42595 -176.13009 -174.44926 -176.60878 -173.64581 -177.52191 -179.42222 -283.35054 -391.92864 -517.29327 -700.90788 -797.55076 -824.35056 -850.09403 -840.68353 -815.41399 -759.45351 -741.74522 -732.51767 -731.87085 -722.64547 -754.92119 -795.35374 -867.56670 -963.26239 -1045.71179 -1142.33600 -1204.99671 -1203.36030
275.22720 275.18545 179.41597 118.11930 72.90386 42.81118 21.73378 63.67615 99.88377 92.02404 82.41866 75.10277 69.97948 32.40633 2.74230 -19.33235 -20.05943 -24.86804 -63.87541 -82.54226 -89.02638 -115.71733 -126.22639 -149.22658 -143.19105 -137.05359 -140.48299 -146.03462 -141.35590 -139.63700 -141.58942 -148.54691 -134.78348 -121.27333 -100.34253 -73.18283 -62.02316 -54.27562 -59.63024 -69.94994 -73.48157 -86.51974 -90.31330 -99.33240 -99.51233 -100.16114 -88.34323 -80.57612 -84.21887 -81.40983 -86.37983 -98.76265 -96.69641 -102.41089 -117.30250 -115.61403 -114.08295 -121.58128 -120.07926 -133.11761 -136.54226 -138.13901 -134.20537 -137.85294 -151.99429 -160.61426 -164.86305 -162.39981 -160.85176 -161.89526 -170.54984 -171.02187 -169.12862 -163.55239 -162.26714 -157.60751 -158.67174 -156.88550 -161.55378 -160.88761 -167.70310 -164.70947 -163.58360 -161.36563 -161.43230 -164.41758 -167.32677 -174.24308 -175.23982 -176.92013 -170.54723 -171.70595 -173.64236 -173.02878 -173.34914 -176.24283 -171.41506 -162.23793 -172.22954 -170.19702 -174.39088 -173.61894 -172.68255 -170.73620 -173.06336 -174.03677 -173.18019 -176.77337 -172.82631 -174.04779 -173.07001 -171.96679 -179.27655 -182.54464 -239.60235 -279.22265 -455.71441 -611.96247 -702.63490 -806.63107 -823.71509 -814.31788 -754.96097 -716.08788 -711.53690 -687.82331 -695.60682 -710.30895 -753.76856 -786.95674 -807.69964 -929.15407 -984.14491 -1118.53290 -1163.54243 -1164.01508
275.20791 276.33345 183.24613 83.46851 46.57306 9.40109 23.27490 52.88454 76.18130 69.56835 51.77655 61.87955 68.04922 59.59556 30.27453 -2.06786 -21.19986 -36.52647 -74.49780 -108.25565 -113.24036 -124.92341 -133.90365 -135.82477 -122.52426 -112.00174 -130.16466 -138.84800 -133.31526 -124.07373 -136.99471 -132.07582 -125.87986 -116.89591 -102.65142 -80.96484 -49.67286 -50.14216 -60.12926 -76.97433 -85.60123 -86.06125 -92.69387 -96.04479 -91.90027 -82.28086 -81.33721 -69.30392 -66.12966 -72.46871 -74.38040 -92.07011 -94.41523 -97.63923 -108.87517 -107.18982 -110.92812 -112.67336 -124.33303 -132.01498 -139.47793 -146.01432 -150.65382 -144.99677 -153.82602 -164.56430 -158.15229 -159.29955 -154.09229 -159.51435 -167.86615 -166.25690 -173.44781 -167.26913 -160.64090 -159.16748 -162.39265 -160.19352 -164.07292 -160.86040 -169.96774 -163.80593 -169.76206 -171.38445 -164.83278 -166.32168 -169.89464 -173.33917 -176.81756 -174.64104 -177.02877 -175.83824 -174.74568 -174.09894 -171.12757 -166.67444 -167.89181 -171.66071 -167.13797 -170.96347 -166.50061 -169.39411 -174.80623 -173.95914 -172.64516 -175.32681 -171.21157 -175.94490 -175.55984 -175.58230 -176.89592 -177.27958 -175.62171 -174.35879 -176.68135 -184.15749 -395.36841 -511.63634 -666.72583 -761.53476 -793.37372 -782.13535 -721.98687 -708.59011 -673.98800 -676.54722 -669.88595 -683.73586 -720.08709 -746.45800 -791.65087 -874.59776 -908.49623 -1119.87208 -1118.89980 -1118.09715
342.12811 342.75684 221.61189 95.78951 56.38059 12.80215 6.93839 13.59475 33.90435 29.19449 39.65994 42.38457 51.86541 49.98464 24.27325 -10.54620 -15.63176 -34.13216 -73.24184 -118.69406 -121.64911 -121.79738 -124.72276 -122.33203 -123.24306 -114.80302 -122.93133 -127.66998 -114.85560 -109.91714 -106.50667 -111.23477 -126.71520 -96.99443 -90.29861 -66.46812 -49.71777 -48.88664 -59.43265 -69.67277 -78.45137 -84.28569 -83.93622 -91.97998 -82.36656 -75.04863 -73.71270 -60.73088 -57.67750 -59.15281 -72.47496 -82.47011 -83.83291 -92.35014 -89.51492 -94.53910 -101.11541 -110.74623 -120.46666 -131.84466 -133.85152 -136.83416 -143.14567 -146.26093 -153.62743 -151.52706 -146.07107 -150.30531 -151.05087 -157.91247 -162.35346 -167.81898 -168.53095 -170.05038 -167.54224 -168.89574 -166.32195 -167.29641 -162.74781 -169.92328 -171.00518 -170.36574 -173.12406 -168.56017 -166.81767 -172.96709 -172.62727 -174.29127 -176.35325 -169.67088 -172.80116 -171.22732 -172.30311 -174.37628 -169.83737 -167.70188 -160.68862 -162.97593 -162.85550 -170.14980 -166.96923 -174.02580 -167.44233 -174.20369 -168.85515 -172.16402 -172.56096 -174.39756 -175.38138 -176.68067 -171.34596 -172.25343 -174.44319 -171.67189 -179.42921 -181.16225 -323.57777 -539.33661 -647.66636 -707.66475 -760.09172 -720.73212 -682.35416 -635.14780 -643.10241 -643.42366 -639.85139 -643.45531 -680.06583 -701.28946 -757.30970 -801.86618 -882.37111 -977.64354 -1067.83497 -1066.18949
308.05480 309.86549 212.56282 105.63861 85.59271 22.95368 -13.83265 -9.39666 -18.99413 1.54751 21.62469 49.29851 58.62190 56.43715 22.34905 -7.40619 -30.73401 -59.36335 -92.13250 -105.19048 -106.30162 -115.23792 -93.88464 -100.47165 -93.11332 -108.31683 -116.81729 -124.47621 -111.19237 -93.31075 -84.34723 -88.29830 -98.17974 -90.53056 -66.43235 -51.59048 -46.99099 -48.76349 -58.79192 -70.61902 -79.08301 -81.85571 -77.30551 -73.86405 -73.76891 -63.02583 -62.52867 -43.15804 -48.57513 -57.81505 -65.47733 -84.86052 -90.44457 -88.44270 -91.04753 -93.69046 -92.56443 -99.91094 -124.15126 -133.12129 -132.19660 -137.02459 -133.93090 -143.58813 -141.69576 -137.94600 -144.99394 -139.64011 -141.62734 -147.53171 -146.95072 -160.17219 -163.52177 -165.58171 -170.56516 -167.57835 -166.09982 -165.91991 -165.54701 -169.06641 -170.87019 -168.95167 -170.04990 -175.79263 -174.37928 -172.34020 -172.38923 -173.35137 -168.21805 -171.71254 -171.31345 -165.32899 -171.57407 -172.73308 -169.45134 -167.49625 -162.66946 -162.73671 -166.34943 -166.25951 -166.07069 -167.24878 -171.97736 -174.68389 -179.05462 -171.71407 -179.74106 -179.68865 -175.92532 -172.78563 -176.30213 -173.63759 -176.99651 -171.14178 -174.85331 -177.36830 -375.07360 -527.12844 -550.27900 -687.67988 -704.27081 -687.27243 -642.61354 -622.11084 -593.30625 -606.96076 -606.13542 -628.72600 -654.63821 -699.55624 -706.09671 -749.78608 -835.90463 -970.24130 -1008.87417 -1001.57750
284.68857 280.90876 206.57762 107.64200 81.60982 34.54488 -9.63121 -15.02886 -21.89755 -12.33655 19.56481 54.80770 64.16655 60.45135 48.79711 1.93485 -40.84116 -67.39428 -61.89972 -79.31622 -84.60716 -92.38679 -91.21544 -78.20601 -85.55106 -84.42174 -101.97817 -106.99452 -102.59216 -91.57534 -74.44440 -78.84802 -81.03781 -70.58037 -47.59036 -36.29471 -45.73928 -48.44487 -52.70483 -64.89815 -60.51010 -74.00241 -74.01851 -58.67179 -57.33586 -60.45713 -50.84210 -47.40525 -42.06472 -52.31723 -69.73428 -91.50832 -95.90353 -102.73770 -103.33499 -101.83505 -98.97540 -106.51388 -124.12863 -139.11168 -138.03964 -133.73111 -136.55520 -142.32182 -132.75947 -133.15531 -139.15354 -143.51889 -132.30305 -140.28551 -138.30220 -148.39318 -151.31158 -158.61832 -165.67929 -169.15920 -171.32012 -172.07402 -173.18236 -172.13374 -171.08061 -169.05081 -174.27669 -171.31150 -178.41458 -177.00244 -177.48922 -168.09142 -169.17528 -166.35168 -159.75080 -167.62054 -167.80902 -168.20194 -169.20177 -169.21524 -166.62039 -166.93982 -168.12620 -169.05414 -171.29394 -174.41878 -171.22550 -174.92188 -171.22124 -172.51890 -175.66262 -169.68261 -171.00697 -171.62138 -177.06939 -171.20923 -173.19034 -173.07103 -174.93026 -176.64488 -252.08421 -394.17441 -525.36672 -645.64412 -660.86536 -613.38229 -605.87349 -586.99187 -575.64423 -556.58598 -568.64990 -589.45207 -589.90676 -628.75613 -659.02247 -709.15064 -727.28696 -927.71272 -933.10531 -932.91210
275.66243 275.87950 193.79944 78.40967 41.38281 36.82073 8.92940 -15.98728 -25.51315 -7.01580 3.32482 51.60219 86.00489 73.47725 56.18173 25.47586 -10.09212 -46.18420 -60.04707 -69.50785 -75.18931 -73.47137 -76.32923 -55.57936 -54.70328 -68.44577 -84.45975 -98.65583 -96.32617 -89.36762 -71.79616 -57.02857 -56.74890 -37.49246 -32.52870 -28.29999 -37.41535 -36.94480 -46.25655 -49.16548 -55.10316 -66.13085 -65.00358 -55.26756 -45.94592 -45.93186 -40.82873 -40.37875 -40.03264 -62.27840 -85.38784 -107.53426 -102.38259 -112.25227 -124.78686 -113.14547 -103.41513 -112.75033 -138.24474 -142.54735 -152.39471 -146.23067 -149.78456 -153.69738 -143.78062 -141.95851 -140.34833 -143.92786 -136.98056 -144.10909 -145.20813 -148.25487 -149.01529 -160.47585 -158.28620 -167.34629 -173.06501 -171.33032 -173.99996 -163.20442 -169.78452 -171.67204 -165.29330 -171.29473 -165.88368 -171.52152 -170.36877 -165.06957 -169.31498 -156.05459 -158.56770 -157.13676 -168.01742 -172.00595 -168.69775 -169.01355 -168.12794 -169.43405 -173.85100 -174.57192 -169.85326 -173.00679 -174.74264 -171.65371 -175.22614 -175.37584 -177.26575 -174.02527 -174.99832 -174.85671 -173.66091 -174.23748 -173.58459 -173.55452 -172.20583 -206.52220 -224.19971 -362.24419 -482.12018 -544.51390 -566.24983 -580.85361 -548.53751 -517.07518 -516.00071 -512.63619 -517.70896 -538.14634 -521.88608 -559.44412 -582.36498 -652.12168 -707.02840 -795.03158 -855.56587 -854.47672
226.17867 224.58573 214.22482 80.93701 27.22420 14.77438 -4.94934 -25.24018 -36.36687 -10.54750 14.60695 51.51011 64.16325 71.31204 53.50923 46.03767 18.86810 -6.55290 -22.42170 -39.73509 -57.29215 -51.36963 -51.25568 -48.35806 -36.58921 -46.36970 -67.28566 -95.64924 -98.75145 -86.42925 -64.57985 -29.43735 -32.33605 -20.08452 -15.05192 -24.40243 -37.15364 -45.34303 -45.31725 -45.35716 -49.21877 -54.98074 -63.37596 -49.55891 -35.52836 -44.03736 -44.33049 -42.05802 -51.24999 -78.65395 -102.20029 -111.76767 -113.53669 -125.38778 -137.49607 -131.79211 -128.30241 -123.63044 -135.37472 -153.01929 -159.13182 -165.00790 -164.69461 -153.35025 -160.57460 -151.51291 -154.44242 -147.92405 -149.70524 -143.24386 -147.05043 -155.75356 -149.54770 -165.69571 -165.33145 -165.34616 -174.19743 -179.67942 -171.55477 -167.95038 -161.59954 -162.85082 -167.67555 -162.73774 -164.21979 -166.69046 -170.92226 -174.33324 -161.84202 -159.93617 -160.14905 -171.63162 -176.47829 -173.84496 -171.34460 -175.16062 -171.87927 -166.71933 -176.85186 -177.35897 -174.27944 -175.49063 -173.91798 -177.15998 -171.89554 -171.44780 -175.02594 -172.05284 -177.89430 -174.19028 -177.06476 -175.60803 -176.47795 -175.32887 -179.67475 -176.03801 -208.86280 -224.28854 -454.50966 -514.57160 -532.75275 -513.26044 -490.89886 -485.50309 -463.84258 -460.61944 -483.52003 -475.75618 -499.92395 -504.86654 -551.52385 -608.97370 -655.27103 -751.50925 -778.20944 -779.62785
136.86956 138.38837 159.07797 28.04174 -1.13204 6.79688 -18.78910 -36.84012 -36.14629 -20.62749 7.27167 33.73044 57.72347 45.65752 49.88805 44.28386 34.04509 21.19933 -2.38242 -16.31836 -14.13014 -13.63967 -19.56729 -19.56301 -30.14238 -39.16912 -57.46057 -68.03646 -87.25950 -71.06252 -37.05895 -8.28029 -2.65181 -8.76453 -23.38175 -41.74257 -52.37870 -56.58390 -50.19811 -45.62786 -45.51273 -48.07612 -54.44101 -45.86130 -41.81657 -53.38718 -56.50234 -62.70897 -70.90618 -86.23750 -113.77992 -113.89148 -129.13776 -136.74299 -144.41324 -135.40989 -128.69653 -131.41782 -142.72688 -149.44342 -161.44068 -168.53146 -167.82153 -164.77345 -168.76467 -160.50815 -164.15717 -163.29326 -156.81137 -156.45426 -161.84021 -159.99725 -159.24625 -160.82160 -160.86362 -168.39437 -173.84113 -175.96174 -171.36615 -168.61482 -156.30596 -158.34348 -152.52945 -159.10810 -156.61710 -163.80600 -164.82238 -166.19434 -165.55743 -164.50546 -167.18081 -174.88758 -176.28177 -170.09101 -178.16367 -173.70219 -175.97472 -171.92915 -173.43617 -174.70808 -172.01255 -172.36093 -175.12866 -179.60486 -172.83087 -174.37132 -172.68953 -172.30474 -170.45298 -172.19951 -170.29654 -178.68454 -169.81420 -179.12238 -177.14936 -179.61430 -173.99872 -233.31973 -312.50899 -383.14628 -453.82876 -467.32648 -470.75900 -444.38226 -459.16665 -438.53542 -438.11296 -441.88092 -456.68412 -480.65914 -496.65215 -522.08472 -577.26875 -626.90757 -702.92728 -704.74203
119.04642 118.53891 66.83681 6.67285 -11.15456 -11.65680 -26.52242 -35.72956 -40.80583 -31.41696 6.10011 16.29841 38.40670 41.94572 49.76613 53.86219 45.56826 31.63911 50.33674 50.96168 54.89992 15.18173 23.95189 2.59024 -9.47774 -12.30464 -25.45622 -50.35833 -31.55542 -19.89470 15.07619 23.09510 16.44903 -2.91876 -25.69258 -56.07699 -61.82836 -68.31798 -51.41066 -52.09534 -62.20650 -64.44197 -59.72327 -60.73383 -61.42634 -61.21205 -74.38367 -87.78760 -88.96706 -102.56016 -112.81276 -127.34377 -134.08435 -140.97232 -145.70534 -147.36304 -138.61238 -143.67026 -148.00321 -159.10479 -156.87858 -162.97863 -159.35724 -154.11677 -161.14041 -161.99085 -169.47830 -165.47345 -165.03911 -163.66762 -166.20742 -169.10041 -166.12316 -167.53300 -161.31044 -167.26755 -177.51824 -176.15531 -171.33003 -161.60729 -155.83894 -154.11587 -148.84331 -153.54591 -153.28563 -157.72372 -166.15285 -161.52586 -165.51677 -162.62707 -172.11497 -172.86151 -170.87188 -170.84603 -172.61556 -169.95923 -172.43537 -174.42200 -172.69492 -177.52841 -175.08207 -175.58104 -174.83751 -172.26258 -172.82469 -176.44835 -174.37068 -168.86388 -168.77438 -175.04072 -176.28935 -175.81663 -176.68348 -174.72162 -176.42593 -178.55561 -190.06967 -237.85473 -286.90976 -397.79205 -406.35378 -431.41956 -424.51135 -418.27364 -422.89044 -414.28612 -417.90046 -426.38418 -444.83434 -466.15359 -473.67336 -507.59103 -553.54518 -623.64121 -640.54015 -636.62118
113.73822 119.13850 71.76284 1.63786 -13.94158 -24.60742 -38.79873 -48.42214 -44.26158 -31.86845 -9.51110 25.73890 37.20633 35.26496 30.73495 36.28128 51.58627 64.90215 86.19060 97.18779 75.40486 36.02020 28.08881 24.58909 14.69973 19.24715 5.85905 -15.35656 -11.20313 28.92264 30.11036 35.26268 -6.62067 -6.58640 -33.06188 -75.01160 -83.43447 -75.09491 -57.63852 -59.38292 -73.29325 -76.81242 -86.97277 -72.38563 -63.65949 -69.80579 -83.87341 -98.63007 -110.00888 -112.40010 -122.79445 -128.60058 -127.49773 -137.28385 -148.52901 -153.20900 -153.55997 -160.24942 -160.47946 -160.04916 -158.26514 -151.85249 -143.93480 -147.00886 -151.00588 -162.22234 -169.98116 -171.63534 -167.21562 -168.12485 -169.24158 -168.75278 -165.17020 -166.22354 -161.43931 -165.76957 -171.36373 -169.95961 -177.04450 -162.12927 -155.04421 -144.02340 -144.21444 -148.78283 -149.78484 -156.43886 -163.90219 -168.47531 -171.63428 -171.13336 -170.11850 -173.48193 -168.72262 -172.72290 -174.07215 -176.99662 -170.76006 -167.79919 -172.75261 -174.67984 -177.83809 -178.62485 -176.36016 -172.06786 -178.06306 -169.85702 -175.12878 -174.86150 -172.18842 -172.01319 -173.65177 -172.44940 -174.22729 -176.11640 -174.99173 -178.73299 -193.47342 -211.41233 -308.43868 -336.12764 -386.98507 -392.63064 -388.63550 -380.77165 -388.26475 -395.29151 -397.80678 -422.85119 -421.32731 -434.69654 -460.52967 -497.73352 -520.84013 -565.77770 -589.78830 -591.29961
122.13945 121.69114 63.66459 -12.51509 -22.76644 -40.89254 -53.74548 -50.25505 -46.35662 -25.51114 -23.93371 10.27299 9.42182 7.41704 6.86880 9.65604 54.99648 80.88859 90.92773 107.48501 75.58961 46.74611 34.87713 12.41990 8.13157 22.54195 10.91229 10.15812 19.77267 38.13651 57.56122 16.61537 -22.29739 -37.54771 -65.87209 -88.83351 -90.65328 -85.65603 -89.71371 -83.74348 -94.53019 -96.92154 -103.79483 -92.56579 -89.43922 -85.25447 -100.98154 -122.01089 -127.94051 -129.51659 -133.48746 -130.75036 -126.06968 -133.59359 -140.05406 -157.94752 -159.56493 -157.31833 -160.19319 -153.24725 -146.49212 -134.33495 -138.82452 -143.58172 -148.92813 -160.53767 -165.42760 -167.13862 -160.94440 -161.63834 -159.02635 -166.22207 -167.85626 -171.68230 -169.41689 -174.16495 -173.00764 -170.82438 -167.26273 -167.67616 -154.19753 -142.41565 -144.75990 -147.11700 -146.09849 -154.71241 -167.50162 -167.24543 -164.04394 -165.31814 -166.64857 -164.69914 -164.27598 -168.63600 -170.78546 -170.34404 -171.51707 -171.35998 -170.26155 -172.38203 -172.87361 -172.25289 -174.03667 -172.55739 -178.90138 -174.10059 -170.39747 -173.58806 -169.94021 -177.39996 -176.34329 -173.74048 -170.98949 -173.72970 -173.74099 -182.72606 -194.25840 -223.02042 -249.41705 -282.80218 -358.31042 -332.78111 -335.28140 -341.18898 -354.55716 -361.93886 -375.10848 -396.62413 -408.72075 -436.25014 -453.07484 -474.23489 -499.93192 -532.06234 -562.43579 -554.97821
119.22889 118.01453 73.98667 -14.74051 -29.52539 -41.30969 -50.05831 -58.95775 -50.60158 -34.98923 -28.38768 -21.89281 -18.33239 -12.64566 -11.47955 8.08850 28.37364 74.85102 85.38050 72.10344 57.61511 33.42247 17.21493 0.41832 -4.18973 0.58293 8.01103 10.13905 27.99933 50.68691 57.47544 42.52577 3.14418 -47.72372 -63.93206 -83.91720 -94.52370 -98.38285 -96.56786 -97.71524 -98.05435 -107.34954 -106.02545 -105.82784 -93.74250 -111.74743 -116.49967 -126.85033 -135.97586 -146.35240 -144.44393 -140.26641 -138.99619 -140.68204 -154.96273 -145.71464 -141.10325 -148.92554 -150.71462 -152.02079 -136.75390 -129.12311 -128.45543 -136.19670 -143.93274 -158.04280 -169.56912 -159.50970 -154.98288 -150.07686 -151.34595 -159.50768 -170.86536 -171.11632 -173.86828 -172.69608 -172.51481 -170.22382 -169.60737 -164.12336 -154.70818 -141.91331 -140.06962 -145.99410 -145.53261 -152.74715 -160.60611 -164.80175 -165.44785 -159.51917 -160.12820 -163.59833 -165.71483 -169.33704 -166.11249 -167.18476 -168.87638 -171.04881 -173.73552 -174.54613 -176.28589 -178.65922 -174.29761 -170.61396 -172.08240 -177.26944 -175.43048 -171.05347 -171.88412 -175.53948 -174.83623 -177.59018 -172.98990 -172.61623 -175.49758 -174.34061 -190.44029 -200.00864 -229.29914 -247.30762 -285.46783 -272.99569 -277.87881 -297.22259 -334.40574 -338.17735 -365.78817 -379.12796 -407.85472 -431.07267 -446.02924 -476.73817 -506.16262 -559.30433 -549.44174 -549.95817
173.95183 174.52521 87.36250 -9.40982 -17.42131 -48.45649 -54.97768 -64.79742 -49.19860 -62.26710 -54.30080 -41.77580 -40.16745 -49.32204 -22.82857 -5.56514 19.14824 26.29278 19.74815 6.67175 0.53810 3.09362 -14.33501 -34.76287 -36.18670 -8.90425 -5.04421 3.38765 16.43736 37.85804 69.42507 42.35569 -7.55275 -49.31320 -61.63049 -83.22160 -93.73005 -100.11040 -103.49046 -112.22347 -114.05483 -121.03354 -114.78949 -116.27611 -118.55532 -127.73392 -129.28405 -141.69533 -139.49681 -146.77672 -150.12652 -148.62648 -147.84616 -156.27267 -146.16567 -140.79909 -135.03116 -137.61982 -137.04023 -151.00535 -135.82140 -127.44446 -117.99429 -124.21833 -144.56350 -153.33793 -156.73051 -158.65017 -150.77557 -142.96449 -156.23722 -158.83401 -171.87847 -168.00394 -172.01813 -164.55932 -164.13367 -165.44548 -167.84399 -169.17340 -150.31353 -144.29042 -136.46643 -142.82825 -147.20336 -153.10195 -156.92629 -158.98900 -160.64265 -155.88376 -158.50431 -163.49600 -162.88429 -171.09370 -172.31437 -172.74266 -165.50644 -173.65875 -173.92781 -175.36149 -177.65104 -173.00391 -171.00043 -170.73997 -176.11367 -173.89044 -174.83634 -172.24033 -175.27235 -171.56490 -172.99890 -171.78319 -174.37157 -175.77236 -177.04580 -173.53672 -174.17993 -189.07258 -176.76499 -188.11135 -216.64021 -221.55375 -252.27364 -261.88953 -289.84182 -294.44837 -316.47624 -361.15718 -376.34993 -430.65740 -447.86739 -492.43620 -533.06060 -581.07244 -580.08989 -577.09935
134.22788 134.12572 84.20866 -12.40859 -19.84753 -39.16843 -44.01590 -47.92544 -50.21983 -49.36025 -66.79577 -62.03546 -58.13168 -57.32040 -28.85704 -30.30632 -14.06051 -16.04618 -17.30685 -10.11956 -5.91087 -14.61149 -37.25897 -47.23691 -47.64001 -35.22933 -12.46557 -1.99430 -4.20768 13.29226 39.52444 25.09053 -4.52663 -49.50665 -62.04776 -80.61261 -73.94414 -97.36567 -97.13598 -101.00728 -109.28408 -119.11020 -118.03439 -122.67063 -130.27674 -128.38555 -135.04317 -137.27227 -145.62588 -146.20966 -146.97744 -146.36475 -143.71879 -144.69107 -142.58545 -140.74230 -123.11181 -128.31777 -128.80186 -133.18708 -127.71265 -117.27782 -112.11662 -117.51805 -137.42347 -148.76866 -155.18129 -149.51269 -146.36496 -145.10960 -147.47062 -154.62590 -160.85663 -159.38521 -157.40384 -156.59492 -158.74313 -163.51287 -172.21382 -162.83046 -147.94981 -142.59869 -137.16980 -143.69038 -144.96314 -146.34184 -150.78918 -152.04448 -158.50311 -156.82681 -161.08273 -167.83245 -167.79521 -165.35391 -169.23552 -167.07808 -170.63262 -175.40442 -172.74919 -172.00197 -169.23662 -171.21589 -171.02277 -170.41274 -171.67945 -170.84734 -171.97515 -173.31344 -173.22208 -176.86747 -178.29224 -173.88348 -173.49222 -174.82519 -173.58706 -175.12932 -173.80578 -172.23259 -173.18984 -188.63566 -206.70514 -208.58820 -208.00353 -246.96946 -253.87282 -279.18948 -302.87351 -311.44607 -378.82648 -406.10375 -444.59353 -546.65741 -549.97323 -591.81084 -637.63101 -642.70315
177.74275 175.36057 170.48445 28.09035 -15.17572 -19.68830 -30.30294 -25.94669 -32.75832 -49.45415 -58.27635 -70.76490 -67.81967 -61.94751 -41.26165 -37.83783 -21.79401 -24.24952 -38.75227 -24.06273 -4.78414 -9.52559 -36.92179 -57.26182 -61.45818 -44.69967 -32.39519 -33.03911 -35.82215 -3.31070 25.17485 3.63122 -0.92785 -30.91558 -56.85796 -49.33088 -31.60665 -61.72340 -72.90987 -77.80136 -83.06237 -93.78136 -114.87037 -116.44581 -119.20106 -127.50640 -127.13308 -126.89070 -130.19757 -137.26471 -123.66126 -128.90903 -132.14490 -142.77431 -138.41878 -123.64172 -123.18153 -112.41886 -108.54052 -119.01569 -126.05604 -113.32379 -106.29914 -121.94411 -130.01421 -134.99362 -141.94006 -135.98418 -139.48233 -134.44957 -140.57524 -144.92881 -143.17145 -147.54884 -143.64280 -152.76207 -145.43521 -155.30730 -163.66983 -157.03043 -148.70619 -141.34383 -140.89033 -134.45131 -143.93052 -145.09973 -151.03385 -151.59595 -154.18305 -154.48206 -160.34133 -165.35237 -163.95861 -172.75640 -173.20324 -170.94630 -170.20863 -175.83189 -174.30101 -173.76973 -176.50416 -169.88928 -164.20057 -168.26072 -173.23798 -169.96125 -176.51086 -173.83429 -175.19047 -174.93323 -176.66614 -176.09291 -178.96516 -178.88400 -176.07947 -178.58670 -175.46131 -172.98259 -172.27238 -178.40238 -190.52537 -177.49225 -196.81314 -195.16245 -237.88135 -244.10942 -269.11819 -306.48496 -365.23543 -404.18267 -469.10282 -541.93282 -601.17057 -640.79900 -671.43803 -668.31947
186.73689 179.08863 184.81650 35.62408 -12.13864 -9.68188 -14.96284 -22.05136 -35.24458 -44.94428 -66.05215 -80.90483 -76.40401 -71.54441 -60.24277 -55.41517 -58.33452 -45.07834 -37.13808 -17.87812 6.37110 4.69658 -25.91291 -52.55388 -64.84283 -71.73076 -56.68935 -47.77540 -44.10608 -19.37188 7.22100 12.59957 -8.51410 -22.35984 -38.76996 -31.70294 -27.47899 -33.01379 -49.37223 -58.59721 -65.66152 -82.73351 -98.98273 -110.15737 -117.05675 -113.00952 -112.35075 -116.65122 -124.78281 -120.37029 -117.84154 -102.22133 -105.15974 -107.19831 -111.71561 -112.61591 -114.44950 -100.79233 -107.53161 -114.45998 -122.92943 -112.17935 -102.47036 -109.21271 -129.84017 -131.54339 -126.51913 -121.09456 -123.15515 -127.00736 -135.45886 -131.37738 -143.66734 -141.77909 -138.05269 -136.70111 -143.07197 -151.86528 -150.32427 -145.69557 -146.80838 -141.33735 -141.76228 -142.93558 -142.51851 -142.22621 -146.66097 -149.16260 -158.60570 -158.86891 -162.93456 -168.89189 -171.04539 -170.73207 -169.45502 -171.03296 -174.97904 -171.49423 -170.88175 -172.68628 -173.60633 -167.41807 -169.74858 -170.77356 -168.59556 -171.67081 -170.86563 -170.25875 -174.59324 -171.20831 -179.25357 -179.84623 -176.08463 -176.77295 -174.70813 -175.63531 -173.40172 -176.94304 -171.99783 -174.95307 -180.21075 -180.09668 -186.83581 -190.08202 -206.37777 -217.98391 -246.44792 -271.95662 -329.48126 -376.32870 -474.18994 -523.41462 -587.51475 -641.35133 -651.13984 -648.25395
183.75515 188.76602 110.20992 40.59265 43.63264 0.47808 -4.27088 -28.34729 -42.45825 -55.27200 -75.30307 -79.54619 -86.01595 -85.68014 -76.58063 -70.86054 -72.54839 -52.45205 -38.79843 -19.76851 -0.85399 -0.30315 -8.34751 -33.07081 -63.40667 -76.21551 -75.34378 -63.62451 -57.60726 -24.49398 -3.96469 18.87755 7.50762 -5.39650 -2.58128 -4.78694 3.24249 -11.60291 -32.17157 -44.71552 -53.24736 -73.00584 -99.96771 -99.07933 -101.83025 -97.47388 -109.67659 -113.53981 -115.68645 -108.78976 -107.02900 -92.81215 -90.50972 -90.17231 -101.62805 -105.04109 -90.39971 -97.41931 -100.05257 -98.74063 -98.62361 -92.13683 -94.88001 -102.88098 -104.60845 -118.22787 -125.21164 -123.00536 -122.28931 -131.08819 -132.54729 -134.44247 -140.05629 -136.46315 -136.93001 -137.82187 -140.53560 -147.15849 -143.82226 -145.58955 -144.67481 -141.20350 -141.72421 -142.62524 -141.96451 -141.69884 -140.86701 -151.05301 -153.62776 -158.04692 -160.27008 -164.95272 -173.33277 -174.71125 -171.58698 -169.10889 -172.09650 -168.68444 -169.87342 -170.31039 -164.35242 -163.37063 -162.20378 -162.46253 -162.57367 -170.45165 -169.73424 -173.03597 -173.18588 -172.78697 -173.72639 -174.68839 -172.63556 -169.34390 -172.29600 -175.66099 -172.12758 -171.48539 -175.67203 -177.66352 -174.12704 -173.84687 -185.13281 -182.04103 -179.99898 -189.18162 -213.83676 -253.71092 -293.27849 -320.71347 -420.27182 -516.69304 -529.05107 -609.85119 -613.63922 -610.16735
186.03993 182.78590 112.14138 80.56906 82.37352 42.78438 1.85526 -16.23187 -39.16857 -42.01312 -63.88785 -72.94198 -83.16001 -88.41669 -95.96922 -84.44595 -92.37970 -76.64374 -49.54024 -25.34353 -16.40121 -2.43261 -27.97596 -40.70203 -62.80651 -76.85894 -72.40617 -64.81332 -39.94532 -13.79052 -4.27748 3.17424 -2.18387 -14.44026 -4.91632 6.48708 5.68419 2.11204 -5.74787 -17.65615 -46.18355 -69.52076 -88.01222 -92.44678 -89.18951 -78.88901 -86.31101 -96.79743 -106.95247 -110.19089 -109.80329 -94.93612 -83.85396 -85.68335 -94.34268 -94.66991 -94.89303 -88.68227 -86.43571 -86.01145 -89.22830 -85.19249 -82.81533 -91.57932 -101.57051 -113.87719 -110.00725 -118.47026 -123.25830 -119.26602 -131.45066 -132.92927 -146.44008 -147.99998 -145.96467 -145.15787 -150.72438 -142.93761 -142.54344 -146.27633 -148.31553 -147.96256 -153.47253 -149.88942 -142.26524 -149.13309 -145.18308 -149.32773 -151.64750 -160.68106 -159.59463 -161.04533 -165.40367 -167.68367 -172.75141 -174.08230 -171.97742 -170.19351 -169.97019 -165.75024 -163.99111 -163.26956 -161.93161 -162.62327 -167.66720 -169.89661 -170.19258 -173.61487 -173.18977 -173.36720 -174.08844 -175.90905 -172.98193 -173.76458 -172.23124 -167.32993 -174.34796 -177.63537 -174.68989 -176.14049 -175.78444 -173.96649 -170.21248 -172.22488 -170.62116 -178.27365 -198.35368 -236.31936 -244.10332 -275.28198 -378.96628 -470.69357 -508.97700 -539.32512 -564.66678 -564.77320
245.20048 248.40538 204.56909 99.36266 124.92339 88.52148 49.74588 7.94623 -20.04761 -42.16837 -47.16089 -63.18140 -81.39160 -78.49084 -84.87688 -93.73359 -94.04410 -89.09781 -67.81863 -34.55164 -32.83496 -30.18162 -37.03845 -62.13774 -73.13043 -84.06889 -71.43012 -40.71189 -29.62762 -14.80543 -5.28258 -10.70610 -18.99267 -21.39209 -11.11978 1.30569 6.26160 6.70003 2.34748 -8.60819 -16.94465 -54.08954 -72.65102 -80.42860 -62.53990 -54.92355 -71.43902 -79.44337 -86.22596 -87.39357 -99.35679 -87.68147 -78.31511 -73.23148 -85.54714 -85.72159 -86.43050 -84.84194 -88.03380 -84.53120 -88.20318 -85.81333 -82.50352 -86.99430 -99.02261 -99.76121 -103.65720 -109.96202 -114.44729 -117.37888 -125.16717 -130.57605 -143.88664 -158.81628 -155.13180 -161.04372 -150.71442 -150.25799 -147.44209 -155.41456 -154.94633 -163.49465 -155.42718 -152.08002 -155.74933 -150.15365 -148.26690 -156.84237 -159.92922 -165.16277 -160.33235 -166.87809 -165.83699 -173.77820 -169.96199 -174.91140 -168.22462 -168.61290 -164.82500 -164.57719 -162.45708 -164.51223 -162.61658 -163.37952 -168.80902 -176.08993 -175.13315 -174.37251 -172.22302 -171.80524 -176.97549 -174.75462 -174.64592 -170.67183 -172.81252 -174.72648 -174.57225 -176.05277 -174.42883 -174.55534 -169.52490 -173.37863 -175.59552 -176.06071 -171.94574 -176.04466 -174.20661 -200.36473 -235.50144 -261.76591 -354.41344 -420.95773 -407.59104 -477.73524 -497.08564 -497.21131
321.53813 322.27890 228.92409 136.02344 145.34275 98.53311 57.32011 24.03800 -6.07173 -20.92174 -28.14833 -40.99419 -53.86519 -64.05341 -82.18999 -95.55507 -96.75856 -91.17759 -68.06372 -54.32426 -54.11895 -64.00685 -59.82111 -71.51857 -77.13065 -91.96829 -70.42252 -50.43921 -30.49365 -28.75062 -27.84234 -30.62029 -32.80412 -25.57805 -18.26601 -15.88105 -11.29638 -8.40907 0.42348 1.15167 -14.34378 -38.27343 -70.78425 -59.94324 -64.02339 -48.49295 -45.72283 -62.26876 -66.61489 -74.16273 -81.54850 -73.65571 -74.19004 -74.68119 -80.53997 -80.93442 -82.61424 -87.53054 -84.23190 -85.75545 -85.61602 -83.36439 -79.51834 -80.40068 -83.12871 -100.91794 -100.50912 -109.23676 -113.62028 -117.77594 -122.75615 -127.56641 -144.45772 -154.31864 -167.62378 -166.02120 -158.18080 -152.07595 -150.49707 -162.53905 -162.19755 -167.44876 -165.95535 -161.94398 -163.37797 -157.40754 -160.27363 -161.65207 -164.60986 -164.35076 -169.60693 -170.69837 -169.17269 -174.51004 -171.65383 -168.21375 -172.00234 -166.14219 -163.20060 -165.31805 -161.49606 -162.36280 -163.54115 -173.62431 -170.62213 -172.80708 -171.86512 -175.77974 -170.74810 -172.14347 -171.54381 -175.10185 -174.52992 -174.39506 -170.64448 -174.10192 -172.38056 -176.12837 -170.76071 -169.11670 -174.88471 -172.46416 -171.95173 -175.95470 -172.86994 -172.33167 -172.57804 -188.07917 -193.96263 -252.47644 -280.50248 -359.58331 -335.04588 -392.26793 -417.66708 -413.81276
335.72446 335.75462 330.02175 165.29249 153.60352 116.38997 56.26375 28.32647 10.39200 -16.20495 -20.87049 -38.97068 -50.55501 -75.42046 -91.97512 -103.81810 -98.17950 -88.39169 -76.92055 -61.51487 -67.77364 -73.73946 -84.96058 -86.32129 -86.97175 -86.18976 -67.69706 -37.82979 -32.04836 -32.31647 -34.37063 -55.86504 -53.45678 -35.13017 -40.47425 -42.42800 -47.73358 -36.91887 -12.89684 4.57388 15.13986 -7.80746 -37.09013 -37.29157 -48.40234 -46.58138 -45.84901 -50.64219 -54.58739 -66.38061 -58.34519 -65.42793 -83.13556 -83.64977 -84.01694 -87.30809 -92.54029 -90.24791 -91.04713 -91.20845 -98.21624 -94.65290 -94.58441 -80.07986 -79.58222 -92.45904 -97.08745 -116.85128 -115.29521 -123.14517 -134.64760 -138.58175 -146.40570 -155.82159 -165.37971 -162.35933 -162.98987 -165.86903 -166.18030 -167.86362 -165.93337 -175.81996 -170.58139 -163.77338 -159.84528 -159.39442 -165.67240 -161.38134 -171.74598 -170.13093 -170.55300 -174.40855 -172.58818 -173.72383 -171.84159 -174.41282 -170.64748 -167.25188 -167.05770 -162.57979 -162.61933 -163.14058 -164.58530 -165.39653 -166.65724 -173.57242 -172.31644 -173.53230 -174.47516 -178.79999 -173.82694 -175.72911 -172.30866 -170.66876 -171.96021 -175.48758 -180.39175 -175.87998 -174.30770 -171.98560 -176.16839 -167.42252 -169.76356 -169.70515 -178.57474 -171.04908 -177.22516 -174.45374 -190.23988 -199.40985 -222.45205 -272.64322 -272.92597 -336.03956 -339.90811 -337.86510
324.19435 332.98115 252.58189 195.78397 159.06382 95.96944 26.29358 -5.48462 -7.65138 -16.50083 -23.25783 -32.49631 -55.63568 -60.61158 -88.36766 -99.39707 -101.22374 -103.87635 -95.79493 -85.43832 -89.49493 -88.13190 -94.69016 -105.54347 -91.63686 -75.93191 -58.16527 -43.75100 -26.67274 -43.20676 -62.35740 -66.88116 -61.02750 -48.11525 -48.04023 -61.19508 -58.50900 -54.47293 -15.98265 -0.36096 8.21856 4.93262 -18.34691 -24.50892 -42.57200 -41.99770 -52.91644 -47.13281 -56.11714 -57.05310 -65.24560 -72.80432 -84.46711 -89.41035 -91.53920 -92.29342 -96.74932 -100.43984 -99.52374 -101.34198 -102.87592 -103.79721 -97.20064 -88.21159 -83.15692 -92.11604 -105.81358 -116.27279 -130.60030 -136.80946 -143.00443 -144.81259 -150.37849 -149.08038 -154.43445 -156.56584 -164.89680 -162.10789 -171.07922 -167.46574 -175.63197 -174.18590 -174.18281 -169.42761 -172.19173 -170.80832 -166.86660 -170.00375 -168.77611 -174.10562 -175.69565 -171.28737 -174.47769 -173.75532 -171.61616 -177.43385 -170.36957 -164.08714 -158.75588 -159.31729 -165.49021 -164.28254 -167.56434 -171.83408 -170.41929 -175.20868 -173.80491 -174.43083 -170.81857 -173.96234 -176.46323 -174.07780 -176.48153 -174.65449 -175.75940 -174.80660 -174.93247 -173.71351 -172.75783 -167.57938 -165.59412 -167.10041 -171.51488 -169.15317 -172.05806 -173.47061 -171.06785 -176.34246 -176.59961 -174.97580 -179.91721 -200.19317 -215.22382 -258.22932 -285.42491 -285.23790
329.59736 329.14924 249.82205 147.58886 136.14583 56.16157 -7.55088 -30.50335 -43.01709 -39.62835 -36.85019 -52.83333 -60.00463 -82.05699 -67.72037 -85.65196 -94.12347 -110.16813 -112.82310 -104.04461 -104.44746 -109.07342 -111.11763 -111.25886 -98.14800 -82.14501 -59.80427 -45.32578 -39.09896 -46.43431 -61.17477 -79.44269 -76.50077 -76.09573 -67.92816 -75.08122 -49.49554 -46.84440 -14.79099 6.39776 7.48548 5.54631 -19.07507 -26.43660 -36.72058 -41.30844 -47.93570 -51.13398 -56.92577 -64.23450 -66.93505 -81.72965 -85.51399 -92.60388 -92.28553 -90.86173 -93.24807 -96.90401 -95.52899 -101.80038 -113.99949 -116.51282 -104.03381 -80.71965 -87.91394 -88.20435 -107.68240 -116.14137 -117.14596 -130.54080 -129.98044 -141.23632 -140.39471 -149.61862 -144.29637 -154.75986 -160.02270 -166.10090 -171.61283 -164.32687 -167.33666 -170.00390 -170.57857 -170.84318 -166.93436 -174.53163 -172.49469 -166.47121 -171.60359 -171.46402 -175.78951 -173.59852 -170.04933 -177.03911 -175.15165 -170.39919 -171.15194 -164.12469 -153.51728 -160.88148 -160.48895 -167.10408 -169.61477 -168.33846 -171.16273 -175.91288 -175.06060 -170.45359 -171.05422 -178.31009 -170.56435 -177.65533 -173.58024 -175.91817 -174.55836 -173.48173 -172.37207 -178.75980 -170.13515 -166.81667 -166.51455 -168.94620 -166.41426 -164.03390 -171.40105 -171.89501 -171.09119 -172.31906 -175.36440 -175.07208 -177.96103 -177.96371 -173.18072 -205.82073 -252.88764 -256.62539
261.70884 264.67832 204.69989 96.86356 37.30739 -1.34217 -25.77412 -35.45478 -39.64024 -58.04821 -75.11360 -72.35757 -70.37763 -59.81582 -59.19961 -62.48454 -88.39491 -106.53986 -108.04839 -109.22794 -109.12351 -110.87982 -118.48672 -108.09781 -102.80323 -88.57458 -87.29382 -63.19969 -60.53811 -61.19713 -72.45898 -85.18393 -87.87021 -82.33321 -82.21975 -73.66915 -51.26309 -29.39798 -20.15147 -9.25791 0.81390 -15.33069 -23.89593 -42.24003 -41.83882 -51.40894 -58.41917 -56.58853 -60.86126 -71.31643 -75.49692 -85.89420 -85.15147 -76.31084 -85.89953 -86.75770 -85.02530 -81.39981 -85.37546 -92.64047 -105.66225 -111.23397 -108.24619 -101.58918 -82.86304 -92.39932 -97.29203 -107.97785 -115.58221 -119.00857 -123.62992 -126.15444 -125.43416 -132.65175 -140.27767 -150.09489 -160.68505 -164.04420 -163.45898 -167.26323 -160.03284 -165.51322 -166.37848 -164.65366 -170.88440 -175.52950 -172.00115 -174.12044 -169.26552 -171.63127 -172.68653 -178.39783 -173.19139 -173.24927 -173.20783 -173.15901 -160.22860 -161.84218 -154.45199 -160.58917 -159.98069 -163.77220 -169.98589 -173.44443 -172.27995 -173.25249 -169.42617 -174.31827 -172.99567 -175.03221 -172.49838 -174.45908 -175.55887 -170.05050 -173.48185 -177.87595 -172.11859 -172.78433 -169.16589 -166.98749 -159.00420 -159.38977 -156.63132 -161.74063 -162.84031 -166.20992 -163.59379 -173.85700 -171.10464 -173.96981 -174.15172 -171.63199 -175.18686 -197.52814 -177.19966 -174.10597
232.38563 229.19191 181.04410 93.73456 32.22324 0.56801 -24.24140 -9.86412 -26.04807 -46.86590 -73.76358 -82.63605 -65.27290 -43.09977 -30.53934 -59.12784 -77.12076 -91.88180 -89.91573 -81.12045 -99.97733 -96.63506 -110.57560 -121.93806 -116.62042 -98.61024 -102.70120 -105.21220 -81.38160 -87.44525 -84.14933 -93.43941 -92.66150 -101.96306 -98.81163 -82.06690 -51.38380 -39.46265 -27.80928 -17.06286 -9.74250 -26.58427 -34.35052 -41.39868 -50.98147 -54.23640 -61.99036 -65.93095 -67.80265 -75.89238 -78.91207 -78.25991 -77.90801 -69.57122 -73.12915 -79.37196 -80.17293 -79.50824 -80.72747 -86.19277 -100.93600 -111.28177 -114.56660 -112.25996 -93.45509 -95.13237 -96.68984 -104.76121 -107.60579 -115.12844 -119.25789 -120.40088 -125.78225 -125.81424 -133.47661 -148.60683 -166.05246 -163.85241 -164.86363 -158.35835 -155.92597 -163.71860 -160.06215 -167.34887 -168.73534 -177.83427 -167.64964 -169.24414 -170.20063 -171.87749 -170.89962 -173.77935 -167.83436 -171.52812 -170.50721 -172.76712 -168.55750 -158.17942 -156.49111 -154.20494 -161.98532 -167.50836 -167.29096 -168.42527 -167.27103 -167.90092 -169.43436 -172.52556 -176.74234 -172.45053 -170.66988 -170.14615 -169.96557 -172.50164 -168.60777 -171.53658 -170.98935 -172.93786 -169.67883 -167.20672 -158.38716 -155.95036 -157.12811 -152.84361 -159.77096 -164.06470 -163.52776 -170.54546 -175.24400 -174.62542 -174.69090 -177.17294 -174.32234 -174.44115 -173.68351 -175.36249
176.66727 176.52510 213.99741 70.95051 54.22219 30.17810 25.63728 22.76626 1.77998 -40.93404 -74.78391 -66.82197 -33.77400 -15.27078 -18.35340 -39.88398 -70.75237 -74.42502 -61.18274 -62.50922 -68.22978 -91.91019 -111.86870 -119.25411 -122.55726 -120.30741 -126.48856 -114.37355 -102.81642 -96.17492 -94.47433 -95.89148 -103.49628 -105.39641 -110.47108 -98.03282 -77.93146 -50.19501 -33.05771 -18.46447 -17.12633 -25.59566 -36.32202 -52.61298 -50.02817 -54.26769 -67.39812 -68.47291 -64.54127 -61.72184 -65.65636 -73.14808 -64.37045 -58.80645 -69.40368 -72.40057 -80.98510 -76.98130 -75.47005 -88.01607 -97.64636 -98.72607 -111.01806 -115.59727 -103.07761 -95.33625 -95.89366 -99.34776 -107.81369 -108.83967 -126.16060 -127.16728 -125.42600 -127.00460 -137.93125 -153.78053 -164.80775 -162.62083 -158.78045 -151.25354 -159.68413 -161.24165 -167.64868 -167.42084 -165.86085 -163.16968 -167.52100 -167.06834 -164.15516 -169.09522 -166.10200 -172.41268 -171.59418 -167.96872 -167.25588 -167.53823 -162.13382 -156.45762 -157.65497 -160.28755 -160.07606 -171.34825 -172.03283 -170.79307 -168.25577 -168.48908 -167.40107 -170.66473 -174.21145 -169.19011 -168.96597 -169.08606 -166.61928 -166.18517 -164.63332 -171.58301 -174.15031 -177.43812 -172.53599 -169.78515 -161.24593 -156.35987 -156.69311 -155.16381 -156.98653 -159.98666 -167.09968 -174.60702 -171.55690 -179.63087 -176.39224 -174.24699 -177.55681 -173.54229 -175.14803 -174.69871
232.25428 231.41161 176.15022 113.19451 74.74144 75.70480 57.73135 36.10467 22.33805 -17.83997 -52.10125 -47.03524 -35.15866 -13.94482 -14.38678 -34.36451 -51.27994 -75.95004 -45.04194 -39.46950 -57.52086 -82.45143 -90.42713 -113.76810 -123.09670 -121.54831 -121.73158 -123.67264 -122.80915 -109.40452 -105.54584 -102.88116 -109.08858 -113.20694 -107.98250 -111.20337 -78.87177 -59.89034 -44.01408 -24.88029 -21.22389 -27.16896 -37.87414 -51.84302 -55.77556 -54.27604 -59.88949 -55.85134 -55.36384 -62.29478 -60.94087 -61.71183 -60.92001 -60.40377 -65.22779 -72.38204 -72.33508 -84.99094 -87.10686 -95.41391 -92.67310 -88.27936 -102.85137 -115.64765 -113.76299 -105.06836 -99.35775 -99.80142 -100.43104 -108.34435 -120.89960 -129.88343 -133.96101 -133.94794 -145.23206 -156.90054 -151.77108 -149.42025 -145.11057 -146.71058 -157.56315 -157.86281 -162.01711 -165.46479 -164.55301 -163.28861 -162.47029 -166.01380 -170.95754 -172.58800 -173.37429 -166.76263 -166.40289 -163.40199 -163.58890 -166.07755 -165.51668 -158.02479 -160.69980 -159.03280 -165.55049 -170.94224 -168.37374 -164.79251 -162.29196 -167.27082 -171.12687 -170.79374 -167.68129 -168.57958 -164.83654 -164.25462 -165.49046 -163.71466 -170.76539 -174.85658 -172.33339 -172.24369 -172.23306 -166.72443 -164.31521 -160.85236 -155.10448 -151.62973 -154.58320 -157.24363 -162.96090 -171.19423 -173.50246 -174.03238 -176.49697 -175.53690 -174.95316 -172.92100 -176.48730 -172.46560
227.05986 231.61305 182.95500 134.22152 109.49368 91.48928 67.47325 50.28940 6.22396 14.19901 -43.53065 -43.16033 -26.21169 -16.39069 -22.17952 -48.30840 -70.33045 -63.78092 -45.41031 -31.13105 -49.33751 -61.00620 -85.71763 -96.55167 -100.58980 -115.74500 -120.85289 -124.35480 -129.67321 -127.74982 -117.51186 -116.46743 -119.21331 -122.59684 -114.36226 -99.57759 -76.72503 -59.76462 -41.49579 -23.49943 -19.74367 -15.34328 -28.23932 -35.25345 -43.60564 -37.28099 -32.62676 -39.48023 -51.30817 -44.41442 -55.31462 -60.26560 -59.01348 -67.53509 -72.63923 -76.45354 -92.50409 -90.50751 -101.00075 -102.65726 -88.08806 -92.80445 -98.45292 -113.45077 -123.91662 -113.01291 -109.67154 -101.27074 -102.62950 -108.71862 -116.35122 -128.51151 -135.32585 -143.53235 -147.70936 -146.99395 -143.65004 -144.47342 -141.49608 -146.92033 -152.48067 -154.02725 -155.07837 -158.81926 -159.11777 -159.18429 -166.36973 -167.45291 -168.72945 -165.40449 -162.63121 -168.13805 -160.30986 -159.97655 -158.41390 -162.30364 -159.35234 -152.58280 -156.00975 -164.13278 -163.99150 -166.94340 -166.71722 -163.65603 -161.40603 -164.59388 -164.99606 -168.23162 -167.31706 -157.03563 -160.60296 -154.65810 -162.31038 -163.95992 -168.36639 -168.89125 -173.26253 -172.06072 -170.23007 -167.63752 -165.47629 -159.30996 -151.88143 -156.41454 -151.90616 -160.06245 -163.73604 -174.69913 -170.05858 -177.58591 -174.16502 -173.71140 -173.45444 -172.52199 -168.86243 -174.18022
214.73450 213.67387 188.68102 138.22423 137.88659 104.87153 93.57937 74.28036 63.61807 24.83152 -11.24972 -26.87970 -4.47433 -31.69271 -41.78444 -60.35547 -65.15371 -57.87011 -15.82970 -13.46371 -36.85360 -48.83645 -76.53929 -93.86877 -101.09361 -100.48440 -112.36486 -110.28466 -121.30729 -127.33718 -127.52861 -127.12802 -125.94436 -119.05430 -110.84399 -87.09497 -63.51795 -51.93882 -45.78302 -26.49182 -16.82238 -10.66593 -14.70456 -29.22737 -26.83050 -19.18015 -16.14945 -32.04560 -40.23418 -46.14208 -51.91406 -56.81867 -64.54153 -76.00765 -83.90455 -93.73923 -91.67240 -100.20172 -109.86307 -112.28168 -105.94234 -97.41770 -107.04776 -124.24066 -126.22264 -115.75134 -104.58617 -100.83588 -103.13539 -109.45812 -108.62145 -110.33793 -130.87632 -133.52070 -128.46680 -136.03033 -128.32222 -131.18865 -135.95328 -141.26817 -143.31502 -145.66485 -149.65877 -155.81438 -163.80259 -167.43565 -164.98013 -168.40902 -168.43996 -165.81125 -159.79506 -158.66602 -161.61857 -151.14252 -149.64225 -150.09051 -151.47811 -156.09774 -154.88055 -153.08908 -158.06765 -164.94141 -157.05777 -161.60159 -158.57701 -161.26238 -158.67046 -161.35766 -163.16718 -163.49166 -161.61070 -155.85868 -156.25035 -161.25385 -164.82863 -168.20044 -170.56654 -163.58624 -166.37039 -159.25552 -160.74200 -156.54865 -153.73312 -156.15213 -156.27858 -152.66560 -161.13901 -171.49637 -173.11287 -171.10553 -175.06458 -173.74467 -178.28196 -170.05444 -168.58546 -169.81194
214.02856 214.45837 188.66317 163.90261 142.08546 119.69780 100.61954 85.20159 95.32785 34.37334 -3.18742 7.20326 5.25373 -16.37701 -40.04291 -42.16409 -58.32422 -27.72309 2.72214 -0.62365 -11.22720 -41.55611 -58.82896 -66.29705 -73.65315 -96.55397 -90.76466 -98.38005 -116.29103 -126.23427 -136.88146 -138.73191 -125.57196 -109.05170 -93.93274 -75.17781 -48.97711 -45.79838 -45.92070 -33.61529 -28.59570 -20.19054 -20.93150 -27.43949 -26.35378 -9.28311 -18.32964 -22.77038 -38.28733 -45.61240 -48.27403 -54.79196 -66.30797 -75.40668 -94.68183 -86.49156 -95.50753 -105.04162 -112.71008 -115.73891 -119.45606 -106.81765 -111.50323 -127.00441 -123.69756 -119.86689 -104.90333 -103.33717 -97.42552 -102.54985 -103.54272 -103.64726 -116.60729 -119.14629 -124.30938 -121.76763 -119.81523 -123.20488 -132.47094 -137.08071 -141.77291 -148.36748 -151.61339 -158.96537 -163.53681 -170.73348 -166.34617 -172.08939 -168.52049 -158.82119 -152.63912 -153.46847 -150.16927 -149.89784 -144.61763 -144.42368 -149.03622 -143.95607 -148.66056 -146.58386 -156.65811 -155.46810 -162.55287 -159.33952 -161.05704 -155.10420 -159.91066 -156.57144 -154.94301 -155.08060 -163.01183 -158.31510 -160.03864 -158.71290 -164.48812 -163.93925 -164.91013 -165.27140 -166.71865 -161.37476 -153.66725 -150.48437 -148.49056 -150.22077 -150.56491 -157.66528 -160.05055 -164.58996 -167.70801 -169.42620 -171.78909 -173.04781 -174.36720 -173.65935 -169.58616 -167.26763
211.27194 212.38642 202.81266 153.03680 144.07085 129.01799 110.46604 106.83794 68.99921 28.17107 9.16459 35.50398 10.97062 -16.34312 -40.47292 -45.28073 -41.14226 1.37895 35.84225 36.00616 14.34791 -11.75172 -54.44222 -48.58605 -60.97430 -75.90308 -94.77765 -92.75964 -111.06984 -129.38173 -138.13570 -137.63207 -126.61368 -115.13645 -95.96514 -75.17481 -56.04806 -45.82881 -38.86273 -47.48940 -44.84575 -33.64084 -48.38662 -43.03285 -42.74844 -36.96254 -24.93492 -25.16372 -42.93610 -48.66536 -47.32566 -50.73471 -45.61152 -77.22367 -78.76637 -94.89247 -106.40082 -113.64384 -110.83535 -123.05390 -118.48905 -121.27668 -118.97936 -132.28165 -130.66925 -125.35037 -117.27738 -105.39746 -100.29763 -99.83316 -101.18149 -102.43613 -107.41057 -110.17560 -112.91496 -111.40837 -120.48156 -123.63353 -134.17533 -136.14451 -151.43920 -155.59539 -155.69854 -157.36695 -159.97381 -168.91449 -162.04060 -157.84510 -155.76682 -159.86568 -149.26351 -150.26633 -144.01725 -141.11788 -137.87506 -142.99064 -145.74327 -142.06307 -146.72354 -147.39784 -152.90794 -158.68797 -159.32108 -162.06479 -158.97651 -163.99212 -159.42299 -160.94216 -159.02523 -157.86886 -157.28336 -166.20920 -162.99125 -164.63924 -162.24519 -160.87627 -159.87594 -164.80076 -162.25174 -156.63131 -155.97485 -149.70192 -153.23012 -150.62944 -150.12478 -152.67656 -160.60201 -160.28657 -164.72092 -168.74345 -176.41049 -173.50994 -167.33095 -168.47336 -176.47744 -171.61297
200.12949 200.66954 178.06403 158.98485 146.53352 133.30592 121.77959 130.61838 65.85589 31.81700 38.55132 51.64817 38.43765 42.11657 36.98743 -9.88599 3.47804 5.58125 70.20170 70.06023 44.63080 24.15746 -9.92480 -28.06821 -58.34437 -72.27460 -81.45354 -95.85294 -117.51399 -129.33521 -127.41815 -134.16822 -134.10972 -120.30246 -108.56532 -92.26922 -64.74745 -55.96810 -47.81241 -62.82577 -80.08441 -63.72769 -57.34477 -55.04804 -49.71318 -46.38322 -45.72829 -44.49757 -47.39611 -47.46853 -45.97558 -47.69034 -47.25405 -63.06665 -70.00440 -83.13216 -91.17202 -99.49687 -105.69734 -113.58132 -123.09062 -128.78059 -127.48732 -133.23990 -129.70878 -116.49481 -124.25086 -116.39471 -103.70070 -99.89866 -96.30973 -99.26911 -104.78858 -106.75675 -106.60230 -114.13940 -112.54567 -122.54109 -134.00549 -140.57341 -149.81292 -153.77664 -153.00919 -147.61426 -155.38653 -153.04792 -157.55277 -152.60969 -148.92291 -147.35743 -144.99534 -144.51261 -144.02685 -140.37015 -141.12003 -139.95758 -141.07291 -148.74736 -145.45840 -151.56189 -149.30539 -155.20715 -157.59039 -159.06596 -165.53155 -166.39955 -165.36549 -157.58120 -160.69678 -159.82241 -164.86886 -169.14172 -165.81135 -165.15874 -159.54810 -160.74539 -159.49536 -165.20224 -165.15122 -158.87392 -160.81110 -159.37446 -155.09970 -152.03531 -146.63939 -152.89261 -157.39905 -161.26045 -161.69250 -164.85966 -167.30810 -170.81029 -167.20246 -168.10654 -164.71520 -164.66232
193.69592 191.32048 175.98711 160.25899 146.94092 143.55105 139.82661 136.19302 99.00986 76.63502 69.73230 82.83518 88.33204 89.60303 53.34051 32.56509 24.37826 63.59687 79.91604 81.12378 68.74385 42.70403 7.24919 -27.40749 -65.67205 -68.33283 -86.13683 -106.50837 -120.25717 -121.24320 -127.13334 -124.74911 -133.92552 -132.37682 -119.70317 -93.85485 -73.15417 -65.28182 -70.30978 -85.53674 -87.54926 -78.99644 -78.82413 -68.97163 -80.05315 -72.19147 -65.99572 -64.09775 -60.04664 -59.40932 -55.14992 -52.47000 -46.62884 -56.21045 -71.75410 -73.65842 -89.12731 -95.31703 -98.54067 -104.95346 -114.46878 -128.74127 -132.61481 -127.24513 -133.05794 -127.77371 -124.27296 -124.56431 -114.54919 -104.79321 -94.88360 -100.75862 -100.35858 -102.09658 -107.72931 -112.53908 -120.33140 -126.01700 -128.13113 -140.77610 -139.59341 -149.69334 -151.09487 -148.18232 -148.81359 -145.36747 -147.47838 -151.27314 -152.21646 -151.87841 -147.70931 -146.10878 -141.83487 -140.07297 -149.17848 -147.34858 -147.79419 -149.55726 -149.12912 -154.53056 -158.91101 -161.92216 -166.93938 -167.49289 -168.58226 -165.92535 -171.59967 -165.85305 -170.50925 -168.88491 -168.26157 -168.78691 -170.03019 -169.16294 -166.94844 -167.28770 -165.42474 -163.49132 -169.05686 -168.15117 -165.40774 -162.94414 -161.47155 -155.39250 -155.28263 -153.78235 -156.66102 -159.21281 -160.55530 -157.75547 -159.05174 -164.71248 -169.97657 -168.86865 -159.95784 -159.07172
178.72184 177.25111 182.74614 158.49263 155.69222 147.23688 144.33041 135.74763 127.19757 116.22471 110.87022 98.21628 96.56314 118.87418 107.22580 77.66521 79.66981 85.44078 96.25587 80.59891 72.52410 31.59840 -6.15407 -24.91647 -68.57616 -77.85994 -95.43029 -105.31670 -111.28419 -96.77732 -103.05252 -120.01118 -135.83279 -128.54074 -119.09604 -98.06919 -89.72467 -85.39862 -95.83303 -107.07174 -101.01833 -100.25747 -103.44554 -107.90380 -99.11582 -91.56263 -72.85506 -69.97689 -63.34901 -71.18988 -65.24812 -67.57018 -60.66455 -55.04254 -60.28507 -73.86111 -84.80486 -82.36269 -87.70798 -96.26825 -104.78548 -113.99503 -114.84918 -125.28367 -126.51836 -139.71584 -138.62662 -129.85694 -115.75832 -106.13374 -96.04805 -98.81196 -100.23022 -98.76058 -104.26934 -113.17902 -122.94029 -125.33185 -126.01113 -132.50475 -136.33683 -139.57290 -138.66173 -138.06497 -139.29351 -136.09416 -144.24633 -144.70552 -151.98502 -151.03336 -154.61961 -149.08791 -148.30964 -145.82064 -156.03897 -159.89777 -157.30073 -155.97909 -153.48214 -154.88372 -165.43583 -166.58900 -168.70206 -169.33935 -176.02551 -170.74345 -162.59882 -168.53819 -167.97852 -168.64193 -176.08704 -172.16363 -172.20242 -169.94627 -172.26445 -168.63958 -171.95494 -172.38833 -168.96306 -173.11602 -174.52986 -168.08207 -167.09688 -165.85933 -158.38204 -158.35606 -155.14476 -153.95250 -150.55533 -153.06030 -154.06406 -161.23725 -163.13230 -156.05422 -160.22683 -156.02382
170.88511 174.01769 169.32882 160.84878 161.40913 151.70302 149.86587 141.02631 129.22972 129.36258 110.04554 111.42533 119.13290 124.11018 109.14425 100.92990 99.57667 109.79061 106.13565 88.14761 60.51749 12.89699 -3.44120 -47.19365 -62.18568 -71.90184 -96.33364 -96.92759 -91.04112 -86.69481 -99.80371 -113.62981 -123.70864 -133.22112 -119.26591 -107.83186 -99.56739 -102.26733 -115.33028 -117.48713 -119.02426 -109.30340 -107.84285 -127.62107 -105.23271 -93.26637 -71.39519 -64.29454 -63.10911 -66.55966 -78.13986 -79.37210 -75.76039 -70.39454 -74.59911 -71.78913 -80.84639 -78.39863 -88.62580 -99.06923 -101.14271 -106.67894 -114.30037 -122.22754 -131.61602 -143.17663 -132.65411 -131.82096 -119.96827 -107.38869 -101.90252 -94.47278 -105.71404 -105.13110 -104.55994 -112.01963 -118.23745 -116.52821 -124.00383 -125.69177 -131.57111 -129.92810 -126.81252 -128.24049 -129.53062 -137.76563 -138.69293 -145.00434 -148.90098 -154.54686 -160.78496 -158.46672 -158.49548 -158.86813 -151.87601 -167.27210 -172.53781 -160.49485 -158.22366 -162.74275 -162.68687 -169.28639 -171.34124 -172.33781 -173.23268 -173.21580 -168.60585 -169.88661 -170.73086 -174.81065 -171.25617 -171.36752 -178.31735 -172.56463 -172.76332 -171.88523 -174.94585 -174.33375 -171.35259 -175.68596 -172.00858 -173.45422 -168.87525 -168.60504 -160.97986 -162.50073 -157.64502 -146.54619 -145.56904 -149.44814 -153.69813 -158.55628 -160.20576 -151.76934 -144.04243 -144.77233
171.29536 173.81006 166.64543 161.86679 160.83960 157.78987 159.45044 151.83285 143.09876 136.88049 134.06844 139.79172 134.91591 150.59350 138.86703 136.73885 124.43835 116.16707 107.55544 82.27718 44.08734 21.53612 1.76558 -23.75147 -59.18961 -80.10899 -77.50875 -80.90953 -83.43463 -85.62023 -101.31118 -110.92242 -135.53461 -132.10656 -125.12865 -117.33199 -115.26543 -119.08159 -125.60722 -121.82927 -121.20057 -119.70638 -120.48058 -122.42150 -112.06465 -91.10716 -81.42607 -73.15670 -67.68364 -74.28027 -82.61733 -79.63581 -82.49783 -79.60082 -74.00668 -73.23485 -87.71489 -90.99456 -87.79325 -97.92879 -98.71872 -109.77327 -128.68768 -127.28583 -133.82757 -147.13824 -138.91449 -123.37413 -116.36774 -111.62400 -108.70779 -104.42333 -106.76097 -105.98807 -108.06368 -113.08700 -114.48653 -114.10403 -112.27655 -116.57326 -125.10764 -129.24260 -126.23432 -130.38511 -123.23205 -133.23481 -144.25121 -152.73088 -154.86605 -160.14241 -163.13589 -169.06719 -171.30278 -163.75078 -163.87774 -169.71154 -169.14550 -163.18512 -163.75641 -168.23009 -169.96088 -171.12443 -174.35646 -173.08416 -172.13794 -175.89271 -172.81774 -171.12750 -175.66179 -173.76110 -179.39262 -173.92705 -172.74546 -176.50586 -169.81472 -174.36925 -178.01938 -176.04725 -175.26112 -178.45028 -170.11860 -172.82196 -173.21195 -173.66851 -164.30400 -168.31529 -157.64224 -155.99264 -150.93593 -151.93792 -146.35465 -157.80683 -153.79175 -154.62872 -143.78489 -145.48240
184.76255 184.18834 178.41064 160.31253 155.84749 161.17156 161.24772 158.45115 151.36228 142.09344 145.86102 141.85115 157.07969 149.02188 137.93191 130.33414 119.93198 109.04899 107.50165 91.53438 54.38701 32.16376 24.52088 -14.84732 -45.64033 -74.93999 -73.67868 -90.52547 -86.98796 -102.77858 -120.91498 -128.56837 -136.88887 -134.80367 -133.66137 -132.12481 -130.81088 -131.21106 -128.54314 -134.02858 -126.15109 -121.54650 -131.45570 -135.38664 -116.63785 -103.46021 -90.99852 -81.57713 -69.20189 -76.25735 -75.34263 -89.26547 -93.43394 -95.45141 -94.58177 -98.23038 -89.80708 -97.63648 -97.31432 -99.68913 -106.37051 -111.29967 -123.78121 -137.72930 -146.36833 -151.41196 -133.88545 -124.49291 -121.66269 -114.49110 -121.47276 -125.64313 -122.64273 -119.30252 -120.85119 -119.88202 -113.81957 -112.28142 -116.36313 -120.30364 -119.50531 -126.22852 -126.84523 -124.48181 -138.53457 -147.42358 -149.72106 -156.01442 -157.72078 -160.59089 -166.02396 -170.46654 -174.41802 -168.74966 -167.51302 -166.03690 -171.49948 -170.97893 -166.53359 -174.73918 -173.83588 -167.86056 -170.45343 -174.57990 -174.29782 -170.45865 -175.48712 -171.89926 -173.54872 -176.53343 -170.81885 -168.75520 -169.05339 -176.23276 -174.55240 -175.49611 -173.21577 -173.72717 -174.11924 -173.85108 -167.98258 -177.40046 -173.91091 -172.00906 -168.36112 -164.59951 -161.00254 -151.76559 -151.52207 -150.41491 -153.07436 -150.32998 -158.07245 -153.79282 -154.80102 -156.04210
173.94939 174.57978 168.00827 158.76785 158.52773 160.77411 156.60985 158.26836 149.22119 154.22797 157.29377 155.78034 160.02282 150.15183 145.78839 123.50635 115.03012 102.34491 69.89248 46.61511 17.82377 23.81017 31.67429 -9.99752 -30.77909 -62.14831 -95.92497 -117.38812 -116.50636 -123.95163 -133.61304 -131.34189 -136.84533 -124.41322 -133.15927 -138.84327 -135.84560 -136.65682 -137.36388 -128.79333 -129.55556 -132.06138 -134.54457 -134.68146 -127.96006 -108.89650 -103.66528 -84.06481 -75.55277 -78.55737 -92.24358 -90.52078 -96.86432 -102.60872 -105.89078 -104.19216 -101.69761 -107.43762 -99.89728 -104.15415 -109.86876 -122.53242 -129.65264 -131.27822 -140.08559 -143.64184 -130.63693 -126.60373 -128.80019 -130.34358 -134.52474 -138.68891 -128.05122 -122.45349 -126.77954 -128.10002 -124.65414 -116.96167 -116.12148 -114.37740 -118.72417 -125.61435 -126.81748 -130.85136 -142.66073 -151.78029 -153.51151 -166.03490 -165.94573 -162.48866 -164.85139 -172.25687 -169.79419 -169.14040 -163.27625 -166.54480 -169.94523 -171.01123 -173.03136 -170.93616 -173.10304 -172.58422 -173.41153 -169.71878 -168.70609 -167.02570 -161.80328 -170.66812 -175.99154 -172.40600 -169.22615 -165.97752 -168.45109 -169.34975 -172.13735 -174.90235 -172.55222 -173.10394 -178.71897 -175.80510 -169.74044 -170.12752 -171.26358 -177.66476 -170.84983 -166.65181 -164.13016 -157.70584 -150.34401 -152.84625 -153.67582 -150.77466 -154.38751 -159.99150 -166.01823 -163.72022
175.53931 175.74447 177.42733 157.14777 157.80313 161.64318 163.06029 160.56521 156.22884 155.34285 158.01311 160.28529 163.05460 146.39491 118.98674 102.19334 94.69002 95.58394 60.44059 35.11314 -15.60014 -11.61913 -2.30000 -8.07342 -32.38227 -68.16685 -110.36966 -127.85677 -118.24023 -104.68197 -117.59218 -114.12209 -115.33968 -117.63032 -129.27949 -130.14454 -139.37304 -135.99308 -137.57742 -133.80482 -121.07477 -121.48942 -132.05503 -145.78646 -141.21136 -126.55975 -96.63402 -87.40726 -78.76752 -92.08917 -101.61595 -101.29790 -95.03808 -104.01201 -109.31033 -122.22043 -119.20252 -117.79693 -106.82951 -107.38798 -106.88623 -119.53581 -123.37910 -126.94022 -125.13649 -136.00010 -144.54829 -147.55836 -140.17693 -147.77228 -157.42006 -137.91938 -133.05836 -130.85346 -131.72411 -138.05012 -122.37431 -132.00025 -130.03375 -136.01045 -132.48471 -130.68934 -131.50742 -134.43038 -145.46131 -150.69548 -162.09348 -167.65469 -162.85300 -159.29505 -168.57066 -170.80267 -161.66680 -163.97380 -157.43901 -161.83912 -175.00845 -171.01798 -174.65055 -173.36671 -170.16775 -165.94342 -164.73783 -160.91467 -158.49236 -167.51155 -167.62804 -163.99152 -166.47652 -174.16896 -170.09233 -165.23999 -166.22661 -167.10139 -173.54563 -171.09347 -172.75888 -173.75855 -170.93317 -172.27049 -170.26500 -175.38686 -175.56571 -170.32263 -167.57603 -169.11872 -166.82635 -157.89780 -156.97781 -157.57781 -160.48932 -165.90426 -164.74500 -161.75496 -165.33423 -166.85361
