444.26169 456.43442 515.73104 569.45152 612.61219 626.56792 673.73776 742.76819 801.92386 792.20223 867.83488 890.52377 905.64810 901.81680 846.59203 777.67686 750.22633 690.66112 652.26641 604.29508 572.70063 525.52863 496.43329 497.97181 580.41019 674.83311 678.98284 627.58598 581.15666 580.86418 620.35212 653.86301 696.75020 718.48734 788.19779 869.78834 949.47963 988.74950 1135.69575 1163.69072 1219.27908 1266.79272 1262.88373 1211.12431 1175.67183 1125.03557 1082.79623 1003.43397 884.76041 846.29307 770.51281 740.95898 677.12472 657.47173 640.92143 604.43729 543.68816 571.78848 533.08580 510.90267 457.04264 463.59493 396.42691 374.81710 386.71557 416.19785 395.25888 386.11152 400.31957 376.95353 331.02236 290.61318 266.37396 216.07682 198.73871 155.87534 156.48954 110.84233 79.66832 21.25018 20.47684 22.55722 34.17997 28.52071 2.69742 -12.32797 3.20223 -4.98059 -20.30941 -20.11493 -18.07236 13.22171 55.88648 78.37378 102.07959 113.51982 121.83614 130.35530 141.49049 139.52196 139.87857 154.22467 178.05595 189.15673 207.41725 199.38647 194.93526 187.70724 175.10498 150.50687 137.39804 107.82392 87.67838 58.32174 31.12371 21.68455 15.73993 14.82022 17.06483 15.26208 7.78067 3.75671 -4.18689 -9.33180 -9.76548 -7.72540 -5.06666 -6.13446 -7.59885 -8.44888 -8.58869 -8.34318 -7.93637 -8.50501 -8.91362 -10.84795 -12.83363 -15.31336 -20.02457 -21.07155 -21.07473 -19.53387 -17.84883 -19.07950 -19.77435 -21.70294 -22.08716 -23.43338 -26.31107 -27.92676 -32.17108 -40.74668 -41.51574 -41.46352 -35.52033 -31.27733 -30.77174 -30.93169 -31.99235 -36.18020 -40.43505 -43.78798 -45.02032 -49.40739 -53.12692 -59.90945 -64.87872 -68.19742 -69.21850 -71.05095 -68.13716 -75.52357 -82.18527 -81.09538 -76.52899 -73.22828 -75.40263 -76.86848 -77.00075 -78.17986 -80.04224 -82.17633 -82.88509 -82.55582 -81.89492 -82.95621 -83.43805 -85.69971 -86.84803 -87.34708 -87.83568 -88.02984 -89.53491 -90.26595 -91.32281 -91.94368 -92.11132 -92.61209 -93.34565 -93.61304 -94.20500 -94.71397 -94.82606 -95.42870 -95.76951 -95.84400 -96.06260 -97.52391 -97.49658 -97.24836 -96.66268 -96.02069 -96.03801 -96.10546 -96.29089 -96.52653 -96.71935 -96.73365 -97.08577 -96.41214 -96.92319 -99.02993 -100.54021 -103.59124 -103.76682 -102.04270 -104.92591 -105.61343 -106.34464 -107.96359 -106.78852 -109.58373 -110.13381 -111.01473 -118.01867 -120.56300 -123.98571 -127.98539 -131.65786 -133.22897 -138.93279 -141.22515 -145.94830 -149.24782 -148.99550 -150.81949 -154.07643 -157.21559 -157.29539 -157.36434 -157.56393 -155.39305 -155.92446 -155.37413 -154.93945 -156.45723 -156.01930 -155.36312 -155.08842 -154.82952 -154.70561 -154.39193 -154.35390 -154.27536 -153.82632 -156.30331 -154.82819 -154.09236 -151.63508 -149.82750 -144.79869 -139.63114 -137.33839 -135.03702 -132.95827 -134.09561 -136.31181 -136.40250 -139.01879 -142.52567 -145.74795 -155.23223 -159.16091 -162.64217
444.03074 455.16243 486.17432 532.93265 579.75333 598.80537 613.44630 664.63868 766.15949 777.47379 817.25274 855.27502 875.94928 867.33502 837.01313 772.77577 722.02714 699.80941 639.22923 602.26707 586.66581 506.21061 478.13074 509.41233 605.86036 644.64264 628.70473 550.06922 553.49579 570.84748 603.87891 639.60990 677.59603 741.76349 833.35032 908.94222 972.86983 1002.60627 1081.13561 1141.29226 1163.18192 1220.64956 1211.22601 1170.28381 1133.25802 1110.02622 1038.28011 994.00600 928.01967 884.31782 779.30648 716.02189 693.07916 616.22460 581.42077 533.20650 513.38733 512.50418 439.95930 412.76310 414.96075 369.74112 338.59718 307.69553 353.16282 375.13248 352.57985 354.60481 372.53228 345.97165 330.43288 282.83916 251.41903 207.67953 178.79424 132.59508 106.12567 87.24020 59.55113 28.56296 14.24353 3.91643 26.45933 11.15596 -2.03781 1.16136 17.16208 9.50513 -2.30963 3.00731 0.07966 8.92614 34.68406 69.06537 86.93129 114.04068 127.57151 148.05985 158.87288 163.85422 156.87196 163.68955 183.77544 198.26913 206.59107 199.64992 192.69861 175.68699 172.65805 155.75675 113.84245 88.77791 69.04706 59.89562 40.91985 26.86327 19.67851 20.75339 28.53563 21.16250 11.77310 9.21396 -0.34183 -2.93243 -6.49532 -5.59114 -4.66911 -5.00339 -6.20325 -7.30166 -7.51645 -7.71237 -7.73501 -8.76898 -8.90058 -10.45029 -14.32422 -16.52881 -19.62627 -21.09458 -18.00035 -16.27753 -17.28095 -17.78617 -18.65722 -22.07800 -22.05431 -23.42628 -25.18815 -30.28964 -34.78887 -40.76481 -44.00974 -40.25441 -32.88320 -30.68250 -29.32706 -29.73247 -31.94947 -36.23457 -40.41812 -44.14564 -45.43803 -47.08280 -52.95464 -62.83324 -70.68756 -72.49245 -73.46352 -74.20499 -74.81560 -82.24726 -79.75722 -80.21809 -72.74164 -73.26882 -75.55618 -77.15692 -78.59758 -78.98501 -80.58308 -80.84574 -81.13537 -81.07591 -80.93865 -81.06761 -83.31813 -86.18185 -87.32363 -86.43348 -86.65098 -87.11577 -88.87769 -91.59582 -92.14784 -92.04245 -93.08523 -94.52682 -94.29602 -94.74644 -94.32056 -94.63282 -94.82740 -95.21846 -95.50359 -95.73585 -95.94596 -96.80300 -97.11547 -97.63324 -96.66788 -95.90662 -95.88187 -95.99370 -96.06357 -96.19075 -95.94754 -95.37676 -95.26734 -95.59411 -95.93411 -98.00291 -99.26610 -99.58828 -100.79285 -101.09147 -101.35230 -101.32022 -101.96236 -104.06876 -104.27270 -103.89172 -105.56604 -110.88523 -112.55900 -118.21760 -123.02467 -126.17762 -127.49242 -131.27682 -134.56523 -137.26198 -142.61407 -145.29025 -147.04233 -146.98928 -153.11971 -155.63628 -155.51826 -153.98952 -153.78232 -154.32168 -153.45562 -152.63534 -153.55201 -153.53173 -154.45411 -154.21082 -151.97141 -151.13893 -151.43552 -152.91013 -152.31279 -151.49296 -151.81735 -152.74426 -152.01185 -151.17714 -147.25162 -143.97419 -142.39639 -138.26649 -133.09453 -131.43704 -127.51313 -128.05706 -128.84851 -130.39603 -135.38417 -137.18429 -143.36521 -148.94715 -157.05842 -158.79607
436.50875 468.67813 498.28571 508.45639 533.34073 584.08200 601.40249 680.97946 710.68137 777.42226 801.24402 835.12299 861.69425 851.19354 814.15474 778.59565 774.28397 692.10811 656.84305 615.73368 557.20138 538.41173 481.32762 502.06490 552.05990 617.43870 547.45675 524.56221 519.00091 595.22985 641.12440 695.67490 729.88680 777.86429 843.69751 931.44185 958.39784 1051.62956 1075.73501 1121.30951 1149.47907 1192.80224 1121.98257 1080.79449 1079.02775 1071.56327 1040.32674 993.38114 965.73187 895.15166 782.41861 701.36922 670.05309 652.89555 598.02419 535.39014 504.74847 432.29050 439.45715 418.14197 415.75117 333.02239 329.14725 263.07010 315.82613 324.06269 317.24126 279.05549 323.50055 316.14459 300.81464 250.46589 232.52580 195.30370 175.55771 154.49916 120.60056 92.08753 57.00619 33.44027 28.91539 2.53309 -4.05958 -13.08937 -17.39845 -4.75965 42.75785 43.57604 34.50140 12.62232 19.34040 21.20603 20.19565 45.20376 84.35687 120.06896 132.56041 152.04503 169.66732 184.24115 182.82381 186.20096 192.56967 208.20874 206.71977 199.43916 197.59308 166.87250 143.33314 135.09530 117.32325 87.71579 74.04592 53.38576 47.05886 32.92469 28.56651 28.83461 30.89907 18.95462 10.97037 7.40399 0.49460 -0.47373 -4.08473 -3.59392 -3.67329 -4.59058 -5.10477 -5.62409 -5.71673 -6.55651 -7.49991 -8.52413 -10.79247 -12.67937 -17.81017 -18.73245 -18.77153 -16.94077 -16.16055 -16.01957 -16.95724 -17.49771 -19.31508 -20.82513 -23.86657 -23.83469 -27.34623 -32.50362 -42.45340 -43.93737 -45.15780 -37.36402 -29.51430 -28.78851 -28.90180 -31.09098 -32.12476 -35.82627 -39.83599 -42.39691 -46.30121 -47.48689 -58.25924 -65.57558 -72.04842 -67.88708 -68.31007 -73.37448 -78.09154 -77.77282 -81.85336 -75.32905 -74.27824 -71.94579 -73.92841 -76.91559 -77.54146 -78.70481 -79.11721 -79.84812 -80.03366 -79.57201 -79.51470 -80.76495 -85.53926 -86.93455 -88.40613 -88.01424 -86.84547 -86.96950 -90.22395 -91.96198 -92.88807 -93.92742 -94.69151 -95.00028 -95.54445 -95.35866 -95.22653 -95.03996 -95.15149 -95.22465 -95.34513 -95.57975 -96.24366 -96.71490 -97.56333 -97.76292 -96.83624 -95.86005 -95.80066 -95.80180 -95.93328 -95.50684 -94.80043 -94.65038 -93.68904 -93.99645 -95.66770 -96.17463 -95.93602 -96.49147 -98.53086 -98.57341 -98.96164 -99.03074 -100.78649 -101.25036 -101.34219 -101.65334 -104.51974 -107.13136 -113.13937 -115.39273 -119.80185 -123.06793 -125.08425 -129.77380 -132.03552 -136.64357 -140.62519 -141.87561 -144.39349 -147.73810 -150.04884 -154.77464 -154.04365 -153.44772 -152.29223 -151.70330 -150.45492 -150.57322 -150.74552 -152.80117 -153.40922 -151.24847 -147.78153 -147.11350 -148.85569 -149.96964 -150.33177 -148.98393 -148.79146 -150.10388 -150.76047 -148.44110 -143.60911 -141.15681 -141.06642 -135.24239 -129.95673 -126.87301 -126.30269 -124.21143 -123.22858 -125.58256 -129.62621 -132.22941 -138.72341 -147.40961 -149.58720 -157.16428
447.61392 479.53754 509.72589 514.33215 561.57948 601.25978 656.27246 690.59645 753.85489 775.39149 825.01073 817.08131 838.44286 833.53251 823.81798 810.33533 770.74283 693.42146 652.49198 623.22182 585.18121 522.39237 485.23614 489.08939 515.68284 538.39631 504.66414 493.87195 558.71953 629.44523 730.34415 776.76727 802.36442 837.59517 912.37505 961.85043 1029.39646 1058.82917 1116.24884 1142.79365 1146.11048 1136.18900 1059.74590 1051.64441 1034.69716 1007.93936 1020.31740 992.77957 976.76268 906.71035 805.87638 756.51505 711.56311 718.01007 668.37972 577.63366 556.77750 498.09923 474.59372 482.69637 441.02901 361.67461 301.62957 251.76718 253.41670 272.81018 246.63000 203.08691 236.02540 285.47463 254.23819 232.28798 204.09467 205.57662 175.69337 170.77818 150.45459 110.03329 74.43912 61.97903 35.14714 1.95389 -20.46446 -23.41239 -17.10254 6.90638 51.42536 72.96180 60.30898 68.38362 46.03923 55.16945 55.32839 61.85224 74.64545 108.86807 141.26614 160.48530 165.99819 182.06400 192.15936 192.20665 204.89566 217.76642 214.64082 208.14685 186.69230 174.01060 158.92699 133.78632 119.79747 104.90042 79.28468 66.86521 59.28987 49.87062 37.84220 33.12691 25.57372 16.56224 10.61780 5.74026 1.51996 0.98125 -1.05096 -1.58308 -3.13630 -3.38749 -4.68655 -5.22825 -6.61372 -6.85373 -8.06813 -10.02466 -13.09308 -15.19505 -18.11001 -18.87917 -18.62741 -16.10236 -14.82632 -16.15600 -17.82438 -18.06125 -19.54383 -24.36799 -25.85685 -28.39025 -31.30065 -36.01213 -42.27181 -43.44552 -40.18728 -33.73797 -32.16038 -28.52282 -29.12652 -31.33144 -35.34990 -36.64340 -40.72904 -43.23539 -50.62606 -52.91683 -57.70553 -65.69247 -67.93891 -58.10604 -57.13065 -65.70152 -70.06274 -74.33337 -73.53362 -74.12563 -73.92572 -72.82234 -74.28564 -76.60156 -77.02095 -77.47812 -78.41326 -78.22262 -81.52885 -82.99074 -84.29719 -84.75859 -88.47568 -91.61729 -90.63270 -89.37368 -89.12049 -90.62765 -91.99334 -94.52324 -93.33853 -94.53315 -94.50524 -95.13695 -95.82851 -95.54536 -95.87654 -95.55805 -95.35678 -95.37125 -95.26405 -95.54691 -95.76838 -96.15956 -97.29251 -97.51414 -97.12846 -95.72983 -95.74883 -95.78488 -95.63098 -95.25605 -94.89853 -93.98991 -93.33233 -92.42126 -93.14587 -93.71083 -93.33989 -93.79326 -94.81813 -95.13833 -96.65054 -97.31793 -97.80601 -97.20601 -97.14706 -99.04850 -103.23694 -108.23364 -110.00663 -113.93563 -117.76136 -122.46310 -123.89333 -126.57589 -131.01393 -135.61693 -139.84141 -141.69970 -143.40597 -145.95877 -149.82255 -151.60400 -151.86812 -151.25791 -149.58366 -149.24082 -149.05388 -148.61741 -148.78725 -150.57327 -150.01506 -147.10416 -146.55290 -143.74575 -145.86628 -146.88555 -146.94633 -146.94093 -146.57976 -146.25812 -147.55168 -144.34310 -141.98678 -138.13050 -136.56547 -130.37198 -127.25334 -123.47060 -124.27070 -122.25971 -122.46250 -123.23410 -124.98026 -128.14810 -133.73121 -143.42040 -147.35460 -147.09536
471.59741 495.97188 511.89900 518.82256 581.59153 628.52401 670.21334 690.78415 749.85075 760.00255 775.49088 798.93707 803.36588 832.76070 832.14332 821.66338 786.65558 728.66915 707.91932 653.83243 590.43232 529.97710 500.39744 438.39011 480.64794 484.10491 481.03097 490.22283 573.50794 664.75533 731.22336 798.43658 816.17283 847.93580 915.18448 989.84983 1005.11024 1065.22706 1112.60035 1147.07892 1140.73868 1129.32986 1056.52534 1011.79085 977.30372 962.04239 927.83609 985.44887 875.95485 896.75034 828.51837 761.34166 728.15931 741.28991 686.34625 673.09861 589.58750 548.52341 507.19164 516.49570 472.87458 435.63411 355.48955 287.78261 185.59616 162.67019 140.22175 139.98097 198.38239 242.76072 218.87829 208.29199 203.62359 194.74256 178.77544 170.60159 146.29222 119.10043 96.15095 59.63566 14.52816 -14.39036 -34.04258 -21.09837 -1.07462 36.68110 56.44338 84.92763 84.05599 94.06371 83.40609 89.03031 75.83737 72.81400 82.93610 90.20600 116.97352 149.28082 165.74848 175.76032 194.89650 205.71563 213.17410 220.77775 225.50376 217.66868 205.10251 184.89846 171.23872 167.02858 148.50286 139.53598 97.24237 86.61668 79.19896 60.07451 49.57355 39.54840 26.31045 23.83093 18.22808 10.31887 4.67754 2.89158 0.24289 -0.85102 -2.37894 -3.28515 -3.81851 -4.97254 -7.04545 -8.23330 -10.33092 -12.37522 -13.71793 -15.00983 -17.78048 -17.72877 -16.77527 -16.19750 -18.72163 -19.18051 -19.62122 -21.91538 -21.32979 -24.77856 -31.58866 -34.62223 -34.74100 -37.23844 -34.58937 -28.09785 -31.82566 -28.36484 -28.28629 -27.69373 -31.31787 -32.58842 -37.68638 -41.43502 -42.82274 -50.36517 -55.40229 -58.73569 -63.35104 -66.99582 -60.68273 -56.29084 -54.91265 -57.92310 -65.29145 -67.31459 -69.98653 -72.72346 -72.19612 -72.90627 -73.82465 -74.83859 -74.47505 -74.83604 -76.51189 -80.00561 -82.93310 -87.03340 -87.88988 -88.98884 -90.30864 -90.21759 -88.57496 -86.74419 -89.39589 -91.85347 -93.70423 -93.15595 -92.39696 -92.50979 -93.65099 -94.59922 -94.95329 -95.72630 -95.73319 -95.80206 -95.62883 -95.71609 -95.70961 -95.80609 -95.93393 -96.21331 -96.75828 -97.30448 -96.40180 -96.06256 -95.55201 -95.49870 -95.30738 -95.20510 -94.90519 -93.98872 -92.78994 -91.96440 -91.68060 -91.53199 -91.92577 -92.07897 -92.42500 -92.87962 -93.64144 -94.38859 -94.63791 -94.40530 -95.08864 -98.07961 -100.68336 -105.90112 -109.13640 -113.54989 -115.29955 -119.57118 -123.92301 -126.11094 -127.15030 -130.49154 -133.74071 -139.84652 -140.66201 -140.88984 -143.61306 -149.70092 -149.02864 -148.47196 -147.76967 -147.30240 -147.01937 -146.67936 -146.99410 -146.88336 -145.08471 -144.76248 -142.63646 -142.39789 -143.38315 -146.32593 -146.06854 -145.11412 -142.59223 -145.15145 -144.36409 -139.41397 -138.40854 -136.70302 -134.44545 -129.64656 -124.25558 -122.15562 -120.49988 -119.34479 -121.17348 -120.52235 -123.56398 -125.47809 -130.87501 -139.16104 -143.79853 -146.32480
482.55394 480.55129 503.55010 533.29542 573.72371 604.11911 653.85113 704.02323 699.20888 724.99775 750.40405 752.14576 777.60993 795.80029 816.16805 818.07978 802.11571 749.15204 726.88320 661.70562 598.46862 538.19901 483.25730 435.27257 437.36855 469.96721 494.32490 534.80879 610.85936 642.78353 720.38991 794.07482 848.58851 849.49130 892.91827 954.03856 1000.81961 1050.36264 1094.63593 1144.36693 1145.44831 1112.08900 1067.66526 981.10410 924.70883 872.01684 878.06656 772.73585 770.14607 784.06241 798.49142 762.83938 735.89485 697.34718 668.51847 624.01717 599.38013 549.76799 524.83605 500.86823 464.14026 428.45552 414.42003 273.58140 251.89610 193.26384 124.84928 127.36094 204.31002 241.54824 227.98743 212.83168 208.10995 178.61849 162.61222 155.15789 132.03826 115.47967 76.79486 48.15726 2.21682 -27.62742 -23.73371 -14.39418 35.67596 55.04110 77.15353 98.74457 113.20948 108.28268 101.62131 124.12510 108.46988 106.53914 99.99501 107.99641 120.18670 154.29276 165.26745 184.86276 205.39774 208.51702 218.23759 223.96967 226.83967 219.82752 215.54030 203.42785 193.31314 173.13595 164.58337 143.46760 119.24523 110.85448 95.74518 88.09643 78.13131 50.50060 35.41152 28.21755 20.09115 12.99558 6.79494 1.48379 -0.09542 -0.79055 -2.36671 -3.59556 -4.54040 -4.89955 -7.36992 -9.92237 -11.30122 -12.28182 -13.63573 -13.71490 -14.64222 -16.70773 -18.32694 -23.77529 -24.29967 -25.57847 -25.44918 -25.93439 -24.98038 -24.71225 -31.74975 -35.74460 -33.18863 -28.96016 -26.39512 -26.15051 -24.63894 -26.34610 -28.12186 -27.95603 -31.44675 -35.02063 -39.02127 -45.28056 -51.12782 -60.74781 -63.17682 -66.55238 -64.09124 -68.72697 -61.28018 -53.10745 -52.68148 -55.34557 -60.52158 -60.46777 -65.22658 -69.57436 -71.36893 -73.26283 -72.78279 -72.55453 -71.78654 -73.62305 -73.72635 -80.00067 -85.15335 -86.21408 -86.85281 -87.65221 -86.00413 -86.75420 -84.41981 -85.29003 -87.98178 -90.83162 -91.48855 -91.03484 -91.44645 -91.73735 -92.96440 -93.39843 -93.40281 -94.69681 -95.55414 -95.57839 -95.87015 -96.09577 -96.12845 -96.07537 -96.08453 -96.11346 -96.80730 -96.91563 -96.38042 -95.68781 -95.47303 -94.97576 -94.78346 -94.87224 -94.83851 -94.05724 -92.80857 -91.89786 -91.67797 -91.14455 -91.30659 -91.84861 -92.04574 -91.57987 -91.59585 -91.54226 -92.20415 -92.35089 -92.70746 -95.56096 -98.11064 -106.88361 -108.91226 -109.75448 -112.12146 -115.02878 -120.84118 -123.25176 -125.08495 -124.17800 -129.55480 -132.77743 -139.22441 -137.10024 -140.84478 -144.03092 -145.80876 -146.00383 -145.66762 -146.79036 -145.64622 -145.62665 -144.66410 -143.97324 -141.70614 -140.99690 -138.10853 -138.41280 -139.16438 -140.61354 -142.78177 -139.86594 -141.18242 -139.38852 -139.02251 -138.08530 -134.41668 -132.68316 -131.08110 -127.48810 -123.71349 -119.25240 -116.97293 -115.66943 -115.22446 -118.17187 -123.89905 -126.17660 -130.09973 -135.50583 -141.43114 -145.63185
481.45002 491.12510 502.65891 523.79561 545.77428 578.61875 582.44359 657.13613 659.50647 670.74468 693.04999 709.40779 752.08200 773.39189 802.12350 800.72729 787.87690 767.26051 720.67852 659.03164 611.94527 544.48928 484.33584 448.09464 446.22199 467.43240 494.85462 544.05291 602.02884 634.27001 673.87066 712.85242 854.26619 890.61469 949.28082 971.49171 1001.79780 1062.20729 1101.43782 1131.62817 1126.01435 1110.73434 1073.14898 964.95383 881.42235 841.03041 778.14447 760.41306 695.70196 667.62955 694.69810 695.55864 668.56993 598.11238 609.59209 608.41093 579.24542 487.67370 442.56299 408.53974 436.94605 430.39449 402.47401 330.36923 279.99879 193.00512 108.63056 144.75606 251.46393 244.89372 233.44434 176.75415 151.87909 124.90479 130.54909 112.61167 96.25736 97.20183 72.49823 19.19170 -2.38584 -24.36072 -13.28117 26.87908 66.21578 70.62323 88.11231 103.06591 117.32864 121.94567 130.85064 135.46516 138.62787 140.65128 125.79836 122.24966 139.62723 162.79505 177.44485 193.50481 207.55852 214.65546 217.69079 224.12354 225.60463 224.15832 216.74256 207.12388 196.27540 179.47029 161.66885 156.84901 147.43874 112.63056 114.74610 95.78690 85.47845 57.45802 47.90182 32.48756 22.59154 11.47569 5.14171 1.13411 -0.06421 -1.43682 -2.10884 -2.66550 -4.11563 -5.66844 -7.28076 -7.78141 -11.20914 -11.68159 -11.51180 -11.81541 -15.08999 -16.88958 -20.17701 -25.20682 -25.54945 -28.71255 -27.06820 -28.54422 -27.39677 -26.66950 -31.24552 -32.40483 -29.41958 -24.68193 -23.29180 -23.44657 -24.23514 -25.74059 -27.00316 -29.49056 -34.77647 -42.55175 -44.32657 -47.34278 -58.28009 -65.10776 -61.40380 -57.86475 -58.67386 -56.47365 -56.73847 -48.58671 -50.87011 -52.78665 -54.30729 -56.54002 -63.20745 -68.91463 -70.02689 -70.29322 -69.96045 -69.89442 -69.65805 -71.71586 -76.25760 -78.46102 -85.18393 -85.09592 -82.54675 -79.73951 -77.32506 -81.24578 -81.21206 -82.73404 -84.85515 -88.84471 -89.92400 -90.09018 -90.87149 -91.35392 -92.27654 -92.65756 -93.45273 -93.95287 -94.42826 -95.51544 -95.84395 -96.16126 -96.25608 -96.41929 -96.34087 -96.44540 -96.75983 -96.98888 -96.13370 -95.94581 -95.45335 -94.85164 -94.60273 -94.54998 -94.58802 -93.92833 -92.84216 -92.04439 -91.13403 -90.70353 -89.88294 -89.84544 -89.47386 -89.24476 -89.52080 -88.84496 -89.96214 -92.18438 -91.55746 -93.87273 -97.89301 -104.16739 -107.28830 -107.29217 -109.19325 -112.19208 -113.96958 -120.85833 -121.79836 -122.84866 -122.23179 -126.97909 -130.11130 -132.82796 -136.81699 -139.44792 -141.08812 -141.93884 -141.72568 -140.99945 -143.54760 -143.14077 -142.61715 -141.90683 -138.96293 -137.29350 -136.06775 -135.99116 -137.03163 -138.50448 -139.10248 -138.72846 -138.76490 -138.27276 -136.72557 -133.25418 -131.82904 -130.72369 -127.01716 -124.15091 -122.82096 -117.10342 -114.15354 -113.37815 -113.77577 -115.21462 -119.32268 -121.70920 -128.20709 -134.74077 -139.92653 -141.86097
480.52370 498.52519 514.49176 526.93490 549.17615 574.31906 585.16435 613.41641 613.71845 645.00158 662.08941 697.63361 723.37274 736.44789 761.06436 791.19551 773.33275 730.54209 687.19391 673.11338 616.02366 555.25004 482.81290 448.12366 440.10137 457.80407 479.87576 560.58448 648.40837 654.36138 669.15851 778.58144 822.82646 899.92054 952.88587 988.14193 1046.16853 1069.69283 1095.34991 1104.21747 1126.51631 1093.16426 1061.81969 983.48344 894.42926 854.74890 828.87833 790.02381 742.06817 638.85372 609.30165 552.69810 527.32905 540.53510 497.30170 534.22845 462.48652 417.78548 311.64555 312.54073 272.51487 321.32846 318.38287 282.04833 245.85864 126.98160 92.69633 157.44166 135.20390 165.78026 97.31911 95.80881 78.19262 73.85130 82.62653 87.20965 84.96058 69.85058 52.42687 37.23017 -17.88431 -27.56612 -7.91870 32.51727 61.41491 77.24227 91.17480 103.34522 112.33807 117.54336 135.47187 160.24086 165.25098 162.74859 155.48831 162.70797 172.89771 179.27197 181.91870 200.13355 209.16330 218.85051 220.78438 223.07435 215.39781 212.21547 208.07772 206.17975 188.97624 179.32653 168.44984 166.74435 150.01006 130.81010 111.13670 92.26453 72.24161 57.70195 34.57896 28.24613 21.01088 10.71238 6.60961 0.66266 -0.07894 -1.02810 -1.83273 -2.37582 -3.98001 -6.25309 -6.22227 -7.51466 -9.30636 -12.76498 -13.47327 -15.70199 -16.29163 -21.94554 -20.60642 -22.49802 -23.30440 -23.86013 -25.04308 -22.85008 -21.49124 -21.31214 -24.31319 -27.39233 -25.45598 -22.37028 -22.15670 -22.26239 -23.87726 -26.52229 -29.94540 -31.40894 -36.00721 -43.39660 -46.85776 -54.82300 -60.95613 -63.09897 -57.54195 -51.49575 -48.35575 -51.39890 -48.19431 -47.50519 -47.31021 -49.18645 -53.66346 -57.91337 -61.74421 -63.88457 -66.79546 -66.77064 -67.67719 -68.01329 -68.86299 -70.03647 -75.50542 -81.85776 -84.44083 -80.21093 -77.91551 -75.70690 -76.81442 -78.05174 -79.51492 -81.83793 -84.37122 -85.93236 -88.24537 -88.68048 -90.02677 -91.33048 -92.10159 -92.86380 -93.67923 -93.85403 -94.61234 -94.84231 -95.81748 -95.86764 -96.20457 -96.46238 -96.71451 -96.86599 -96.92393 -96.68842 -96.09677 -95.78299 -95.14469 -94.64709 -94.04947 -94.45416 -94.63765 -93.92103 -93.05459 -92.08704 -91.60310 -90.54451 -89.57336 -89.08311 -88.07368 -87.25105 -87.22285 -87.04095 -87.33294 -88.83405 -92.08273 -93.70233 -98.25759 -102.17103 -103.49281 -104.78063 -104.66624 -107.95809 -114.90836 -119.61501 -120.20622 -122.39789 -122.31192 -126.45489 -127.55487 -129.86137 -128.84273 -133.90509 -136.01364 -137.22473 -138.64067 -140.12568 -140.60803 -141.60294 -140.27800 -140.55540 -138.11318 -135.71109 -133.92589 -133.52559 -133.34679 -134.70631 -136.01887 -137.00062 -136.59940 -134.07498 -132.96620 -130.03979 -128.08576 -124.59997 -123.28447 -121.99056 -120.58222 -117.26259 -112.94497 -112.17062 -111.89461 -113.08627 -118.26866 -120.27030 -123.29732 -129.94467 -133.24079 -136.85158
475.87587 499.30067 504.78675 507.51581 532.16138 552.00676 569.57719 594.02491 599.60575 609.03254 634.73848 649.59396 680.79612 709.61849 736.15380 756.68322 748.71950 726.49840 689.29267 658.67877 603.96063 555.31848 496.39345 449.41721 435.29171 449.78676 481.64939 563.53737 638.39824 658.25362 699.61373 773.37738 799.04882 840.96906 900.87311 922.82445 1014.51231 1040.00638 1057.87784 1094.99656 1093.74416 1074.87989 1050.00846 983.83556 958.44668 922.86781 887.28844 883.92147 776.95884 666.46186 586.30696 499.65830 475.92100 422.69502 423.92872 393.74504 339.07693 286.88757 306.89162 245.64460 224.95027 182.84093 174.09080 175.46581 162.57044 110.65440 132.04864 120.54847 129.83590 51.70471 21.48625 25.02274 37.80636 32.84446 35.32555 54.10073 56.39558 56.59872 47.27886 11.42514 -4.49614 -25.61446 -17.27357 26.19403 52.61851 62.19914 72.16288 113.18652 114.28869 124.01122 161.51189 166.99035 171.13571 167.43672 180.12807 190.29696 189.58925 185.67674 206.46518 205.94073 218.75316 221.56045 221.18585 215.72022 210.50644 203.66490 199.81468 193.73259 188.15155 180.75636 164.07000 159.27301 148.66042 135.97455 113.77361 85.68393 66.44418 48.21556 32.90531 26.65074 19.71905 12.00360 8.00522 4.82842 -0.06743 -1.46853 -2.19697 -3.60725 -4.17985 -6.06174 -6.13548 -6.98487 -11.37494 -13.53361 -15.94772 -19.74355 -21.05494 -21.12525 -18.87797 -17.43553 -15.69719 -17.63123 -17.59216 -15.66445 -15.92859 -19.49408 -18.09248 -24.43403 -20.78508 -21.26961 -20.38194 -21.05678 -23.78925 -26.60636 -29.50723 -32.63168 -37.80165 -41.39609 -43.17690 -49.21276 -51.64629 -62.09776 -58.47840 -47.90146 -42.29960 -40.29212 -42.09323 -43.09465 -46.42721 -50.19707 -54.10606 -60.24656 -62.80606 -65.30557 -64.80800 -64.30861 -64.28651 -65.18524 -72.96583 -75.05388 -80.20550 -79.78845 -81.03161 -78.89631 -77.32100 -75.32454 -76.85853 -77.98738 -79.49400 -81.82219 -84.12975 -87.18544 -87.62808 -89.13747 -90.66903 -91.18707 -92.57765 -93.26618 -93.98742 -94.20365 -94.63583 -95.06799 -95.47906 -95.80347 -96.25462 -96.40661 -96.39028 -96.38562 -96.58199 -96.62276 -96.20311 -95.74209 -95.16195 -95.01491 -94.48303 -94.58859 -94.33850 -94.11801 -93.34179 -93.20028 -91.58342 -91.07658 -89.62085 -88.11668 -87.70525 -86.77520 -86.54566 -86.33395 -86.52646 -88.02444 -89.51163 -93.95742 -96.74285 -97.91952 -98.81171 -102.31584 -105.34219 -107.44882 -109.14567 -116.35742 -116.70993 -118.74147 -119.94232 -121.27021 -124.48883 -125.16626 -128.13471 -130.22374 -132.33721 -133.21598 -134.12927 -136.48686 -135.60623 -135.87096 -137.21605 -137.74397 -136.56167 -134.47813 -131.93859 -132.13529 -131.47777 -131.31262 -133.12202 -133.00252 -132.05369 -128.82775 -129.17395 -129.28442 -125.07814 -121.49944 -120.29241 -119.13254 -116.72814 -114.32314 -111.77192 -111.15609 -110.85136 -112.35782 -113.99856 -118.53735 -121.83385 -126.24608 -130.48112 -135.34420
469.28522 482.46668 498.06679 485.44912 504.00237 513.93629 539.64019 561.66570 565.15272 588.91782 593.23380 610.17672 634.21017 679.80606 697.22513 734.56389 737.72536 711.84536 686.30895 638.71757 576.49866 559.85612 519.24115 454.65770 430.59282 441.56521 525.99703 579.03133 596.25538 619.95721 654.11221 690.83222 774.77801 820.66788 808.97265 884.92985 918.05163 981.05809 1026.01195 1059.98878 1081.19886 1062.98523 1055.51955 1010.24205 981.74823 961.24904 922.83869 864.34312 823.49766 716.74768 602.72937 489.65875 499.71686 462.21464 402.43017 404.73127 456.09070 452.93800 380.36784 344.23441 198.84507 173.84897 173.92660 181.95641 143.16385 124.24841 187.69289 176.21753 105.17300 34.22504 37.62369 34.43650 68.06371 47.42012 18.94916 17.35916 25.66250 23.98227 14.23657 4.34496 -11.34987 -34.38390 -28.75420 -0.58565 28.29928 39.02420 65.43123 114.18438 121.08139 139.94426 165.25222 181.25804 185.99485 186.04906 192.31566 195.35869 201.53060 206.40239 214.40424 216.73523 222.62981 219.39792 218.90841 210.11013 197.47737 183.30374 186.20811 191.56130 190.48948 184.76105 153.30560 145.62803 147.44708 133.37406 112.18837 85.73225 79.60454 48.40051 39.93124 24.97632 20.06652 14.09958 10.39624 3.27018 -3.65055 -5.76110 -6.53691 -5.57760 -7.00119 -5.63062 -9.11790 -10.55295 -11.87397 -18.30621 -21.84610 -21.14938 -22.91153 -18.20375 -14.34859 -12.73614 -12.91338 -13.16025 -14.06311 -14.21813 -14.58834 -14.88052 -16.84356 -18.86069 -20.40598 -19.64221 -19.64671 -20.25671 -23.25048 -26.31295 -30.39599 -31.81146 -35.01736 -35.10197 -38.78578 -38.71441 -50.73008 -58.93452 -58.02154 -52.15425 -38.36951 -38.66084 -38.24059 -41.68143 -44.54479 -50.10859 -54.53051 -60.20736 -62.37323 -62.55436 -62.25615 -62.45263 -62.30494 -68.78374 -79.28092 -83.38515 -78.38822 -79.78146 -76.83470 -73.40266 -74.31973 -75.39469 -77.67394 -78.38355 -79.72110 -82.24729 -83.24800 -86.69189 -87.81869 -89.51861 -90.59631 -92.15690 -93.20292 -93.75926 -94.53412 -94.55191 -94.67768 -95.15093 -95.39673 -95.72980 -96.04776 -96.31455 -96.15714 -96.07863 -96.24523 -96.37934 -96.32625 -95.87901 -95.71977 -95.02500 -94.64812 -94.41580 -94.44317 -94.25248 -93.99729 -93.71722 -92.61640 -90.96674 -90.12605 -89.61333 -88.08970 -86.35263 -85.89536 -85.85945 -86.16491 -86.41086 -87.77694 -92.99946 -93.85107 -96.33378 -96.25687 -96.77755 -99.14945 -99.80436 -108.31426 -109.13440 -114.17217 -114.27051 -113.77822 -117.73497 -118.46958 -123.04527 -126.06491 -129.75060 -128.88078 -131.03974 -132.31087 -131.71260 -132.44161 -133.07299 -133.19194 -133.36318 -132.72232 -129.26587 -130.46642 -129.60923 -129.49963 -129.61365 -132.23451 -131.17939 -128.41141 -126.03312 -126.61034 -124.42159 -122.07728 -119.56621 -118.25198 -115.24951 -112.55821 -111.74138 -110.76983 -109.23576 -108.48214 -108.56231 -112.66121 -117.83186 -120.14736 -125.13393 -126.87759 -132.03417
438.44630 472.92072 474.23280 481.76922 487.44581 505.14588 496.30675 518.56915 519.57718 544.11455 580.30907 594.30564 606.05189 641.04778 675.73638 698.05073 720.39233 710.27080 705.17954 664.59353 616.48530 567.15323 500.46157 471.15531 419.17483 447.83975 523.89187 576.05438 554.52571 561.61398 567.71986 638.24080 675.01952 747.65259 791.13894 884.14812 923.46897 962.77775 1004.28639 1033.56821 1041.50897 1046.21618 1028.08260 1001.08950 957.31791 934.26246 920.74400 878.69996 783.96509 707.40906 612.76959 552.47557 559.38438 530.81097 527.02089 545.74043 540.13898 533.52584 489.32381 365.64554 313.65089 317.09558 324.99725 273.39230 232.03994 184.21568 208.22519 146.58677 114.68003 57.23881 59.62902 126.46847 87.33745 70.08428 19.28634 5.70927 -0.85101 -4.68244 -4.77518 -11.48183 -28.86591 -30.90636 -13.92516 12.55945 39.29865 47.92458 68.07657 108.37411 115.24639 151.28140 170.51473 186.04886 187.97160 200.96773 205.50884 209.44228 209.89671 219.87446 221.03554 222.32297 221.56388 218.18000 210.47213 203.42625 187.90656 177.69152 173.77594 176.68295 179.20901 170.84842 144.76830 125.98864 123.97845 119.36727 113.56746 90.47362 74.23645 59.12327 37.91145 23.43528 15.60537 9.84899 6.46467 -0.95288 -5.53483 -8.47339 -11.89740 -10.84112 -9.53834 -12.49904 -12.45407 -15.75680 -20.31676 -19.45403 -19.51107 -19.14009 -18.96504 -16.12870 -13.40847 -10.75501 -10.82811 -12.46974 -13.63450 -15.35953 -14.78229 -15.42489 -16.96303 -19.35562 -19.88223 -19.05284 -19.55566 -20.43122 -22.01396 -24.01105 -25.27399 -29.02483 -30.60862 -29.97697 -33.10421 -33.75977 -44.29316 -55.74199 -56.54181 -52.98916 -40.77157 -37.18281 -37.22109 -39.66879 -45.36746 -51.36519 -55.46149 -56.22912 -58.10324 -59.61868 -60.98499 -61.44823 -66.04189 -70.30851 -79.93776 -80.03017 -79.45623 -72.57920 -72.26416 -73.37682 -74.89571 -75.56318 -77.65844 -79.93850 -81.65352 -82.91525 -84.04381 -86.88270 -87.82672 -89.91627 -91.47864 -92.30037 -93.44830 -94.02414 -94.09728 -94.16020 -94.42613 -94.91657 -95.27435 -95.74716 -96.11243 -95.99868 -95.72285 -95.54877 -95.68801 -96.29048 -96.44086 -96.14851 -95.98697 -94.95849 -94.67183 -94.33654 -94.67741 -94.81330 -94.49366 -94.37904 -92.89842 -92.19129 -91.28945 -91.18300 -89.20920 -87.64941 -85.56548 -85.30800 -85.04101 -85.65498 -88.18364 -89.38551 -92.79378 -92.59187 -94.70908 -94.62714 -96.77941 -98.00295 -101.93799 -105.98269 -111.04386 -110.56408 -111.47513 -115.68185 -116.72472 -120.01776 -122.61268 -125.22536 -125.28253 -128.24322 -128.84731 -129.52132 -127.70118 -128.56216 -130.63343 -130.07695 -129.58058 -125.66065 -127.88256 -128.56529 -129.13964 -128.23248 -130.05378 -128.92160 -127.69087 -125.35100 -123.08580 -122.69303 -119.57938 -118.86739 -117.33930 -114.46076 -111.95278 -110.68954 -109.15637 -107.72991 -106.81000 -108.45203 -109.81109 -113.17678 -118.54132 -119.99215 -125.11968 -126.88133
438.28150 447.26941 457.31346 470.01744 467.58474 489.52791 503.70808 486.91538 497.83998 509.84802 555.05533 591.65736 602.72479 608.71503 670.14189 683.52159 698.22693 696.01420 687.64144 637.77301 589.06966 587.52798 536.50498 479.75213 415.98720 427.77246 503.82077 540.82396 526.86925 515.53951 558.01315 610.58528 640.76428 710.78572 754.31278 869.74798 932.24312 974.06096 977.12702 995.33478 1009.71175 1017.93927 1009.56617 982.97562 960.08274 933.18920 892.19488 825.29900 779.82191 701.80423 621.77807 585.19359 580.60312 647.39833 629.21607 635.74247 617.70553 553.49750 445.51789 349.11062 351.50586 432.49659 416.92716 365.59135 255.12994 269.42849 202.99596 210.57725 168.55693 202.65845 189.91685 162.71572 171.81421 103.58175 58.18188 35.73930 -1.92472 -1.50040 -2.14777 -11.85144 -17.44354 -14.94646 2.67350 35.16173 43.29687 39.61579 70.53356 78.90966 111.81552 156.31728 175.07241 179.47503 188.93926 204.42759 211.67151 213.16262 218.67721 218.14205 218.51991 216.52012 216.86452 212.65977 209.48862 199.80436 186.54680 171.28983 159.28747 170.99398 176.37374 158.87216 149.23695 116.34929 97.72241 106.71278 96.02741 85.35500 79.49896 63.16160 47.40787 30.70865 21.73165 10.48895 7.07957 -3.12248 -8.12416 -9.77368 -11.05215 -12.00888 -13.91600 -14.15111 -15.98460 -17.05874 -17.41579 -20.00838 -14.90066 -15.29001 -12.63103 -11.32384 -11.16335 -10.43514 -11.26515 -13.18371 -14.68150 -15.70532 -16.59399 -16.16077 -17.00835 -18.49578 -19.73636 -20.07948 -20.58545 -21.84617 -22.56297 -23.65454 -24.64696 -26.93011 -27.48983 -28.58523 -32.16777 -34.52525 -39.95275 -50.49328 -56.31516 -50.44606 -44.18076 -37.45880 -37.91329 -39.24008 -44.77201 -49.43082 -53.58494 -52.89396 -54.73966 -57.91096 -59.36369 -59.95641 -62.45004 -71.04342 -76.83967 -75.61396 -71.48110 -68.31104 -71.25196 -72.67539 -74.94234 -77.22110 -78.47484 -79.96439 -81.13149 -83.10880 -85.47046 -86.65066 -89.57843 -90.05282 -91.60314 -92.67234 -93.25787 -93.53339 -93.56578 -93.74947 -94.36760 -94.93757 -95.40784 -95.97751 -96.00424 -95.85376 -95.35394 -95.37925 -95.60407 -95.98032 -96.27928 -96.03289 -95.80490 -94.73544 -94.93634 -94.90956 -94.97031 -94.98060 -94.89031 -94.71926 -93.43060 -92.92165 -92.02075 -90.75973 -90.46216 -88.86417 -85.62841 -85.06127 -84.67897 -85.63250 -86.67730 -88.98957 -90.68454 -91.68942 -91.93568 -92.63162 -96.06561 -97.96430 -102.12950 -105.07814 -107.62991 -108.49550 -110.01644 -112.99890 -116.87872 -118.62951 -119.52486 -122.36956 -121.23233 -124.08584 -124.86301 -125.44244 -126.59898 -125.96114 -128.52098 -128.59287 -126.21621 -124.99403 -126.24590 -125.72376 -125.17123 -126.32102 -127.08626 -127.60113 -125.67841 -123.37166 -122.79071 -120.35177 -118.89811 -116.96301 -116.16875 -115.28873 -112.85679 -110.52482 -109.14582 -106.82088 -105.97653 -106.87290 -109.17408 -112.93419 -115.28569 -117.55026 -120.34528 -122.04942
433.17161 442.26643 441.44317 444.92721 461.60277 480.52521 486.39133 476.36548 471.95971 501.57781 523.48148 553.07135 547.66811 583.70164 613.70636 658.19798 671.10754 665.17807 647.75781 621.54058 583.26442 578.08459 564.47598 507.04920 440.62761 410.97250 442.35569 469.30416 492.62903 505.20787 574.98295 634.03562 699.56865 718.11561 786.63897 863.56183 881.01382 942.64274 941.68744 945.22749 1002.36804 999.47333 985.33583 979.35251 959.88422 948.87477 895.95037 825.98047 809.63831 715.07787 679.83361 658.20547 691.06046 721.41151 697.08857 671.67917 593.57233 540.86636 458.01919 437.13273 453.13780 447.74100 424.55451 343.38019 301.79801 271.47581 265.68478 271.12917 259.25644 245.16899 254.51675 225.15986 180.42247 157.85254 106.78611 46.76146 9.29000 16.85924 22.20552 1.58294 -10.57029 -15.01807 5.77387 49.64557 53.54604 53.93014 64.41059 97.36968 118.26378 145.95581 167.48104 183.19945 192.54963 198.86884 210.92483 214.38562 219.61507 216.61380 212.81129 206.74774 210.13250 207.51169 201.78066 189.35757 180.79222 170.31843 160.46845 144.60624 141.70060 143.71399 139.14343 112.77893 100.54228 95.49885 69.67590 70.53587 63.46130 61.14752 52.95225 32.71122 24.66569 12.10475 1.99350 -8.09514 -8.34880 -8.33373 -8.23293 -9.32888 -10.37429 -14.00309 -12.97054 -15.20034 -12.85469 -13.12832 -12.61195 -9.44533 -10.93471 -11.98250 -12.10858 -11.62958 -16.72950 -16.57648 -18.81664 -19.61309 -21.55143 -20.76389 -20.57825 -19.03382 -19.35553 -20.29103 -24.37265 -24.58137 -22.83513 -23.01137 -23.96668 -25.98340 -27.34078 -27.43030 -30.77427 -32.99758 -41.22106 -50.86210 -51.08178 -46.79140 -41.53419 -37.73738 -39.73331 -40.36854 -44.69492 -46.77054 -47.42034 -50.36085 -51.46724 -54.60159 -57.64486 -63.92087 -66.23719 -74.12717 -68.82743 -63.82468 -63.02760 -67.33477 -69.96983 -72.31453 -73.55497 -78.43853 -79.25437 -81.35425 -84.14912 -84.55410 -86.42954 -87.66162 -89.12878 -90.97883 -91.77503 -92.81913 -93.17536 -93.33531 -93.24574 -93.61461 -94.71552 -95.40300 -95.70761 -95.90148 -95.91251 -95.58897 -95.31029 -95.30724 -95.40138 -95.79149 -96.20561 -95.93431 -95.33233 -95.25935 -95.02373 -95.14089 -95.06969 -94.81234 -94.82777 -94.37373 -93.72327 -93.39685 -92.61803 -90.42450 -88.59225 -88.23578 -86.43060 -85.20890 -84.36764 -84.41787 -85.92056 -87.03148 -88.67150 -89.39929 -91.16776 -93.41714 -96.92719 -97.62306 -100.63358 -104.62019 -105.71817 -105.22336 -108.27413 -111.60713 -112.42237 -113.35215 -115.18060 -116.86922 -120.17588 -120.00415 -121.00019 -123.52979 -123.64211 -125.37754 -125.74138 -122.82032 -122.00578 -122.06336 -123.45514 -124.31169 -123.45841 -124.05282 -124.49351 -125.01489 -123.47467 -122.77861 -120.81641 -117.52602 -115.79977 -115.45706 -115.09706 -114.68610 -113.21667 -111.25605 -108.72510 -107.56146 -106.18699 -105.52042 -107.07111 -109.73215 -113.93878 -115.21778 -115.97802 -119.85820
423.12788 428.14310 419.92524 437.82267 452.92917 474.18676 472.13052 444.43735 449.03515 466.94309 508.59723 513.82825 530.61482 538.94828 575.79823 625.14256 632.37846 649.86625 632.71757 610.43665 578.80841 565.76928 526.75969 523.96433 451.66116 440.66352 441.56527 449.38888 455.79734 505.30062 549.98726 625.81658 673.78821 745.81058 789.74354 799.64062 837.33344 873.29521 896.87274 908.91226 943.10003 976.93580 986.82052 983.93882 975.17041 964.65262 919.37474 874.11222 837.97865 806.25664 782.04062 786.06390 796.75917 804.38967 762.26025 698.37681 654.31817 611.67288 582.75096 498.22645 484.08883 474.43869 424.08972 388.74197 364.93266 336.76524 354.27523 359.68445 287.98935 258.63138 257.21215 229.08625 214.45479 135.03249 71.97810 45.48386 23.76524 44.93201 56.70086 60.22239 14.91534 -3.21420 -13.23291 24.70820 40.54005 67.45605 87.94915 98.18096 120.56073 144.46729 165.23592 171.92396 186.66389 203.67661 209.49636 210.71205 209.94334 207.73204 203.63767 203.69213 203.99472 204.18787 195.31105 184.97959 173.12772 163.98138 148.36908 132.06492 123.29180 113.27337 122.64863 114.13025 104.52280 73.59805 54.92426 32.19566 33.80186 37.04018 28.01418 28.81588 20.31587 10.89591 0.34484 -4.38265 -6.04897 -2.38111 -1.81242 -4.40482 -5.70647 -9.14477 -11.22338 -10.87488 -8.70006 -8.14360 -7.86104 -8.67975 -10.51959 -12.23946 -14.94615 -16.79126 -20.25227 -23.51924 -24.29178 -25.86967 -25.55040 -25.69447 -22.13837 -21.29510 -22.88697 -25.18757 -26.83763 -27.58833 -27.28597 -26.47729 -24.45989 -25.24411 -27.64007 -28.13233 -30.43620 -37.54716 -49.03527 -53.17833 -43.81468 -39.75201 -36.39658 -37.60975 -39.34184 -40.74487 -44.20844 -44.92800 -43.58372 -45.74013 -49.81604 -52.89174 -59.98452 -66.45051 -73.73590 -69.35117 -64.76640 -60.15976 -62.84802 -63.95407 -68.49943 -72.69865 -74.59116 -78.51054 -81.27288 -83.84254 -84.74091 -86.19060 -86.64730 -88.43274 -89.07934 -90.73018 -91.88048 -92.26018 -93.55385 -93.50989 -93.62827 -94.73868 -95.59234 -95.70764 -95.61631 -95.53425 -95.36414 -95.09263 -95.23019 -95.29617 -95.48985 -95.71786 -95.94117 -95.79542 -95.00331 -94.77846 -94.89889 -94.88449 -94.76840 -94.57919 -94.73149 -94.19886 -93.72205 -92.47376 -91.91228 -90.08341 -88.38212 -87.96987 -86.69248 -85.35789 -84.20567 -84.31283 -84.68898 -85.91338 -86.72057 -88.44590 -88.45289 -91.98366 -95.21402 -97.72829 -98.30660 -100.68258 -102.34104 -106.02302 -106.87118 -109.38310 -108.40472 -108.01602 -109.92380 -115.21840 -117.27234 -117.60508 -119.52673 -121.47664 -122.05506 -122.28716 -122.33267 -121.80436 -121.32023 -120.78322 -121.52411 -122.41083 -122.83444 -122.09937 -121.57588 -121.73530 -122.48561 -120.13971 -117.44107 -115.93346 -113.96485 -114.85416 -113.73814 -111.83215 -110.34984 -110.60605 -108.35619 -107.37805 -106.02612 -105.28538 -104.46375 -106.72352 -110.59310 -112.72279 -113.80306 -117.54711
391.03489 403.55975 430.06233 439.66226 459.46374 467.16532 460.84078 439.56023 433.73781 442.99506 464.05344 497.84894 517.64791 536.50806 541.79773 570.75649 611.09464 635.10935 612.82239 591.62427 547.94198 525.08087 496.44030 458.51891 429.15892 421.59758 466.45364 486.38046 489.15973 513.20100 587.25067 612.43493 671.11888 716.89685 736.60343 741.67796 737.53272 780.34941 826.07160 865.66150 902.63387 968.25963 986.96420 982.07475 976.11050 971.55960 939.77377 906.48270 901.15877 900.95469 867.92406 858.38476 869.37326 845.97126 775.46838 756.22318 747.54329 705.08874 662.80447 606.08432 548.67570 524.66755 472.67701 472.09047 461.72326 443.27898 379.02810 372.11490 267.69275 222.11162 214.50047 207.97209 142.84258 100.82187 49.12775 50.87079 70.37352 80.29098 80.22038 70.09517 45.66865 0.79074 -17.14720 -6.59931 38.35644 75.69937 92.80488 124.08928 140.42405 143.61901 154.14445 164.81846 175.93057 192.33187 203.84684 203.18934 203.47641 199.81661 193.93495 193.53354 196.58191 193.24514 190.62718 183.29715 155.25207 155.48616 150.62898 124.94709 114.19532 101.88314 98.61656 99.68739 87.59508 63.83734 41.29017 14.64430 22.17618 9.18252 11.60161 12.61667 2.75690 7.11647 -0.96940 -3.63321 -2.01208 1.41780 -0.17252 -4.62550 -5.70542 -7.81384 -7.76584 -6.67616 -7.48522 -7.04483 -7.12053 -8.23732 -10.28778 -12.08937 -18.76633 -20.71983 -23.21002 -24.98902 -24.00185 -23.74625 -24.08134 -23.65046 -26.70164 -27.29450 -26.48228 -29.67003 -30.55592 -31.03309 -32.47712 -28.36099 -27.46235 -29.53474 -31.04917 -33.46543 -37.00131 -43.91969 -48.27721 -48.19292 -41.10971 -33.88444 -34.06036 -35.99514 -37.49241 -41.57000 -43.75131 -43.29602 -44.12414 -45.75587 -50.03447 -53.39616 -60.69958 -72.22155 -73.98684 -69.91346 -63.11369 -59.34229 -61.16012 -63.39956 -65.42754 -70.40950 -75.33724 -78.51193 -81.48131 -84.02252 -85.19465 -87.21708 -86.94197 -88.28512 -89.54648 -90.25491 -91.51715 -93.10202 -93.66752 -94.77021 -94.79106 -95.16417 -95.43157 -95.15422 -94.86203 -94.82456 -94.78143 -95.04971 -95.19617 -95.31684 -95.48344 -95.72429 -95.60513 -95.23354 -95.02119 -94.79548 -94.70501 -94.61911 -94.62818 -94.65322 -94.79429 -94.38920 -93.22584 -92.61044 -90.58164 -89.90040 -89.62831 -88.73093 -87.83859 -85.67721 -84.39575 -83.72575 -84.16894 -84.78627 -85.90107 -87.52339 -88.47085 -91.25844 -93.10329 -94.95496 -96.17560 -98.76088 -100.13106 -105.61778 -108.54098 -105.24797 -104.18106 -105.26365 -108.97504 -110.63442 -113.52909 -114.37746 -115.22518 -117.20005 -118.29009 -119.46755 -118.55204 -119.73137 -119.01676 -120.08024 -120.93812 -121.36431 -121.22454 -119.90956 -119.83465 -119.73556 -119.72160 -117.50298 -116.52069 -113.83899 -113.07368 -109.95718 -108.95253 -109.00797 -109.23046 -109.44389 -107.95754 -107.34953 -105.42087 -103.67571 -103.87577 -105.95317 -107.17670 -110.16629 -112.64957 -117.18907
372.23614 400.23587 425.93596 432.82407 458.08473 453.33274 434.07610 404.30431 405.15084 428.22485 470.95393 511.22426 520.59108 554.70310 538.38250 539.41749 576.79327 595.51002 605.04504 582.76932 554.96672 509.57646 458.44877 437.12010 403.00080 420.18639 460.18259 504.81313 517.78689 557.37091 577.64680 617.44989 616.26985 647.73923 657.32924 689.08465 703.46289 723.44032 823.25088 837.83218 901.92109 930.21244 966.21409 961.52627 956.42980 972.44472 966.42482 943.06151 940.55324 913.51863 902.48043 892.70129 864.80519 846.31800 855.07842 842.18766 813.43824 785.05234 695.91116 633.01328 623.53514 555.20329 506.26833 493.79930 503.97635 483.91128 404.80897 359.57952 231.59596 180.69847 206.65039 182.71368 120.72869 79.89314 73.10897 100.17087 107.51854 107.45541 92.43825 69.25621 33.37041 7.08248 -15.68977 -29.50440 41.27569 77.12624 84.28649 119.09712 135.29277 132.23589 131.31333 140.89665 169.75631 181.97741 195.87626 198.41572 197.43223 194.25463 189.21307 184.83555 184.11654 181.40131 173.62081 157.29649 143.83992 142.97615 139.06913 126.33936 100.86246 88.41701 72.90095 64.35576 63.33248 48.29504 15.19370 7.82936 5.33444 -1.78786 5.84888 1.56533 10.63047 14.98494 11.35119 5.88681 10.19560 7.00126 1.44195 -1.38286 -4.22268 -6.00841 -6.68431 -5.23070 -5.30164 -4.54013 -5.66432 -8.62036 -12.82656 -16.66145 -18.61313 -21.76656 -21.19539 -18.73266 -17.75562 -16.99504 -18.66600 -20.21282 -25.39301 -27.53250 -27.70886 -27.47517 -27.60349 -28.09936 -32.75037 -33.96445 -35.28271 -33.34546 -38.70277 -39.41802 -42.31107 -40.54401 -45.83075 -38.97075 -36.51780 -32.86206 -33.40476 -34.91223 -36.40268 -40.79212 -46.05408 -44.60169 -45.87375 -48.43040 -50.58125 -60.48235 -65.80135 -73.32133 -71.96972 -65.17180 -58.14307 -58.70111 -62.17160 -63.09922 -67.06474 -73.22367 -74.99419 -78.41716 -80.60300 -82.01802 -84.43348 -86.31483 -88.90556 -89.92168 -89.62613 -90.57926 -91.08076 -93.09126 -94.58246 -95.01610 -94.91386 -95.56372 -95.08511 -94.57326 -94.35176 -94.50143 -94.75361 -94.92203 -95.15481 -95.36792 -95.46716 -95.54180 -95.42986 -95.27584 -95.26484 -95.08469 -94.74099 -94.55383 -94.64323 -94.84120 -94.92464 -94.93338 -94.40605 -92.70149 -92.05096 -91.22403 -89.87505 -89.76484 -88.69295 -86.60839 -84.77685 -84.17790 -83.75044 -84.49469 -84.71918 -86.17668 -87.34055 -91.27572 -92.08145 -92.24981 -92.86310 -95.34314 -97.08625 -101.78782 -103.03615 -104.12484 -102.37354 -102.96769 -104.75638 -107.51734 -108.87810 -111.18695 -111.49805 -113.37853 -114.77874 -116.02913 -116.83827 -116.39450 -116.55962 -118.40740 -119.27595 -119.09301 -118.86684 -117.96457 -117.45184 -117.64920 -117.36981 -115.84260 -114.42702 -113.05869 -110.01053 -108.54410 -106.64397 -106.97743 -107.96284 -107.12966 -106.93196 -104.95198 -104.65431 -103.11793 -103.60974 -104.08977 -105.71954 -107.62123 -110.05939 -115.71011
337.27915 345.73306 377.27798 421.02796 434.96653 432.09172 386.77231 387.40697 400.50248 409.29462 465.01003 492.81392 513.87858 532.70473 532.52913 525.04936 550.22426 582.72425 590.48144 576.12498 557.26968 518.68563 502.83740 423.21830 405.42004 391.77998 443.40344 486.34312 506.84426 543.55556 552.72217 557.72088 574.32579 562.50994 611.95669 688.41552 671.51373 708.19503 753.45026 821.23034 863.04705 911.31883 911.66942 911.05278 922.43643 924.65879 945.39055 959.82792 955.82581 953.69503 947.67433 919.84494 894.79111 877.70024 865.59438 876.90374 851.51215 797.93962 733.63923 719.51484 673.77620 649.28233 597.39625 575.46220 530.38614 509.45933 412.08295 281.44129 253.84857 249.10270 262.32756 194.44242 190.86220 94.15223 112.28203 120.66908 133.84822 106.27083 86.28817 71.60741 23.23441 10.91313 -7.34183 -5.15290 10.44066 36.61690 82.46774 95.72636 107.71725 105.45321 113.06657 132.23003 160.42737 173.57318 189.34230 195.29275 195.25675 197.46553 186.10537 174.09755 169.55930 168.68853 161.90715 151.07825 146.46427 131.88330 131.81833 126.07319 98.21937 77.76636 53.72155 41.29536 40.14100 26.89067 13.98346 6.65003 15.47273 20.38113 -0.48711 5.21322 13.59617 23.80501 22.69791 18.30988 11.40189 7.67199 4.77036 -0.49037 -1.15334 -3.96966 -3.98714 -3.91622 -4.38507 -4.65299 -6.24769 -8.85204 -12.45533 -17.69357 -21.18721 -20.53342 -18.37917 -15.10588 -12.51369 -14.37957 -15.47202 -17.21404 -22.39835 -24.92218 -25.40968 -22.69964 -22.62978 -25.88880 -29.07724 -32.81978 -37.05126 -41.50040 -40.10660 -41.64988 -37.90822 -40.65688 -33.73672 -36.83505 -32.83765 -32.94598 -32.90570 -35.40942 -37.18625 -47.54620 -50.96896 -56.54678 -60.78449 -59.31768 -64.33723 -67.19136 -69.67934 -70.30760 -64.32639 -60.82175 -56.22713 -57.94346 -61.59837 -64.38268 -67.48187 -72.35251 -74.25437 -80.39228 -81.50223 -82.48902 -84.44371 -87.49608 -90.45084 -91.88840 -90.48159 -90.32711 -91.97188 -93.74610 -94.45290 -94.26773 -94.18526 -94.12122 -94.13435 -93.91569 -94.24358 -94.43029 -94.59281 -94.90933 -95.01209 -95.37775 -95.62036 -95.62061 -95.46124 -95.36090 -95.27309 -95.24945 -94.77245 -94.52985 -94.59962 -94.80581 -94.93047 -94.94862 -94.95855 -94.64953 -93.31921 -92.02283 -91.19830 -89.36119 -88.76820 -87.07511 -85.60415 -84.19397 -83.24961 -83.43063 -84.26069 -85.78749 -86.41135 -89.42525 -90.32772 -90.26909 -91.48940 -94.81554 -99.17933 -96.65331 -97.23856 -99.46946 -101.77176 -102.87949 -102.95511 -103.49783 -104.95665 -107.08310 -108.27512 -110.35829 -113.58178 -114.32468 -112.59030 -112.87980 -115.49976 -116.41670 -118.25377 -117.98614 -117.76437 -115.18697 -114.49651 -115.46480 -115.09240 -115.19126 -112.80264 -111.33610 -108.27579 -106.93241 -106.45892 -106.11135 -105.48442 -103.98009 -104.10099 -103.62341 -103.20900 -102.60350 -103.41922 -103.42671 -103.43149 -105.13944 -109.77349 -110.78675
270.32812 313.18393 374.12624 373.44883 414.47821 388.94739 365.35563 364.77615 381.13941 418.30055 458.11495 474.26143 469.82903 483.32508 485.56318 502.99825 545.42390 556.67202 562.15496 568.18860 548.08447 536.88666 500.60227 460.83816 412.56778 408.59593 415.47468 436.94463 488.07132 475.73282 520.93495 513.71359 525.13818 593.36472 630.14929 693.84557 680.53998 719.22483 740.05827 785.70980 844.18815 874.57825 877.12957 896.52187 900.92848 911.64169 913.25280 948.17628 945.37766 953.16180 953.87005 953.90485 952.42446 920.87328 911.32304 898.47657 868.90992 840.76790 796.81933 771.05809 706.27626 684.63449 649.49356 590.88323 540.22545 473.27278 338.17982 293.30089 332.11797 327.49328 297.68843 289.78838 245.79805 247.47088 163.35186 146.36555 134.18182 113.60127 78.78729 47.24767 33.33293 17.58931 12.94973 -9.27414 -7.43006 7.15823 39.20362 53.26527 86.13395 91.61328 90.07573 118.05739 149.60871 153.19961 171.56136 178.67784 191.37523 191.72459 186.22824 181.66227 169.37965 157.05286 158.24295 146.58715 127.94342 119.55935 108.20620 109.05095 85.75443 69.06536 47.22969 35.26938 24.43066 22.24696 13.15996 32.20459 42.50800 36.55629 24.73852 8.98920 27.78400 36.89052 28.56890 23.38943 19.01363 12.32741 5.18675 1.86633 -0.74493 -0.93064 -2.61723 -3.20521 -4.38882 -5.04466 -6.29630 -7.82798 -13.64070 -18.78803 -19.82691 -17.57779 -11.92946 -10.39340 -10.78030 -12.39776 -13.87772 -16.36163 -20.04197 -21.90822 -22.48519 -21.96589 -21.91957 -23.29572 -27.56383 -28.02670 -34.52852 -37.24104 -35.29638 -34.49560 -32.40883 -28.68024 -29.76329 -29.55179 -31.93637 -32.83620 -35.04733 -36.19684 -41.18428 -52.09118 -52.57057 -64.55760 -68.93494 -66.15012 -68.17672 -68.72976 -70.24393 -63.91992 -57.84279 -53.75403 -55.26776 -56.53918 -60.25997 -67.11913 -69.25423 -73.83504 -77.62814 -81.02897 -83.09887 -84.65014 -84.64544 -87.80247 -92.16065 -92.15574 -91.89403 -92.45737 -93.51250 -94.52187 -94.61283 -93.46304 -92.57386 -92.77345 -93.03254 -93.60479 -94.07069 -94.46061 -94.79006 -94.88351 -95.10900 -95.36497 -95.48954 -95.60591 -95.54617 -95.34617 -95.23474 -95.17160 -94.86902 -94.58767 -94.55662 -94.79379 -94.97630 -94.97991 -94.81181 -94.63518 -94.25729 -93.38669 -91.91654 -90.30879 -88.53988 -87.28930 -85.68239 -84.11122 -83.23255 -83.19152 -84.21441 -84.34025 -85.04550 -87.42393 -87.57425 -88.84241 -90.28532 -93.91136 -94.77498 -95.14207 -95.63973 -97.32684 -98.20076 -99.77939 -99.43839 -101.62340 -103.52449 -104.18740 -106.21211 -108.88499 -110.92082 -111.31878 -110.77883 -111.80728 -113.49859 -115.77069 -117.59557 -116.85314 -114.80169 -112.93577 -111.89809 -112.23583 -113.11986 -112.60255 -111.97151 -108.88341 -107.89104 -105.60084 -104.17169 -102.99307 -102.73206 -102.51341 -101.89432 -101.64159 -101.26375 -101.03140 -99.05072 -99.92592 -100.60650 -104.00722 -107.51760 -108.32353
293.48474 285.08060 305.68752 354.02558 397.30175 367.10078 322.13834 301.41919 318.68255 423.73115 431.02637 464.60364 456.31395 432.92387 458.28254 488.54596 515.54040 534.99422 542.13435 547.66025 521.23713 504.19424 475.87621 467.39744 409.00625 357.63702 362.94007 415.91606 429.05312 428.03720 444.35077 452.72410 541.37214 600.53533 640.62373 689.13073 674.28756 683.12082 716.98239 774.22027 785.56773 835.12623 830.02863 833.96203 858.34018 895.33092 890.41119 900.02586 910.45817 925.56328 927.79201 933.41156 943.79389 964.50342 946.72876 933.60595 907.17293 859.91210 825.88091 770.99387 710.87455 701.00635 620.28963 570.49797 478.71519 428.49493 348.98423 353.20668 376.70442 374.94613 335.01756 297.51786 305.18524 241.03226 173.09709 160.38422 120.88774 85.01009 35.72432 15.46282 13.18322 56.91847 61.85616 6.24783 -5.20844 -8.36039 -2.59025 20.66573 54.97978 52.18355 75.57762 119.43380 140.61328 147.86035 167.47471 165.55318 173.80485 185.16622 176.52009 179.74446 172.53771 156.90156 146.49815 145.71064 115.09361 101.95127 89.73177 84.10240 79.37940 60.47454 47.37998 39.74256 23.88152 19.00888 30.30207 39.00340 58.06168 67.33422 40.63085 24.92369 29.95163 42.63566 38.12095 32.67193 24.60860 16.53822 6.52150 3.06747 1.82740 -1.90386 -2.50506 -3.47915 -4.74296 -5.08538 -5.97838 -6.49353 -14.65379 -18.82280 -17.53442 -12.44593 -9.59483 -9.85728 -10.14343 -10.82399 -12.97679 -15.65125 -19.82780 -20.14383 -20.41966 -20.06270 -20.39215 -22.39176 -24.39689 -27.77436 -31.85007 -36.92270 -34.38510 -28.62115 -26.74240 -26.59084 -28.25094 -29.02087 -33.92399 -35.03751 -40.36800 -44.96814 -53.13164 -51.87835 -53.65130 -57.99572 -69.34358 -70.10428 -64.00004 -62.55242 -58.70729 -56.36881 -52.51499 -52.65705 -54.71266 -58.04862 -59.55813 -68.58222 -72.22985 -75.03184 -77.13682 -80.24942 -83.77654 -84.48052 -85.25559 -89.10594 -91.41757 -93.56417 -93.93497 -93.80961 -94.16668 -93.45340 -92.70649 -92.75475 -92.15376 -92.44691 -93.09539 -93.48129 -94.03612 -94.37860 -94.71979 -95.00135 -95.08658 -95.23211 -95.48960 -95.52569 -95.42271 -95.33261 -95.13872 -95.12781 -94.94627 -94.81396 -94.77458 -94.89885 -94.99994 -94.98170 -94.86882 -94.54999 -94.39371 -93.68397 -92.00527 -90.20054 -89.50465 -87.54216 -86.17065 -84.62791 -83.97795 -83.48008 -83.28024 -84.00130 -83.52938 -84.38400 -86.82180 -87.81316 -91.18773 -91.53859 -92.71801 -92.48114 -94.10582 -95.35457 -96.44603 -96.16076 -95.99913 -97.06053 -102.59005 -103.57358 -103.62812 -105.18124 -107.91563 -108.91369 -108.20871 -110.43301 -112.58272 -115.06362 -116.61663 -117.36401 -114.90283 -111.94190 -109.74889 -109.76804 -111.09988 -110.16150 -109.13335 -108.21738 -106.59201 -103.95405 -102.92576 -101.94363 -101.50211 -101.55041 -101.48322 -100.55618 -99.90033 -98.86574 -97.88805 -97.43868 -99.47096 -103.25928 -104.85036 -103.49109
324.35975 267.16475 288.26796 307.15860 322.54648 321.74896 260.97953 245.90634 284.04160 363.24516 416.02169 433.47849 414.98112 409.07884 456.65407 470.59595 491.95895 493.02148 502.70940 512.28698 492.62418 466.33520 442.17338 400.04297 355.83822 323.94234 338.09224 396.67920 408.85808 411.95861 446.02291 477.97843 544.78522 575.69115 638.31662 632.12217 621.43264 612.51856 684.11986 745.15517 774.98606 818.94580 812.06109 780.04302 771.53236 826.42731 850.70788 873.52024 849.83352 863.85997 868.36891 888.85909 938.51275 939.70749 956.17671 942.10724 914.84570 876.89912 817.73127 757.36917 690.67687 625.85930 593.13503 515.88942 467.95759 440.92540 438.98449 445.79716 455.42266 383.37639 313.16171 290.86882 291.96412 211.44834 143.27022 100.43376 50.10737 37.49032 11.15059 15.39313 42.74302 62.47416 61.70356 44.66142 8.23562 -4.42054 -12.61824 -18.43083 11.31854 11.32473 64.10318 109.69580 130.03893 134.87004 147.53394 144.62194 150.92648 165.92413 166.77859 162.41038 162.47926 144.21886 139.47951 129.48773 110.29106 107.05909 102.09619 110.49347 97.31023 82.57516 53.44049 42.82785 33.79769 43.40520 55.72388 73.62616 69.93516 63.59044 42.34089 32.68364 37.66334 41.19373 39.48483 33.00081 26.00060 13.41306 9.51067 3.59310 -0.59650 -2.30542 -4.37873 -6.65090 -6.41701 -6.71051 -7.88530 -9.08639 -12.82958 -16.27604 -14.85064 -9.33512 -9.00327 -8.46753 -8.39684 -10.01729 -13.25607 -14.99279 -17.17068 -18.28487 -17.15222 -17.98960 -21.94434 -25.09461 -29.16297 -30.02385 -32.47129 -32.30136 -30.13140 -29.45991 -26.47832 -30.19742 -32.76007 -32.13510 -35.80051 -37.76747 -45.28672 -52.21636 -54.95950 -50.81495 -44.69338 -49.20755 -65.56601 -69.37742 -58.55951 -50.16302 -45.48004 -45.94528 -48.33951 -52.08712 -55.07067 -57.89137 -63.01420 -68.52356 -70.29465 -74.22073 -76.60897 -81.28106 -82.07149 -84.83508 -86.60767 -88.94704 -92.33972 -93.18116 -94.34272 -92.62088 -91.49626 -90.75020 -91.44287 -91.41909 -92.01737 -92.66524 -93.31252 -93.49332 -93.99678 -94.15656 -94.72795 -95.06860 -95.20872 -95.26042 -95.30709 -95.43937 -95.47632 -95.29380 -95.21522 -95.12302 -95.10938 -94.94459 -95.06459 -95.00867 -94.97524 -94.94606 -94.47938 -94.10625 -94.38602 -93.69935 -91.94446 -91.30106 -90.20933 -88.42401 -86.55288 -85.62820 -84.46987 -83.10088 -82.74726 -82.30063 -82.43179 -84.00948 -84.98379 -87.88583 -89.53677 -89.87389 -89.76639 -91.73229 -93.05243 -94.23247 -93.52874 -93.03434 -94.59406 -94.97102 -95.21117 -99.28326 -99.90349 -102.29694 -103.39883 -105.78296 -106.18736 -108.98180 -111.18238 -114.14518 -116.37152 -116.52822 -115.59001 -112.13632 -108.70847 -108.17969 -109.67651 -109.08507 -107.63269 -106.08056 -105.66893 -103.70849 -101.55876 -100.36345 -100.00875 -99.90119 -99.66674 -99.63860 -99.34969 -98.21059 -96.77595 -95.23877 -95.94177 -99.47652 -101.52768 -98.55172
343.60753 313.76809 291.11526 318.33684 282.69597 279.63778 236.03969 231.66457 252.79045 291.55144 346.17623 347.06856 390.64064 384.31839 404.65928 457.60013 452.36484 457.46177 466.39058 500.30257 482.37247 438.99818 412.62994 344.03357 309.15329 332.07160 357.44322 399.24787 422.46498 443.95158 445.58370 483.27903 505.51467 512.65246 528.87526 549.12574 588.24036 618.23849 682.08018 721.68025 764.65988 774.32631 742.90561 713.18136 698.39831 750.64201 781.73975 791.64990 778.67892 818.52302 823.93614 835.97265 898.34765 924.06628 931.60107 945.03013 906.52557 867.87995 808.37001 755.77262 676.44537 681.05672 601.97621 561.65037 553.41255 512.14314 496.67863 516.37097 449.00664 352.03612 312.62640 254.98926 270.01147 174.87083 86.07190 60.24120 28.95606 34.10776 57.87502 80.36523 83.08372 92.91964 87.02204 85.36863 36.52931 13.70040 -21.76235 -22.25958 -11.10490 10.45398 25.62580 94.82702 104.35549 117.27687 120.10012 114.81445 126.94505 133.47541 147.53392 155.96559 146.09952 145.31889 141.94374 131.80115 120.42423 112.48902 118.78503 121.88899 121.84144 99.16505 78.25613 85.38405 94.44234 79.16168 84.36450 82.96042 70.48867 56.34761 45.50316 41.19944 50.03155 46.49644 33.17453 27.14842 19.46104 7.88386 8.47616 0.86509 -3.14405 -6.53937 -3.78502 -8.40187 -8.81903 -11.38362 -11.12177 -10.35784 -12.46081 -15.09155 -13.40547 -10.64243 -8.13257 -7.76965 -7.92960 -9.43753 -11.32053 -14.43944 -15.99997 -15.97873 -17.17366 -17.58729 -21.68525 -25.43315 -30.29805 -30.37307 -29.88179 -28.62107 -27.20621 -25.61167 -28.83986 -32.51719 -39.96590 -40.30236 -41.83963 -43.53267 -47.86836 -55.61341 -54.47151 -47.92439 -42.63424 -48.70217 -62.90934 -63.17943 -49.88072 -42.80798 -41.76470 -42.73792 -44.64748 -48.76670 -53.37304 -56.51213 -62.21264 -65.90374 -69.92241 -73.30010 -75.13429 -78.94477 -82.34404 -84.34958 -86.24266 -88.23367 -90.18399 -93.18422 -92.79762 -90.66816 -89.87122 -89.34940 -90.21431 -90.65527 -91.06206 -92.13259 -92.84619 -93.58916 -93.76525 -94.18378 -94.95009 -95.02956 -95.13082 -95.15330 -95.21537 -95.28964 -95.38734 -95.33009 -95.15188 -95.11889 -95.06128 -95.00311 -94.97734 -94.91001 -94.89579 -94.41561 -93.82884 -93.63517 -93.48556 -93.20360 -90.93803 -89.88967 -89.44522 -88.30493 -86.70927 -85.80439 -84.09262 -82.72112 -81.58347 -81.82619 -81.78960 -83.05328 -83.84503 -85.08985 -87.30458 -87.70227 -88.60481 -89.85278 -91.78876 -91.69188 -91.68137 -91.82993 -92.30256 -92.49852 -93.92802 -96.33867 -99.31817 -101.51806 -103.74191 -104.71137 -105.55564 -107.04528 -110.44713 -113.77967 -113.96075 -116.44813 -113.91357 -110.21504 -108.39927 -106.15856 -107.78459 -107.24861 -103.86033 -103.21736 -103.71111 -102.41043 -101.54207 -100.03144 -98.61650 -98.39386 -97.98658 -98.10652 -97.78045 -97.72924 -96.47104 -94.94832 -93.75230 -95.11580 -96.82509 -97.88182
365.35648 338.28614 348.75453 353.66858 317.85473 289.06510 239.67606 270.32339 273.51947 258.65532 231.07426 235.16883 271.85102 327.05854 342.14477 413.41777 440.91235 424.53875 449.30338 451.64279 458.88820 435.19446 422.13730 320.31960 306.39483 328.40755 384.86352 417.38312 460.58637 465.00352 460.36981 464.81477 495.64611 497.86350 511.20286 546.73694 590.26822 625.74890 665.50237 687.53828 725.89630 696.49180 684.71974 680.89261 691.43936 729.28647 759.22653 765.96091 772.25172 728.49167 772.29303 778.51201 848.90209 864.54146 887.25452 913.35208 898.33511 872.20816 846.08931 779.40845 741.80362 705.15375 673.09347 612.90187 609.32534 580.75469 555.30333 508.58942 424.86520 353.24538 232.50201 212.62580 139.58903 87.00637 52.03921 111.08997 122.83669 69.65157 86.62175 116.11583 126.18396 117.65349 105.56991 84.22751 82.26100 27.99092 4.25735 -17.51501 -19.95945 4.81094 28.67128 65.97849 69.56806 73.25805 93.29807 97.47049 105.17871 132.39490 124.31657 126.07260 138.26505 148.20348 149.78712 144.74676 139.75035 135.74557 136.38731 137.69562 120.79940 99.28809 96.98655 105.37024 116.65751 103.47360 91.25895 83.14878 82.08490 66.81369 58.75853 57.94823 46.47898 34.05742 20.36474 13.84705 8.44358 4.54351 0.79394 -2.04457 -3.59372 -2.71787 -3.02216 -6.82800 -12.71979 -12.24222 -12.92972 -11.09412 -13.93843 -13.27676 -12.02122 -8.78670 -7.90078 -7.77640 -8.17803 -9.54734 -11.05496 -12.84150 -14.04427 -13.72452 -15.81281 -17.17684 -20.55268 -26.27500 -30.25553 -27.88326 -24.68036 -23.51613 -26.02600 -26.73810 -29.72543 -34.64702 -37.40116 -40.73956 -42.06928 -43.31113 -45.82507 -46.81239 -46.08694 -41.36846 -37.65207 -47.73789 -66.92845 -61.08574 -48.38890 -41.14093 -38.73080 -39.39038 -43.70175 -47.98310 -48.60587 -53.86653 -58.37106 -65.22483 -68.70423 -72.44830 -73.58764 -78.94981 -81.32874 -83.66920 -85.95072 -87.70435 -89.35162 -90.48892 -92.00251 -88.97221 -87.91981 -87.73093 -89.63064 -90.12715 -90.66915 -91.84655 -92.76043 -93.23582 -94.00872 -94.26960 -94.88355 -94.93362 -94.94435 -94.94789 -94.95242 -95.22699 -95.36637 -95.28853 -95.22156 -95.09554 -95.01595 -94.90612 -94.85990 -94.80731 -94.83361 -94.13832 -93.22500 -93.12373 -92.94042 -92.00442 -90.74073 -88.57688 -87.98041 -87.14203 -86.68263 -84.24574 -83.71694 -81.91991 -81.70119 -81.37058 -81.14676 -82.02725 -83.24101 -85.06937 -84.74470 -85.36191 -87.61633 -89.06243 -89.20634 -88.78342 -88.99490 -90.38664 -90.78322 -91.98605 -93.82529 -95.27105 -97.42456 -100.66787 -102.67775 -102.84493 -103.31189 -103.99305 -106.49580 -110.81248 -113.26555 -115.16928 -114.53142 -113.19109 -107.47625 -106.50357 -107.08387 -106.20442 -103.77163 -102.30949 -101.16086 -100.78190 -100.25811 -99.15624 -97.57824 -96.79776 -97.30861 -96.71583 -96.43456 -95.85367 -95.04597 -94.59930 -92.89091 -93.29159 -93.97825 -95.02205
388.83356 383.62627 400.88185 406.11095 363.67279 319.04542 309.64429 335.88585 327.68893 304.67151 231.76231 232.11817 242.19739 253.16595 242.34773 347.50168 419.52794 413.87841 416.61547 443.89929 437.79202 420.38477 321.17991 288.01766 259.88930 323.94224 398.75372 445.26149 455.25021 459.85294 454.83517 471.62106 502.46716 507.94344 513.54074 555.39059 591.81006 636.69460 641.27037 670.12240 691.15621 687.50955 630.69697 637.85933 648.38359 683.21262 711.48052 728.61705 705.41671 697.31140 711.61939 770.67265 815.79864 835.28387 858.28824 892.89182 879.20480 865.64404 848.98662 822.51190 793.65415 752.30474 713.51440 656.58711 616.94145 593.65132 569.58229 492.13352 418.94542 263.35596 194.58937 129.03604 88.80180 78.58263 120.43273 199.64581 210.92191 163.84565 160.39518 160.22559 151.62822 126.80577 111.63359 80.41232 68.67621 33.59731 -6.60114 -14.70179 -19.69751 -13.29808 4.31332 16.87909 16.78066 37.28437 51.59573 75.35561 100.86437 120.81940 103.43057 98.32803 120.65012 153.08859 156.50525 156.79700 153.09578 151.31195 147.19072 135.21660 127.55473 114.84811 124.12572 132.14017 131.56816 111.93311 97.26493 89.97010 85.11206 75.97726 69.55667 54.17706 33.21947 26.96540 19.77406 22.82018 13.90964 15.24101 6.58732 0.20341 -3.31284 0.55709 -1.52960 -6.68670 -9.26292 -11.04383 -9.47136 -8.07040 -6.27031 -9.98978 -9.98301 -8.15675 -7.42922 -7.43862 -8.83510 -10.55876 -11.03219 -12.26534 -12.58062 -13.30285 -15.31589 -15.75903 -19.54883 -25.37599 -26.71657 -24.88693 -21.21706 -23.96408 -26.71858 -28.59893 -31.44468 -35.12878 -36.36755 -35.05508 -37.27596 -36.49536 -35.57073 -37.01647 -33.35966 -35.51451 -35.79799 -54.89096 -60.45626 -59.05283 -45.98111 -38.65836 -37.60524 -38.71207 -40.36329 -45.99020 -48.19303 -51.35073 -56.41874 -61.98169 -67.02218 -70.33258 -75.18851 -79.16626 -83.48776 -84.45247 -85.63183 -86.61911 -87.56435 -90.74339 -91.19515 -88.19903 -86.62620 -86.48617 -87.66252 -89.25433 -90.62397 -91.18010 -92.11117 -92.81778 -93.75033 -94.20365 -94.55254 -94.58518 -94.80823 -94.78720 -94.97238 -95.16855 -95.32278 -95.28108 -95.25819 -95.10461 -94.97768 -94.90744 -94.89752 -94.86709 -94.84425 -94.38647 -93.86802 -93.31003 -93.12039 -91.85520 -91.35904 -89.04956 -87.97775 -86.95216 -86.33370 -84.70594 -83.73474 -82.09853 -81.76463 -81.38733 -81.13957 -80.96834 -82.24682 -83.06601 -83.97367 -84.87526 -85.99734 -87.70155 -87.33893 -87.72941 -88.35350 -89.63154 -90.29085 -91.89280 -93.40854 -95.49415 -97.56966 -98.08637 -100.00393 -101.58491 -102.66088 -103.88805 -105.67401 -107.60812 -111.82989 -115.41380 -115.60788 -111.90974 -110.09647 -106.68128 -106.87474 -104.42774 -103.37949 -100.81233 -99.18631 -98.51668 -98.28214 -98.04965 -97.09650 -95.26379 -95.21599 -95.17344 -94.12999 -94.62711 -94.38336 -93.92969 -91.80074 -89.77239 -89.47299 -89.77366
422.17768 414.64733 415.28671 416.04630 386.55607 345.93947 348.73474 375.66889 392.08209 324.60982 278.16959 247.13176 201.07822 220.67286 212.66800 240.71546 344.07790 413.04296 414.24321 421.01853 422.28053 368.13488 330.65195 281.33126 268.98651 337.91303 407.59118 422.78530 446.40156 440.14606 441.62435 480.00393 506.50385 523.05990 520.74506 548.99102 574.86540 598.08628 609.38863 639.39654 666.57964 658.66767 618.80218 589.60923 618.85363 644.67141 666.13361 675.74008 647.19943 661.52313 703.08536 740.32132 742.95212 845.86050 850.09670 863.34114 881.81038 857.75224 838.81508 806.54784 790.46454 754.03440 716.27060 669.58280 640.11988 535.92762 526.98863 430.29594 337.12127 208.59505 187.27640 146.47630 124.58696 87.89653 121.06569 219.38249 228.30604 212.43271 220.84647 206.55386 161.66732 132.84362 90.77665 62.75491 44.39097 15.60423 11.53338 -0.37986 -5.50489 10.40829 2.04169 -7.88965 9.76899 13.17965 48.50165 73.10234 97.11613 106.37702 99.46076 70.92781 103.65085 135.06452 154.99253 156.16686 162.63854 160.73875 157.58550 147.88746 135.73422 134.88702 138.87804 149.48943 134.08448 119.87831 111.52336 107.99800 87.41194 86.74212 70.65363 48.03603 26.27578 24.79085 31.17696 32.20126 27.09222 20.01217 13.80998 3.78769 3.10900 -2.24444 -2.84531 -9.21324 -7.69088 -5.14932 -6.55840 -4.62212 -5.56413 -6.40941 -7.02936 -7.97268 -7.27721 -7.73648 -9.37511 -10.30211 -11.09226 -12.04594 -15.00115 -15.33891 -17.11414 -17.57600 -21.53309 -22.72655 -25.27060 -22.68434 -22.09212 -26.69777 -29.85067 -31.50274 -31.52206 -34.23148 -33.88036 -30.99140 -28.98487 -29.66816 -30.46388 -31.49488 -33.00142 -38.20158 -41.37940 -55.07610 -61.61867 -56.55710 -44.67118 -37.81192 -35.07170 -37.73840 -42.38709 -46.90280 -48.70000 -53.05154 -57.19254 -63.68264 -67.89381 -70.77631 -72.95475 -77.92505 -83.43859 -84.42083 -85.71463 -87.40303 -89.27164 -91.03363 -91.59820 -87.65850 -86.70075 -85.86067 -86.98293 -87.49943 -90.59015 -91.05553 -91.54832 -92.31257 -92.98358 -94.03164 -94.10527 -94.27521 -94.44817 -94.68418 -94.92267 -95.19001 -95.28726 -95.27801 -95.20413 -95.14160 -95.03556 -95.00328 -95.01554 -94.96004 -94.90096 -94.83078 -94.26271 -94.54255 -93.58778 -93.11483 -92.22114 -90.33298 -88.92018 -88.67308 -87.10642 -86.19944 -84.33943 -82.95633 -82.06350 -81.01915 -80.70395 -80.61810 -81.07102 -81.29336 -82.42933 -84.06947 -85.36193 -86.05936 -85.69801 -86.53209 -87.15905 -88.97294 -90.30270 -91.02704 -92.84013 -94.46540 -95.75359 -97.49254 -97.81678 -100.71002 -102.24921 -102.82284 -104.05006 -106.36882 -110.65945 -113.07977 -113.93895 -110.12759 -108.16200 -106.38968 -105.70990 -105.10107 -102.63943 -100.11159 -98.64803 -98.38875 -97.59074 -96.41172 -95.81839 -94.64687 -92.87584 -92.33280 -90.88013 -91.54085 -91.76027 -91.07943 -89.23701 -86.45802 -86.31531 -85.66057
453.30231 432.61048 436.71435 422.85136 385.40969 369.51096 376.07013 416.14840 419.77640 392.13501 365.56490 309.26293 252.57616 238.80870 188.66714 229.89845 259.05959 347.81489 405.39730 407.86345 388.22733 380.28598 306.57792 253.96951 268.50772 307.14475 383.74192 407.31523 428.43389 434.04548 443.09015 469.26470 492.21709 514.71033 512.54924 542.34808 549.64555 569.70742 597.86774 641.97795 651.42391 627.72063 577.58988 542.47663 555.51877 585.07472 648.28713 655.62426 593.90511 622.87877 639.12197 666.38408 704.29320 735.19077 803.42491 839.21600 855.54289 843.31692 799.46521 796.22450 772.78040 704.23056 682.54141 633.80245 530.28513 429.51725 392.65909 420.72545 334.01838 297.95360 171.52308 171.06238 211.54478 211.06486 234.98899 287.87852 263.08543 258.36685 241.99313 207.31246 185.32399 136.51289 90.15670 67.46553 76.37480 64.47510 36.13885 25.22620 66.15801 44.07878 30.58677 8.72865 -10.94661 23.21662 59.41413 83.29430 80.46120 72.19712 57.22966 65.89255 108.58240 138.34879 153.62168 157.51768 164.70336 168.59622 167.91513 163.97040 156.73080 150.50432 151.60347 153.26570 144.95114 132.04253 122.39865 115.76577 100.62592 83.77167 71.70374 44.90276 38.09751 45.35051 47.61519 45.85343 36.26835 26.33352 14.80481 6.59506 1.06454 -0.75452 -2.28527 -4.55655 -3.92434 -2.60903 -2.81469 -3.95943 -3.92708 -5.20834 -6.21732 -7.27584 -7.72346 -9.16049 -9.44069 -11.88203 -12.88784 -16.62218 -17.96900 -16.34917 -19.08310 -21.37637 -19.81510 -23.74774 -21.80181 -22.90613 -25.24450 -26.02776 -27.80062 -25.52145 -29.35282 -29.53666 -31.74407 -30.41659 -28.49272 -29.60511 -29.83946 -31.24985 -38.27219 -41.41725 -53.26072 -58.80076 -57.85330 -52.90587 -42.25271 -37.95084 -37.19103 -39.31352 -46.57011 -48.73496 -53.05059 -54.99998 -60.98509 -62.89932 -67.48831 -71.54615 -73.82272 -78.44070 -82.07110 -85.53851 -86.10498 -88.60349 -90.80166 -90.97034 -89.83992 -86.86608 -83.98282 -83.90645 -86.01158 -87.52274 -89.75133 -90.30497 -90.91032 -91.62171 -92.31096 -92.89142 -93.61837 -93.97653 -94.23685 -94.54252 -94.95763 -95.14076 -95.10249 -95.09069 -95.14138 -95.18500 -95.09018 -95.03148 -94.98629 -94.93563 -94.92768 -94.80117 -94.74951 -94.68628 -94.17370 -93.67775 -92.62933 -90.55619 -89.75266 -89.11040 -88.03372 -86.51859 -85.47687 -83.53496 -82.75697 -81.17975 -80.22337 -80.21818 -80.41466 -81.07761 -82.40757 -84.05174 -84.70295 -84.89442 -85.45392 -85.94831 -87.35052 -88.66998 -89.36341 -90.66604 -92.33061 -93.01290 -94.50637 -95.66894 -96.85272 -97.42310 -99.84480 -101.51887 -103.72306 -104.48792 -107.28834 -112.18012 -111.95280 -109.86220 -104.69242 -104.60457 -103.47220 -102.98496 -101.98086 -100.39359 -99.02474 -97.20020 -95.90132 -94.42578 -94.33364 -93.54354 -91.91520 -90.21384 -89.46508 -88.30173 -88.52161 -88.54753 -86.31134 -84.49505 -85.71453 -82.48166
458.41883 452.06446 453.54749 430.94110 398.88962 381.37394 397.59884 431.65273 441.99142 422.77981 407.42856 392.30538 362.78858 282.25987 240.25736 217.13952 221.21755 319.34630 351.31614 373.57996 366.23746 309.40198 253.30036 268.34059 314.13028 327.89661 390.52834 407.62488 428.68993 435.51918 461.57176 470.86834 473.66694 475.61794 481.30026 502.94412 539.00122 560.03761 578.55514 620.33266 629.39878 582.13679 537.07573 522.81121 529.83455 580.39680 625.76370 593.28952 574.26237 553.50298 559.00385 627.96339 655.89655 731.36102 765.81106 817.48610 845.88678 826.20305 809.70964 758.92949 738.96686 657.23404 602.59162 547.38831 437.60361 411.69666 390.26402 431.56529 418.77873 400.02147 305.31765 247.09401 226.18303 280.09859 338.02929 362.70967 352.79923 288.58118 270.44807 253.84997 144.77332 124.79604 97.47113 111.90829 115.44853 80.35702 62.75980 59.52994 76.67206 82.84280 78.66759 32.68832 -7.45310 6.95872 28.39070 65.91577 68.52854 27.41391 38.03162 59.70168 99.02760 121.87388 144.44543 150.94777 158.08731 172.61776 176.87228 177.61527 172.52860 166.06990 152.53655 155.02465 151.82333 138.58035 128.83983 107.33992 99.26114 78.96583 65.92470 44.00286 65.63170 68.49219 65.92726 63.17805 50.98297 30.92848 18.22651 2.83928 -4.73547 -0.01606 -1.71420 -1.83187 -0.42605 1.29700 -0.94487 -2.79502 -4.84568 -5.31389 -6.09548 -7.92469 -9.25399 -10.61580 -10.25592 -12.83161 -16.73873 -17.40316 -19.79392 -18.57150 -18.47753 -19.82651 -19.66848 -18.17074 -18.66330 -21.67122 -24.70318 -23.90042 -22.44535 -23.17072 -22.49991 -24.53456 -28.26726 -26.80517 -28.21744 -34.37859 -35.05624 -39.67144 -46.07135 -53.96688 -53.28988 -52.01092 -54.09712 -45.23167 -37.73927 -36.28828 -36.32719 -40.59000 -46.37121 -47.96057 -52.28898 -58.91985 -62.33058 -64.86740 -69.50497 -71.62655 -74.29170 -77.38416 -79.61207 -83.34748 -87.29694 -86.75159 -88.76969 -91.59630 -88.03090 -84.35796 -82.26865 -82.49185 -85.24486 -86.23314 -87.58257 -89.21708 -89.98538 -90.47747 -91.80484 -92.71659 -93.29281 -93.49022 -94.26776 -94.39599 -94.94012 -95.03387 -94.96399 -94.97501 -95.06402 -95.14111 -95.12318 -95.02464 -94.91440 -94.85918 -94.90846 -94.79254 -94.67526 -94.63606 -94.60779 -94.01012 -92.69969 -91.90087 -90.82040 -89.35667 -88.25004 -87.65801 -85.71775 -83.41464 -82.86223 -81.01469 -80.11926 -79.81979 -80.40775 -81.11051 -82.43593 -83.37838 -83.71940 -84.00031 -85.53872 -86.62176 -87.53982 -88.61049 -89.22629 -90.95591 -91.95229 -93.10015 -94.77693 -95.75952 -96.45444 -97.17989 -99.23143 -100.97251 -101.90433 -103.86317 -107.47389 -112.72432 -111.30125 -106.76428 -104.24983 -103.53218 -102.28664 -101.02270 -101.02444 -99.82193 -98.86022 -96.44762 -95.36422 -93.72650 -93.54301 -92.09501 -91.48194 -89.81709 -88.79180 -87.58410 -87.71206 -85.13713 -82.44824 -82.00382 -81.75263 -78.56329
474.10935 467.97222 460.43395 446.28329 422.17714 416.73706 422.39249 443.25667 446.29206 445.00053 436.85631 423.57984 408.22717 407.76992 322.14328 237.53998 219.25644 235.67104 273.08313 316.97110 307.37992 265.69180 254.32334 281.16918 312.19103 375.54431 393.96231 420.89706 429.09250 443.26486 449.74784 438.12015 438.52499 437.73681 456.95973 500.60250 527.97534 553.83140 570.20326 576.92130 579.87957 570.85404 539.87911 498.89164 503.81030 530.58345 588.62483 572.07038 533.88861 519.66740 540.82878 602.07257 681.90693 721.99566 770.16888 786.84203 815.94109 824.53531 817.82502 758.90003 710.67653 654.87694 560.14167 530.21932 491.19996 450.19117 454.90898 493.21254 510.72536 502.37685 444.78599 336.37707 328.63729 367.91017 427.98601 448.96686 398.99755 371.39024 363.71078 235.58043 190.35663 116.21946 118.76284 136.45834 136.56074 129.46567 74.39793 77.22881 106.09009 86.80162 71.09830 31.98089 -8.49108 -1.51572 3.06532 9.13355 -10.50470 14.77478 10.04680 54.52547 86.31411 92.37286 131.80906 138.61380 151.99863 173.27843 178.12550 180.17975 180.97365 179.25027 170.52899 155.19100 150.44205 136.24303 115.60980 105.23866 92.88373 72.67151 71.88707 68.34493 75.02546 79.94441 76.62122 65.24893 44.30511 38.61205 16.81253 1.19487 -0.08711 2.09736 5.68169 6.20151 5.11102 2.38044 -0.39657 -3.03624 -4.62888 -6.12179 -7.71603 -9.48093 -11.24218 -12.93061 -13.44503 -13.97709 -15.58787 -16.06779 -15.08876 -15.03273 -14.79035 -17.62594 -17.02678 -16.95109 -18.44934 -21.21108 -24.80216 -21.34694 -19.73160 -22.01013 -22.86902 -24.73613 -24.91302 -27.12088 -34.92483 -39.45126 -45.01773 -46.98483 -44.80466 -44.94590 -47.13149 -43.58988 -41.89404 -37.84328 -36.82526 -36.67122 -39.36948 -41.10589 -45.35419 -49.40122 -51.58083 -62.16249 -65.01844 -65.54517 -70.37379 -71.88724 -76.49143 -76.86175 -81.16496 -82.96804 -83.84594 -84.29078 -85.90297 -88.00631 -88.71690 -84.10810 -81.85050 -81.23652 -82.10922 -84.23023 -86.29830 -87.27124 -88.54435 -90.33553 -91.63480 -92.06343 -93.39208 -93.72764 -94.12517 -94.47542 -94.99256 -94.97838 -94.80642 -94.93069 -95.04438 -95.07335 -95.04269 -94.87259 -94.82573 -94.79737 -94.86924 -94.74531 -94.68540 -94.63990 -94.45148 -94.05247 -94.06152 -92.90630 -91.64949 -90.44410 -88.51590 -88.24825 -86.12680 -85.01786 -81.57304 -80.89738 -80.04672 -79.81763 -80.11515 -81.12602 -82.40414 -83.32569 -83.49728 -84.80135 -86.31144 -86.93766 -88.44394 -88.92943 -92.06939 -91.94475 -92.86461 -93.79651 -95.37928 -96.20902 -96.67264 -97.59496 -98.86085 -100.49171 -101.30053 -102.84048 -107.90790 -111.25431 -111.19854 -106.69157 -103.10919 -102.73405 -101.20424 -100.31717 -99.83028 -99.18130 -97.81326 -96.63850 -95.74782 -94.06654 -92.99038 -91.48851 -89.79191 -89.49008 -88.67868 -83.26289 -83.26814 -84.24812 -82.35972 -80.36254 -77.27779 -74.12450
484.55399 476.04724 465.69839 441.82227 455.77702 439.42944 455.70292 457.69005 462.89600 460.27097 456.07343 455.73834 425.56602 413.45652 372.08515 327.77922 240.38368 204.88712 217.91424 227.35424 214.12560 226.72763 210.70986 239.30277 252.70384 289.75092 341.28755 390.16963 409.41764 436.31399 440.20832 426.39246 411.66905 431.13278 439.78712 484.89220 532.80820 548.85985 540.70496 531.56928 514.82324 514.16240 494.29891 479.63449 511.33574 534.04878 547.14644 529.10601 504.03184 521.68174 530.27107 575.68875 641.01143 703.77272 728.94238 757.59589 796.70400 810.34591 811.50512 771.44307 746.54686 672.53949 614.91750 543.71732 566.96302 572.51263 576.04396 587.91328 540.80317 442.98656 389.72705 362.94173 377.94616 471.85621 458.38835 478.21698 447.67270 369.05654 324.72798 232.82773 186.65647 145.67404 174.79070 187.50125 171.98334 128.46572 96.35272 101.22073 114.67259 96.12508 72.03222 41.09922 33.22972 8.81033 -15.89183 -13.97142 -14.68103 -8.92505 11.03491 43.77373 67.55983 86.62881 122.51691 136.28486 148.87211 168.64468 175.69198 180.13937 182.79507 180.84901 171.99066 159.69263 147.98660 129.85975 110.35697 94.72318 85.78379 99.36401 86.65413 84.88267 93.67859 74.97263 67.31447 59.06889 44.51513 19.07715 8.68971 -0.06088 2.21587 6.19185 8.67762 8.64021 8.97552 3.56392 1.52050 -3.53970 -5.86955 -7.17764 -8.49699 -10.26063 -10.89819 -11.82202 -11.95281 -13.17314 -13.45795 -12.99325 -12.24444 -11.41237 -12.59597 -13.98791 -16.20991 -16.48747 -20.33188 -23.34249 -22.33605 -19.01645 -18.21126 -18.42516 -21.24729 -23.13154 -23.82486 -28.04251 -35.75427 -45.15779 -47.51339 -43.09595 -38.58654 -38.31451 -33.18380 -33.23242 -34.79645 -35.59983 -34.49669 -34.90061 -38.90692 -41.43824 -46.49650 -49.52576 -56.90902 -61.79860 -65.55480 -69.46009 -71.38366 -73.94980 -76.63478 -79.69647 -80.95572 -82.08315 -82.46803 -79.90592 -83.19053 -87.14216 -88.76314 -84.75669 -82.77983 -79.74211 -81.06061 -82.51773 -85.09379 -86.90325 -88.84209 -89.59656 -91.29852 -91.49346 -93.76887 -93.92980 -94.37090 -94.35983 -94.42497 -94.72819 -94.77667 -94.96415 -95.02039 -95.01429 -94.94054 -94.82335 -94.72923 -94.78750 -94.82857 -94.77906 -94.73619 -94.71749 -94.42989 -94.24825 -94.03557 -93.86493 -93.15012 -90.51131 -89.30355 -87.40079 -86.85885 -84.38704 -81.87720 -80.54566 -79.62109 -79.21667 -79.37633 -81.96841 -82.28856 -83.74135 -84.63603 -86.56550 -87.34731 -88.33661 -88.86828 -90.97083 -92.12306 -93.77045 -93.46176 -94.37648 -95.41299 -96.14176 -97.69003 -97.56739 -99.84314 -100.49095 -101.30175 -101.77238 -104.88745 -109.78711 -112.36051 -108.75048 -104.23589 -101.91776 -100.28656 -99.42276 -98.42926 -97.94028 -97.76829 -96.73014 -95.17967 -94.64455 -93.15759 -91.21009 -89.23876 -88.73395 -85.20456 -79.36581 -79.33197 -80.58206 -79.97267 -78.40387 -74.71643 -73.10316
508.77124 484.87908 460.59744 447.07253 449.48142 461.98258 479.85891 479.77496 484.68970 483.38313 467.03727 460.25250 452.72860 431.62426 401.31199 394.56666 331.51291 259.34531 221.25843 225.76871 203.73822 174.97467 172.56671 173.51903 203.90145 253.50811 308.13634 363.50734 391.85496 404.80929 417.76574 417.58472 416.55984 435.30185 463.20501 480.29391 525.37196 534.63316 537.01162 517.90923 486.18352 478.73601 453.36965 483.84760 514.49657 535.79876 521.08598 488.39506 477.24926 501.29292 545.17173 578.60847 604.93191 672.36167 694.24206 744.88316 785.87594 794.47153 804.83068 802.53470 783.89063 710.97311 681.77480 664.43393 601.63440 641.80403 599.28734 573.07439 506.87910 438.54037 378.86566 424.18270 479.85444 507.58421 482.86961 478.51227 421.57764 348.63976 281.09520 240.38507 178.98195 189.47016 206.47613 207.43903 198.21582 145.16693 122.81409 141.13971 135.67698 123.91750 97.08474 90.09392 56.38151 37.27716 17.19555 -7.78028 -8.72956 -11.77659 3.35817 35.49897 61.25286 86.74148 119.02850 126.33883 150.32377 162.10403 169.83640 178.17301 178.08296 178.41909 170.68681 157.53288 149.38253 131.09538 109.02285 102.42987 104.11830 106.83550 105.11156 94.94207 88.65826 70.57220 50.03188 42.86472 35.31123 12.05798 7.55348 9.17364 13.22861 12.85487 9.47390 8.38488 5.32199 3.19489 -0.77271 -4.24698 -4.78649 -6.54547 -7.21894 -8.57668 -9.29987 -8.81706 -11.07789 -12.10362 -11.76326 -10.73763 -9.83137 -9.96461 -11.79380 -13.62826 -14.39218 -17.09002 -22.71312 -25.21712 -23.95363 -19.96965 -17.20791 -18.40499 -19.07751 -20.35225 -24.76821 -28.43788 -36.76018 -43.30948 -44.97848 -41.06787 -31.84186 -30.33790 -30.93550 -31.37123 -31.11960 -31.91428 -33.02649 -35.06876 -39.41980 -41.76997 -46.21818 -50.86577 -58.38276 -59.86478 -62.27383 -66.18978 -69.83320 -73.64883 -74.67424 -78.39947 -77.34568 -76.88598 -77.04791 -79.54510 -80.84095 -86.99826 -86.99157 -85.76109 -79.25863 -80.02165 -80.99045 -82.77579 -83.65518 -86.64330 -87.95334 -89.58674 -90.22553 -92.00817 -93.28519 -94.22387 -93.69849 -93.72270 -94.05846 -94.60033 -94.70593 -94.88093 -94.92825 -94.93358 -94.89796 -94.84601 -94.73122 -94.74042 -94.78451 -94.79280 -94.79116 -94.73746 -94.53798 -94.45685 -94.14148 -93.97046 -92.07142 -89.93781 -87.86178 -87.57047 -86.39474 -83.76385 -81.22681 -79.27761 -78.95378 -78.47846 -79.55369 -80.28005 -82.02545 -84.25406 -85.47246 -87.39902 -89.53980 -89.69884 -90.60343 -90.83834 -92.13721 -92.85949 -94.85791 -94.68258 -95.55187 -98.06220 -98.10658 -98.71609 -99.78112 -100.44576 -101.35284 -102.74628 -103.74815 -108.02623 -109.69739 -108.78587 -104.64071 -101.85467 -100.04123 -98.83697 -98.43089 -97.82642 -96.28033 -95.59039 -94.35041 -94.11843 -92.15777 -90.63662 -89.77841 -86.16371 -80.93812 -77.45614 -77.25326 -78.74317 -78.70892 -74.72160 -70.77065 -69.70076
529.90567 505.16394 472.94659 464.25511 461.46339 480.49669 508.78429 517.60871 518.97359 497.47841 480.85743 456.07073 446.56906 443.72217 414.54648 395.56550 343.71835 280.91306 266.68576 288.07313 269.02135 227.45088 199.74708 163.84793 162.84994 237.28945 298.98196 362.84011 374.78993 387.03943 376.30952 376.50197 398.45682 433.26232 454.57116 466.43261 492.61191 506.39120 518.73284 510.48709 476.63791 429.37260 433.10907 461.57964 494.21675 478.59053 455.80850 483.82364 501.55331 532.34978 562.74924 579.35418 623.76297 638.49216 686.55019 730.84619 755.73539 796.57156 801.48427 812.24276 810.19679 802.59409 733.48391 664.66418 644.24877 645.76998 600.21778 553.68988 565.70086 465.98614 471.18224 487.38930 546.51086 559.69220 513.49250 490.24562 425.75176 345.28481 269.68748 238.00789 241.89388 267.11305 266.48867 213.08512 185.82925 212.03490 189.47288 163.92918 167.11021 149.16256 111.65756 96.56332 77.46489 65.82833 34.13003 3.74419 -7.24076 -12.31986 19.01587 41.92613 73.13050 96.63688 102.57273 119.87748 129.47461 146.16676 166.30870 174.57119 174.49717 179.20811 170.76463 165.38774 151.15348 134.50956 124.34582 110.71341 114.74817 125.89209 109.54817 86.76526 74.42299 59.01643 50.19940 38.39567 19.30306 7.67039 9.89021 15.66409 20.03772 18.86846 9.70775 7.28549 3.41740 2.57210 0.62900 -0.90773 -4.23881 -4.72999 -5.79642 -6.31767 -5.77357 -6.17259 -7.60931 -9.35400 -9.61411 -9.34775 -8.86183 -9.60259 -11.73465 -12.23856 -15.44811 -19.81991 -23.18780 -24.08584 -22.08023 -15.31963 -16.75955 -17.39173 -18.72429 -18.93428 -23.17795 -32.64217 -38.51784 -42.10045 -42.66936 -35.45940 -28.54444 -29.07316 -27.89843 -26.94888 -28.23142 -29.24056 -31.81205 -35.11354 -39.93637 -40.99418 -44.94200 -46.23932 -51.39017 -53.79164 -59.08128 -65.14798 -66.97456 -67.69878 -70.78980 -71.03418 -74.51738 -71.75301 -75.28399 -74.90288 -80.62490 -85.50838 -84.58562 -82.86363 -79.30286 -80.17743 -81.11791 -82.80702 -84.02467 -85.56913 -87.83342 -89.46922 -90.87683 -91.53758 -93.31532 -93.61286 -92.89477 -92.87724 -93.72981 -94.12361 -94.69242 -94.76115 -94.81375 -94.84008 -94.86618 -94.85315 -94.75183 -94.70761 -94.67325 -94.67761 -94.73629 -94.73133 -94.68603 -94.61392 -93.90412 -93.34655 -91.29677 -88.83411 -87.19681 -86.91908 -85.14308 -83.50797 -81.86661 -80.12121 -78.86370 -78.45583 -78.91468 -80.51982 -82.69448 -84.98017 -86.54737 -88.84920 -90.26218 -91.30294 -91.40118 -92.28293 -92.67056 -93.76904 -95.41204 -96.45367 -96.75230 -98.10890 -98.30099 -98.71411 -99.61908 -100.43976 -101.89830 -103.06957 -104.48118 -106.14302 -110.33481 -107.00030 -104.53393 -101.57988 -100.60433 -99.50250 -98.25759 -97.45760 -95.54999 -94.39839 -93.48436 -92.11812 -91.34242 -90.31928 -89.24874 -84.77642 -81.73501 -77.49819 -77.45589 -76.59570 -75.67629 -71.63679 -68.01517 -67.43018
564.95690 510.83147 477.74117 483.22309 507.13433 551.12782 546.17223 531.23973 528.87109 514.54274 479.74787 440.81372 420.23632 409.50364 368.70456 327.50723 303.65830 284.99361 284.92142 330.91787 341.74725 302.18054 288.48069 220.55868 196.24410 213.59379 271.17713 338.96975 327.02950 320.46235 320.84151 362.88625 400.31160 433.98721 441.89683 458.81406 484.99382 489.10400 497.50579 492.11900 466.55455 437.27409 406.20456 437.65143 444.95174 433.34273 443.13774 461.95157 520.62240 569.69331 572.71586 577.39651 610.93566 638.61772 670.03645 703.15582 755.81789 771.58381 802.58931 819.50154 835.67967 793.66988 758.54026 722.37795 670.40429 656.10234 633.29411 631.46991 632.48353 613.36798 520.71328 567.01154 583.67702 568.91360 569.33638 519.55278 493.64953 395.70771 334.66621 287.07974 301.66494 301.93023 309.82867 245.76882 235.85360 231.17984 232.64126 208.61336 197.75430 170.86311 139.78396 89.43521 62.01885 53.34955 29.33819 13.56316 -2.10362 -10.54189 6.66331 35.63982 85.51318 95.34028 104.21393 104.51151 117.02618 121.38263 149.18059 154.55926 170.14135 177.38578 179.22550 171.86196 160.76018 145.09826 135.93641 122.35081 128.71032 131.49549 126.83377 83.72206 69.78953 62.71891 43.42592 35.75021 23.44218 24.07029 27.04341 27.97248 28.19836 24.54371 14.68896 13.40839 7.00693 3.93083 4.04973 1.32846 -0.54536 -3.02833 -3.84853 -3.90961 -4.77885 -5.96101 -6.80579 -6.76679 -6.80607 -6.87674 -8.09842 -8.92472 -11.17722 -11.89953 -16.03308 -21.55070 -22.53673 -21.99717 -16.54744 -16.24319 -14.98767 -16.50111 -17.56799 -19.66999 -23.53371 -32.67973 -37.70778 -40.68566 -36.84309 -31.86795 -27.30905 -26.09251 -25.56448 -26.52798 -28.06888 -30.34695 -32.57157 -34.50787 -37.21425 -39.31865 -39.12396 -40.98505 -47.61228 -49.24914 -57.19323 -61.92833 -63.31699 -62.96766 -63.41473 -68.36985 -71.45135 -76.93116 -77.25963 -80.98881 -81.56720 -83.35219 -82.35303 -78.74933 -78.51626 -79.81079 -81.09495 -82.28026 -84.85429 -85.22278 -88.60577 -89.65886 -90.84519 -91.93752 -93.28606 -91.89369 -91.44835 -91.74160 -93.09392 -93.38734 -94.45491 -94.60480 -94.58275 -94.71684 -94.74034 -94.75748 -94.74742 -94.65345 -94.62127 -94.58833 -94.63072 -94.67313 -94.67260 -94.39704 -93.48880 -92.74305 -90.96521 -88.45530 -87.25020 -86.20112 -85.00424 -83.54349 -81.96890 -80.23537 -78.80884 -78.53486 -79.41112 -80.53476 -81.11793 -85.81289 -86.48520 -89.05680 -90.50038 -92.52068 -94.20981 -94.51966 -93.71636 -95.01346 -96.64229 -97.66563 -97.96765 -97.99920 -98.60608 -99.57834 -99.71534 -100.50102 -101.63781 -103.26830 -104.52015 -107.64622 -108.00434 -105.81568 -103.29360 -101.68890 -101.19749 -99.76017 -98.58038 -97.18898 -96.60446 -94.97511 -92.59066 -90.92852 -89.47287 -87.06669 -85.92953 -83.85889 -81.79068 -78.42699 -76.45729 -74.67480 -73.67946 -70.78677 -66.24871 -65.23493
608.21148 572.13057 538.42550 537.57140 558.15610 570.46160 569.07964 538.62745 528.72798 524.58569 491.40114 436.87730 396.34359 380.32974 344.12170 319.66716 299.27916 299.69014 295.52113 321.58672 354.74172 350.99666 292.27384 233.00628 183.89170 193.12179 224.77813 250.06909 245.75151 278.42300 320.84882 382.56920 419.04089 425.46823 436.88106 432.01159 449.02411 458.46012 472.10063 451.19543 455.79798 441.47276 393.93794 401.26950 414.49234 437.81004 455.34332 504.23300 527.03816 536.31297 555.39960 559.50198 596.53220 642.15604 653.98176 697.51162 748.29231 788.99436 796.57523 820.51638 822.37971 789.84845 774.73345 736.84816 716.07118 679.01175 687.64523 704.95536 693.56965 639.13432 604.60858 585.58078 597.65477 600.55071 600.07403 529.97216 506.29697 427.62112 377.85740 362.16074 379.06108 372.65345 355.88765 283.80400 277.94040 278.94018 246.99485 204.12314 200.98875 181.29090 127.94403 97.63271 58.79754 43.66113 37.93066 25.06705 7.45189 -4.76239 -10.15359 12.59470 56.36606 97.16337 100.63278 97.93778 102.72757 101.92456 122.03858 137.14303 157.11958 177.21702 182.90504 178.41169 168.92641 165.24054 149.64831 140.55816 144.78952 135.12369 123.34878 99.50826 80.89621 70.13395 43.94177 26.35838 26.51881 35.56291 40.77630 36.87429 28.90038 24.54153 19.90672 17.72895 11.17492 11.26521 8.44690 6.46044 1.00450 -0.25787 -2.68362 -4.33049 -4.68097 -5.05222 -5.94330 -5.79577 -5.79528 -6.41293 -6.88916 -9.65541 -10.46900 -13.12506 -18.62099 -23.33155 -22.11374 -16.80472 -15.88773 -14.04679 -14.18457 -15.00380 -15.89279 -20.60346 -22.56387 -31.41904 -34.17794 -33.97439 -30.63645 -26.17135 -24.82774 -24.29566 -25.47585 -26.53068 -28.32270 -31.31162 -32.87737 -33.82294 -36.02779 -36.50273 -38.05189 -38.66667 -41.49120 -47.73362 -52.75687 -57.82239 -60.13551 -62.20659 -60.67619 -67.99038 -74.70142 -80.44966 -83.31979 -81.16927 -82.71376 -82.25634 -80.11029 -76.88325 -77.89718 -80.03090 -80.62938 -83.64088 -85.00465 -85.84265 -87.08029 -89.55365 -91.37857 -91.91663 -91.47888 -90.56195 -91.07007 -91.98492 -92.61170 -93.00452 -93.64556 -93.97844 -94.41835 -94.49325 -94.63629 -94.69052 -94.71733 -94.64883 -94.58625 -94.52032 -94.55265 -94.60502 -94.40935 -94.20208 -93.44577 -92.50874 -91.01324 -90.29167 -87.77483 -86.11104 -85.08004 -84.28436 -81.97593 -80.82194 -79.12902 -78.69652 -79.21062 -80.31796 -82.79947 -84.46005 -87.11885 -88.30530 -90.45866 -91.39595 -94.10197 -94.97045 -95.96185 -95.69041 -96.93265 -98.17369 -99.01748 -99.04737 -99.79371 -100.05512 -100.57350 -100.73748 -102.69694 -103.47027 -105.96577 -107.26644 -106.58997 -104.74154 -103.37232 -102.62807 -101.09353 -99.72459 -98.29349 -97.47857 -96.34429 -95.10955 -91.93060 -90.55757 -87.78577 -85.87902 -84.08062 -83.89978 -80.67025 -78.87350 -75.43433 -73.28904 -71.52250 -69.38019 -66.04404 -62.57408
