215.45782 223.88813 141.85784 39.97310 10.91761 43.35569 85.60912 75.26252 20.47371 -8.74172 -28.96962 -25.68426 -35.01472 -41.86539 -54.07382 -89.23599 -114.02602 -104.49302 -92.54619 -93.54782 -92.03732 -47.47731 -40.50234 -28.43539 -25.64624 -2.45735 -10.65574 -27.09408 -35.69536 -40.19759 -70.92080 -87.40930 -114.16797 -130.30755 -145.34896 -162.13649 -173.29502 -164.65552 -163.05354 -156.58935 -162.40785 -171.02366 -165.59595 -157.72318 -158.31692 -141.31559 -150.73550 -162.74345 -167.30367 -173.36721 -170.92986 -169.67982 -157.46463 -151.85267 -140.02709 -140.37864 -132.05011 -124.56913 -129.91010 -122.09487 -114.81615 -118.08056 -118.99586 -129.35987 -142.26240 -152.49724 -160.79328 -154.83016 -169.39691 -174.59086 -168.27900 -175.29717 -168.94723 -172.32788 -171.63735 -173.13371 -164.30661 -159.18983 -156.64118 -157.16265 -170.16303 -167.88718 -175.40037 -173.81603 -172.81559 -174.06944 -177.23926 -176.70272 -177.61257 -171.91949 -169.88110 -174.01515 -171.25530 -177.34712 -183.29434 -188.55136 -399.82065 -532.90013 -528.93936 -487.49652 -328.75020 -250.79528 -284.57096 -350.50025 -337.07578 -325.87547 -308.80780 -452.56546 -553.57315 -712.25338 -1025.65573 -1091.63304 -1176.59785 -1183.57533 -1260.18965 -1355.75692 -1368.85220 -1384.27522 -1398.15701 -1394.13625 -1474.91795 -1505.15218 -1541.12616 -1605.92149 -1645.00787 -1719.38589 -1740.47283 -1802.43562 -1852.95471 -1904.62919 -1932.70493 -1944.36356 -1976.24404 -2018.77894 -1999.85586 -2001.32989
224.00455 227.45068 127.16222 18.30639 53.46590 107.39659 131.03057 121.29140 67.05540 34.62307 -5.96619 -11.72029 -22.50891 -41.45531 -41.93346 -68.90446 -96.34482 -104.62477 -117.01835 -117.69392 -109.50153 -82.15621 -58.44778 -44.55596 -23.48397 -9.96281 -5.02276 -18.46448 -25.88020 -41.72192 -72.65274 -114.98364 -123.81913 -130.42808 -147.75636 -161.79710 -169.20555 -156.76715 -153.21967 -150.31466 -155.45442 -160.44052 -163.04951 -172.68488 -163.11367 -166.64240 -166.87017 -163.92246 -168.10192 -163.20514 -162.42029 -154.79794 -145.52233 -143.88895 -138.07850 -131.65553 -134.03735 -142.83822 -135.55462 -124.05399 -123.49125 -124.77539 -128.86201 -128.36273 -134.10297 -141.80622 -139.79080 -148.93550 -157.34422 -159.25272 -173.20254 -170.11398 -174.26706 -170.17010 -165.55798 -157.67031 -159.57456 -154.49617 -150.76529 -155.73554 -162.62762 -171.15181 -175.44131 -170.83485 -177.47663 -178.95996 -181.00129 -178.45700 -176.34990 -172.16621 -172.37025 -176.61464 -178.17036 -176.23890 -179.40760 -184.53647 -271.72418 -340.88792 -349.53684 -325.81797 -282.42620 -246.01955 -189.33667 -192.17278 -196.46306 -198.20786 -256.95037 -331.18801 -425.05549 -650.35711 -839.87589 -1048.97749 -1096.19304 -1183.14751 -1239.47944 -1300.70147 -1300.11942 -1333.55031 -1320.69837 -1369.43475 -1390.76228 -1423.52865 -1493.24484 -1494.68019 -1517.83504 -1600.29226 -1695.90173 -1722.05518 -1754.74244 -1777.82008 -1832.48446 -1888.99349 -1892.21681 -1946.94435 -1957.49002 -1954.21433
329.66775 330.95805 195.38759 55.29937 108.30273 156.15975 143.80140 150.78363 121.31294 42.78269 17.46853 19.00567 -4.55546 -25.21645 -48.08145 -45.93237 -62.41528 -77.24697 -100.33946 -111.12455 -124.85392 -106.99584 -90.09205 -59.03860 -49.93155 -14.15862 -14.34660 -21.65651 -32.03872 -59.82346 -73.30753 -108.94114 -121.75745 -127.93864 -139.66519 -160.80363 -161.01485 -164.76894 -155.58107 -141.84503 -151.31682 -156.34045 -151.30193 -174.82029 -171.92997 -169.44017 -163.66172 -159.43429 -163.98261 -152.31797 -147.82975 -141.40512 -142.31870 -143.13380 -138.56426 -135.52366 -141.58094 -145.09625 -142.30927 -142.08189 -127.66560 -131.98232 -131.18476 -132.93004 -137.62928 -134.51908 -139.24709 -149.07034 -157.52024 -160.96520 -161.84268 -169.41282 -176.01876 -166.34749 -163.08857 -153.54999 -156.94089 -147.44989 -151.84476 -160.26248 -162.61212 -171.85938 -170.09874 -172.63091 -170.53839 -171.90551 -173.66644 -174.07086 -174.53233 -170.82259 -170.65799 -170.12270 -173.00989 -175.49622 -173.65684 -177.70973 -227.99577 -252.99630 -253.11509 -227.29467 -237.61716 -189.53333 -181.36586 -186.03409 -185.69030 -186.11458 -194.15642 -293.51524 -407.84397 -610.06538 -748.72986 -991.32973 -1075.10288 -1158.28351 -1218.66995 -1232.57265 -1282.79980 -1271.45197 -1289.00369 -1313.96327 -1352.05314 -1355.42196 -1391.26532 -1409.83897 -1469.85299 -1466.83567 -1518.36922 -1548.68310 -1614.50875 -1716.81135 -1780.58114 -1833.55736 -1854.01923 -1853.89604 -1897.59060 -1901.81376
294.27002 299.60812 188.10059 103.96324 106.81679 178.19202 180.65951 179.46448 127.89908 75.70064 34.03276 31.43375 10.00323 -33.39244 -46.53224 -45.31951 -55.52945 -65.43459 -80.14017 -97.91950 -119.75714 -111.07068 -107.97658 -80.98133 -59.25172 -41.90445 -33.75878 -40.42927 -38.68776 -63.46692 -71.70846 -96.61724 -137.67645 -137.21733 -146.94452 -153.25440 -165.76683 -160.11402 -146.48202 -130.20344 -130.04770 -141.04105 -148.36379 -160.61114 -165.73790 -166.27851 -154.60579 -152.14673 -153.26558 -147.78462 -143.17526 -127.67585 -135.76551 -138.64781 -145.56382 -137.15658 -146.36873 -156.02761 -149.40198 -136.59797 -141.39318 -148.39141 -144.67739 -151.77726 -157.85922 -150.06891 -142.33758 -161.73473 -162.98227 -166.00652 -166.90364 -172.68058 -173.58311 -163.13177 -154.78461 -147.62087 -147.20645 -150.90706 -147.23447 -154.50585 -155.17940 -164.48608 -169.55675 -169.74082 -170.45288 -170.77479 -172.29697 -174.05639 -173.93680 -172.18985 -175.78790 -168.69450 -173.51107 -172.35812 -174.62056 -174.74452 -184.14689 -187.58053 -195.39985 -191.71659 -190.18592 -182.98604 -172.19872 -180.11021 -183.12649 -178.46608 -184.82907 -298.57634 -418.19494 -455.08326 -675.54012 -876.88277 -957.60514 -1124.62036 -1180.80795 -1211.80963 -1239.73968 -1221.18640 -1212.16918 -1237.52483 -1254.56123 -1269.34863 -1274.47903 -1316.82790 -1330.59596 -1374.81073 -1443.83632 -1474.39691 -1569.34203 -1601.05076 -1675.97685 -1787.74236 -1799.26232 -1847.26592 -1834.30812 -1836.72900
333.86857 333.75277 390.00238 107.35718 155.93039 189.63772 231.66051 233.75214 191.61776 86.05918 42.26544 21.61910 -3.53470 -35.00182 -64.44690 -64.19864 -61.97655 -61.08040 -63.37684 -84.50584 -94.70625 -119.23014 -117.09635 -106.58485 -80.84754 -61.14990 -58.22004 -51.01838 -67.31500 -79.26878 -99.18121 -99.70434 -139.66932 -164.05141 -163.50054 -168.95566 -160.97118 -150.54700 -127.78048 -112.83378 -114.77949 -131.48464 -140.66738 -156.05151 -166.74554 -160.35414 -151.77635 -147.12050 -152.72010 -135.44742 -135.37733 -129.27780 -140.39962 -139.96174 -135.04800 -131.48919 -132.74310 -149.12277 -148.85739 -150.44474 -146.05817 -154.14956 -155.49816 -158.80316 -160.62548 -160.96168 -161.79652 -167.32071 -168.07935 -167.11576 -171.40667 -170.07605 -159.99035 -159.31060 -159.66631 -151.88205 -154.01092 -154.44433 -156.46531 -153.91658 -149.93675 -158.21074 -161.29706 -163.31292 -164.23319 -173.10599 -171.02195 -172.55354 -170.15565 -173.28186 -171.00749 -169.32037 -169.31109 -169.63475 -179.43068 -170.09563 -180.44099 -184.20186 -178.89626 -181.79885 -174.65597 -177.37879 -175.33988 -178.63464 -176.70845 -172.10473 -180.05264 -193.63976 -314.01029 -430.49454 -540.07843 -710.44792 -850.72516 -1044.87704 -1157.34025 -1186.94401 -1193.90562 -1158.88734 -1156.89132 -1167.89876 -1176.54199 -1163.48990 -1161.80693 -1214.82115 -1202.89111 -1253.45555 -1310.84658 -1374.43064 -1483.02241 -1524.87079 -1574.88654 -1638.25447 -1704.88299 -1744.53084 -1755.53438 -1759.81406
562.57211 565.82248 373.63974 230.91200 196.27068 247.16023 265.03135 257.59832 223.19118 135.82044 45.92590 32.14668 -28.56317 -64.32751 -70.12853 -81.84771 -77.04301 -76.97627 -69.36267 -75.83717 -98.66487 -120.59855 -124.05528 -116.92056 -108.03980 -82.48317 -67.62280 -73.45987 -95.09811 -94.90822 -116.64738 -146.14875 -156.63889 -170.09670 -172.51531 -165.15451 -155.94210 -136.64010 -109.81596 -97.26353 -103.40469 -117.84051 -145.96167 -150.78728 -149.49848 -155.00931 -148.33698 -144.67172 -124.02483 -123.62431 -124.82866 -125.09391 -136.33727 -129.98163 -112.54722 -121.92313 -142.11226 -146.31304 -151.52576 -155.24546 -156.01117 -156.10737 -161.97598 -154.53115 -165.18141 -170.65542 -164.75499 -170.61783 -170.27386 -165.52361 -169.10904 -165.28736 -155.79509 -159.36305 -153.11014 -153.76649 -153.70841 -158.30747 -157.99691 -158.55702 -158.81392 -152.56007 -158.59515 -166.90569 -168.40536 -169.91277 -176.67931 -170.04566 -176.42294 -173.08653 -168.41178 -167.46827 -169.07872 -171.41736 -173.10957 -177.84542 -173.72892 -178.16391 -174.62625 -176.24628 -172.26745 -170.22846 -170.64597 -178.43493 -174.94270 -171.62934 -183.18254 -189.39322 -216.97909 -338.66638 -524.40745 -610.54333 -818.54744 -1013.83489 -1132.72039 -1165.22779 -1154.69114 -1144.30124 -1115.55019 -1090.81975 -1094.21884 -1119.57663 -1075.01538 -1101.98987 -1167.58547 -1170.81580 -1177.47130 -1296.86910 -1338.58793 -1399.30415 -1491.68159 -1519.79820 -1603.25501 -1695.13957 -1679.98634 -1681.97754
603.79983 603.16686 505.07030 293.01187 263.57062 285.40684 312.60385 299.45782 244.42332 148.71607 87.25339 18.59002 -39.33933 -57.68463 -74.75259 -94.04752 -92.06290 -89.41267 -93.78002 -100.21955 -107.44885 -123.80015 -130.16687 -130.28285 -111.64397 -96.76586 -89.77642 -92.47158 -103.25858 -130.20867 -138.68460 -149.97617 -164.40283 -162.05681 -163.29619 -163.39987 -149.61936 -127.39069 -98.76026 -99.72468 -109.62688 -128.22802 -137.47136 -145.03448 -130.88141 -133.26565 -127.10241 -122.90874 -111.26843 -110.17015 -117.80144 -135.04253 -126.16698 -112.67665 -103.89395 -121.58636 -126.83689 -146.67923 -141.61732 -142.81276 -156.04804 -148.44899 -148.56882 -156.24517 -167.64311 -162.41395 -162.31777 -164.01505 -170.78508 -169.33233 -169.69528 -158.08868 -161.37772 -148.88887 -148.30721 -151.49254 -152.91898 -160.83577 -164.16900 -160.25266 -156.63497 -159.46638 -157.34550 -165.51267 -167.98442 -172.36441 -173.92895 -173.78861 -176.96046 -168.68578 -163.67692 -169.28559 -167.91229 -169.37247 -180.96667 -174.79514 -175.54096 -174.44133 -179.21220 -178.61902 -174.66386 -176.53830 -173.21007 -170.84383 -174.80610 -175.65913 -186.22177 -188.24726 -228.88859 -280.86945 -502.48757 -651.04154 -850.49569 -940.15839 -1072.89360 -1122.23249 -1123.72525 -1108.74615 -1058.44080 -1040.71998 -1028.66157 -1017.95839 -1042.06451 -1042.46772 -1056.42475 -1026.95594 -1030.74167 -1117.16339 -1196.78373 -1248.54570 -1347.91363 -1465.44772 -1459.95555 -1599.73599 -1596.22122 -1599.76474
763.95896 758.79725 582.64996 345.39784 332.52857 361.58431 339.86939 285.69299 198.56169 178.55914 67.72297 14.25687 -38.62896 -69.35454 -73.36476 -82.73814 -99.38547 -109.37502 -118.77514 -114.83094 -120.90959 -136.14585 -143.21351 -126.64029 -112.91403 -119.45574 -105.00774 -107.12061 -110.52305 -138.01415 -151.47391 -161.57140 -156.85017 -161.79484 -146.73937 -142.71376 -137.09107 -117.73904 -90.25225 -90.60621 -103.46493 -125.64483 -124.51874 -124.33254 -123.73321 -119.32667 -107.44695 -108.14295 -98.26396 -109.96165 -125.79647 -123.67431 -123.70158 -97.68860 -104.23265 -116.35682 -124.37064 -121.88688 -125.97182 -132.84449 -154.67374 -149.31325 -135.83481 -144.99820 -154.65087 -158.65084 -157.79309 -161.31480 -159.61162 -161.10022 -162.49650 -161.87805 -157.07747 -144.25738 -146.04887 -153.16750 -152.04367 -159.36110 -172.74206 -165.58412 -162.89934 -157.68785 -162.56709 -161.13088 -165.00039 -167.44239 -178.49845 -176.87082 -168.37597 -171.23518 -168.11623 -164.22578 -162.29881 -169.01083 -176.01079 -170.30719 -175.13503 -176.85650 -176.76392 -180.09687 -165.79584 -175.29536 -171.39490 -175.67021 -176.48146 -178.86996 -181.98195 -182.61094 -212.54572 -230.01683 -374.19898 -639.30656 -870.34329 -893.63677 -1004.08481 -1033.68302 -1080.57305 -1062.93328 -1042.26194 -1028.36285 -1030.04466 -993.29448 -971.83329 -967.41876 -973.81127 -999.07761 -1017.63872 -999.96588 -1040.50947 -1157.46485 -1278.69727 -1338.77682 -1408.57399 -1434.96354 -1509.85010 -1513.51432
746.68184 754.17718 560.11967 450.12834 410.75398 390.14642 346.16817 275.42900 224.65605 111.41188 55.72433 -14.64200 -14.94847 -54.60818 -76.72944 -78.68325 -95.23269 -102.40926 -118.96351 -122.04924 -133.60058 -132.45333 -136.83412 -146.26365 -136.40083 -133.91024 -123.26906 -127.43634 -132.60726 -143.87174 -149.89339 -150.30670 -153.00659 -141.47822 -149.00727 -104.57136 -110.50097 -94.72133 -80.65820 -75.87010 -95.10207 -111.85110 -123.18042 -102.58653 -105.20859 -104.74367 -107.14437 -104.06115 -104.97424 -110.77324 -114.45432 -124.78362 -113.43386 -102.03116 -93.20625 -106.38424 -106.37474 -115.24746 -114.11158 -128.30947 -145.24291 -141.10062 -134.82937 -136.90866 -140.53169 -148.37422 -144.24229 -146.60683 -144.28860 -146.88243 -150.52301 -158.79635 -151.08063 -144.81465 -148.73476 -158.75076 -164.29775 -164.11723 -167.38786 -165.60099 -166.75538 -165.30431 -166.72931 -164.54948 -171.22101 -167.26214 -175.00886 -177.00061 -168.83781 -161.72924 -162.59858 -160.03926 -162.88257 -168.61704 -168.40431 -173.52807 -168.04180 -172.11594 -171.43016 -175.29744 -178.63005 -176.26638 -168.93656 -176.71559 -175.01612 -171.43063 -179.13205 -188.22499 -183.43612 -207.67865 -202.53261 -571.39815 -809.38324 -835.26470 -943.67726 -1042.08352 -1055.22383 -1043.78963 -1020.44008 -997.17664 -977.50177 -971.40706 -933.85195 -935.88255 -891.40950 -914.59395 -921.16804 -931.29683 -1005.84151 -1029.09951 -1132.51351 -1320.46462 -1333.21271 -1429.98484 -1432.70004 -1433.90494
675.97085 677.41563 677.37693 364.28039 383.42419 326.87462 240.07854 208.06864 186.26346 158.90796 53.00792 49.54455 9.40452 -3.36437 -32.97326 -61.66926 -68.26873 -95.61497 -97.39789 -112.24603 -118.32255 -134.47973 -137.40012 -141.55564 -151.65056 -145.86483 -142.19004 -141.85825 -149.84208 -152.10169 -161.42420 -156.27237 -136.05783 -113.08040 -96.45080 -88.69597 -103.66350 -77.31720 -53.01365 -55.85892 -79.25229 -95.51172 -90.63102 -82.95240 -95.43056 -95.98870 -100.72762 -108.85356 -108.06086 -108.92867 -115.39979 -108.57878 -113.70492 -95.64411 -94.02095 -92.38675 -96.06850 -104.75755 -109.54532 -125.13427 -132.24155 -132.39568 -128.35016 -120.57836 -127.62700 -137.01655 -134.57954 -137.18664 -143.88904 -143.18333 -145.25077 -153.52913 -156.45611 -153.77085 -155.36262 -166.91865 -161.23090 -164.10696 -161.65565 -159.71057 -164.95596 -173.89499 -169.69969 -171.43231 -167.04772 -174.02752 -176.96518 -174.15369 -171.38163 -160.97863 -164.25593 -162.31243 -165.81673 -171.85513 -169.06081 -173.75742 -179.13928 -166.19871 -170.78892 -174.83330 -173.98383 -176.25998 -176.56379 -169.03026 -173.28588 -171.96424 -176.90380 -179.72990 -185.64640 -188.51188 -211.60679 -605.49176 -843.61104 -858.38815 -911.04241 -1025.25301 -1029.62466 -1014.69878 -1013.24361 -976.96580 -945.48329 -899.71213 -876.13665 -878.13264 -850.02018 -846.34193 -849.71785 -851.06943 -927.00044 -964.86714 -1023.10593 -1140.40671 -1242.34883 -1317.64445 -1364.75550 -1359.02488
620.01402 621.79075 492.07821 343.01704 278.99586 254.06526 146.97253 176.96158 224.76641 232.60334 170.08397 78.39853 68.65656 26.69935 1.83287 -24.44086 -36.78778 -69.99847 -83.96036 -101.56318 -111.85297 -111.11218 -115.45945 -145.05480 -148.50263 -149.30303 -156.76659 -154.56157 -159.75672 -159.37703 -159.33317 -145.99598 -132.45262 -107.65471 -94.06405 -63.19088 -70.55218 -57.07541 -52.08463 -46.72126 -65.31920 -85.93628 -80.69614 -80.72707 -84.83203 -93.10078 -101.24502 -102.95461 -100.03809 -99.79626 -98.82177 -108.37887 -99.45150 -94.21072 -89.54256 -83.88859 -86.59652 -92.70547 -106.75436 -109.16030 -120.42767 -109.77624 -116.37783 -118.35309 -121.35429 -127.66424 -128.11354 -127.91351 -139.56800 -136.69411 -148.71270 -155.92550 -146.41076 -150.71590 -158.65290 -160.14372 -166.33675 -167.10541 -160.98601 -157.46548 -165.04623 -169.39974 -169.58665 -175.10403 -172.37106 -171.54248 -171.26946 -167.47944 -163.26483 -163.94088 -163.11109 -162.41496 -172.45423 -171.57281 -173.16837 -168.64271 -172.04717 -174.58853 -176.15244 -173.50756 -174.94008 -173.92017 -172.90663 -170.10308 -180.96796 -178.31326 -169.02407 -175.53147 -181.49784 -204.29521 -225.21136 -475.64777 -752.58466 -857.07299 -951.70952 -996.14290 -1003.38902 -999.79795 -1001.93646 -935.32346 -905.44539 -885.60426 -865.99818 -815.97935 -806.51587 -805.07014 -813.22783 -839.54789 -870.25189 -892.04367 -915.72409 -1039.74854 -1148.55052 -1270.61309 -1293.97896 -1296.83995
612.23951 612.60030 439.64169 285.08387 186.40707 117.29294 136.99985 155.41044 232.08582 231.50360 183.02489 117.34851 79.89988 29.49222 -0.52178 -15.71347 -19.91140 -28.68749 -46.08299 -78.80434 -90.10539 -90.34263 -96.40770 -119.58925 -140.08232 -149.59655 -147.63262 -159.99756 -155.22873 -154.43373 -150.38282 -137.86303 -126.58408 -112.66865 -77.20044 -67.40053 -38.52005 -34.24902 -36.68632 -50.38083 -68.95470 -64.36747 -70.51877 -77.68648 -93.58831 -95.89855 -100.29888 -100.98619 -93.11832 -95.13169 -90.45538 -97.72550 -100.53160 -92.41171 -86.90476 -79.40341 -82.61334 -91.26443 -103.72843 -105.98373 -109.92074 -109.87187 -108.24979 -117.03981 -120.55575 -123.57135 -124.81764 -125.54967 -133.59846 -142.91616 -148.14475 -141.43540 -144.85159 -146.01216 -152.77280 -151.30442 -151.96719 -156.75959 -153.41594 -152.40026 -163.66695 -163.93909 -171.40974 -170.76356 -173.87725 -169.71822 -169.31386 -158.34684 -157.70333 -160.89457 -163.96270 -159.49227 -167.25107 -162.81832 -173.05511 -166.06112 -170.51348 -172.53554 -170.72145 -173.06258 -173.75211 -175.60809 -170.01665 -174.31492 -174.68828 -177.36216 -176.99029 -176.90441 -183.93354 -214.61467 -243.61891 -382.42432 -634.52327 -868.95959 -938.44043 -956.87002 -991.02988 -986.72384 -963.60386 -921.67299 -891.03568 -872.72065 -816.18764 -788.00795 -761.74315 -748.56068 -758.14816 -770.02942 -811.03521 -832.14594 -901.87776 -990.06017 -1047.28305 -1251.73558 -1252.18727 -1249.87262
438.08378 443.08794 479.05866 177.34528 165.69045 113.52973 85.38988 124.95275 199.58544 208.96313 165.16698 152.36377 132.62142 79.68006 55.12245 12.27328 19.37342 6.67495 -23.29559 -41.68763 -62.06821 -66.38206 -90.46512 -113.44274 -125.34448 -122.21325 -143.64444 -147.88411 -145.49004 -143.56422 -138.29355 -127.72812 -106.46138 -101.47616 -72.57600 -42.00145 -29.39677 -38.50339 -40.07500 -54.71046 -64.37766 -74.80168 -77.77931 -88.94296 -95.84440 -94.34233 -89.29354 -86.31631 -80.09864 -73.70992 -85.35113 -100.99543 -90.77913 -91.59089 -81.38250 -77.85994 -88.14679 -83.23997 -90.56559 -100.21206 -111.20973 -108.87893 -113.65071 -124.30433 -120.29770 -119.36456 -119.52434 -118.94618 -127.92599 -135.17920 -136.72799 -137.61459 -139.52342 -142.02090 -141.27927 -154.23029 -158.51181 -153.73972 -151.31913 -150.63822 -159.07404 -155.36983 -161.64432 -170.14919 -167.39339 -163.29791 -169.98685 -162.38955 -155.01067 -153.75635 -161.36336 -168.08796 -168.85958 -170.76565 -171.25796 -176.11411 -167.30971 -175.41876 -174.38712 -174.31704 -176.65820 -170.96495 -171.77034 -174.93696 -176.99273 -179.01844 -178.47780 -183.79026 -191.59965 -208.32440 -238.27028 -381.28134 -462.80963 -719.15843 -886.36044 -921.53163 -955.89513 -973.84424 -943.19867 -897.00363 -856.88378 -846.83820 -814.12999 -759.28877 -740.47504 -722.19599 -729.00633 -716.83779 -754.14972 -799.86442 -868.61775 -966.48150 -1046.89760 -1145.56619 -1203.05427 -1204.33382
384.28410 386.50969 267.30637 190.77479 136.52361 88.54253 71.46134 117.90608 154.62688 145.55544 142.92058 147.15929 156.54398 102.39443 65.44882 29.32239 38.22403 25.83193 -25.26060 -52.91215 -61.07643 -90.42543 -101.87019 -128.34709 -116.65823 -111.08479 -119.01753 -126.14824 -127.59136 -128.47952 -122.61370 -123.80739 -108.73253 -92.54614 -71.61907 -34.80353 -32.52783 -38.53041 -39.12754 -60.59488 -70.31006 -79.34688 -81.38442 -90.94509 -94.04802 -78.71566 -75.60239 -74.18965 -70.57354 -73.48217 -83.65710 -88.53341 -87.25350 -86.17578 -75.34732 -79.70816 -91.84491 -94.53039 -96.94341 -112.39537 -118.86914 -108.96716 -115.77172 -112.87885 -118.04826 -113.93784 -120.50147 -117.78652 -124.26622 -131.30911 -133.60626 -124.54263 -137.80947 -137.31971 -147.79252 -149.82258 -151.76246 -151.66145 -157.78537 -149.71340 -154.50402 -151.29807 -160.97070 -164.89817 -165.22007 -157.33511 -154.86430 -158.69445 -158.91836 -160.88605 -153.45223 -163.97547 -169.67464 -173.22586 -170.65847 -176.04989 -174.11556 -180.95450 -173.17184 -176.81577 -169.29379 -168.87424 -174.37353 -175.80888 -176.84297 -181.25522 -183.62530 -181.83188 -182.88286 -199.88694 -253.50597 -273.86681 -444.90915 -658.31413 -879.65549 -906.30751 -953.69726 -961.94068 -923.55483 -879.97706 -830.22417 -821.18714 -762.59874 -716.77901 -713.38186 -686.80866 -697.04387 -712.93617 -756.09896 -783.03503 -810.43431 -928.48986 -982.57311 -1117.39319 -1160.06898 -1163.59700
378.56295 372.89045 268.61969 150.92293 94.88526 52.79485 69.58269 99.65095 123.63863 120.75933 97.26195 124.20403 140.94814 133.57610 100.48648 63.10596 30.26385 15.79856 -35.93097 -87.02208 -86.72295 -102.94086 -107.36591 -113.53247 -95.54656 -84.14971 -106.12258 -118.60498 -107.23326 -107.45374 -115.39125 -113.90373 -102.46343 -91.15816 -65.20585 -43.78599 -28.29528 -30.51939 -46.30903 -64.41506 -73.43335 -79.24767 -86.91676 -92.42534 -84.45174 -72.30854 -70.22787 -57.73666 -49.38207 -59.03406 -70.81158 -75.73635 -80.59351 -76.69236 -80.64970 -83.43068 -96.00233 -102.52320 -108.44403 -122.46938 -114.27697 -116.29516 -112.62467 -123.43001 -124.46957 -117.68168 -117.78027 -119.67217 -131.62912 -134.47149 -133.64995 -140.00461 -140.51546 -142.28703 -149.59132 -153.89132 -156.85920 -157.57795 -156.94266 -156.83354 -148.98983 -158.89569 -159.24712 -160.62114 -157.34308 -157.39467 -156.73916 -160.81426 -153.55903 -155.48466 -162.33552 -158.96295 -170.19472 -173.17558 -176.86851 -176.49269 -172.93324 -177.63736 -174.60551 -169.27465 -171.10443 -173.41856 -174.21606 -177.94235 -174.69684 -175.82037 -171.66158 -180.52993 -180.33346 -182.46263 -227.54059 -331.50889 -463.83798 -592.60962 -872.79763 -899.74697 -925.63695 -925.31461 -890.47652 -840.35034 -805.14468 -784.21284 -721.58130 -700.91439 -669.12285 -673.84598 -665.57532 -678.12610 -718.75187 -746.15589 -785.59608 -873.22474 -907.41711 -1115.17853 -1125.01342 -1117.99853
439.04242 442.49639 313.75615 166.73162 105.71086 54.51678 47.04951 52.68640 80.23933 72.36961 77.43427 82.75242 119.95306 125.62241 102.94544 44.85009 43.77999 18.10178 -37.67866 -102.14716 -97.15778 -100.41879 -96.66159 -98.65135 -90.51758 -93.29085 -98.51463 -104.79015 -89.17369 -82.65711 -79.66483 -85.44276 -96.47870 -73.87496 -62.44269 -39.20238 -28.50025 -31.00236 -45.05057 -59.41808 -70.50540 -77.41428 -76.08590 -81.89115 -70.49248 -69.18397 -62.40856 -40.80951 -42.38715 -54.94932 -63.84499 -62.57405 -63.39308 -74.57953 -75.60357 -87.89240 -88.54953 -108.01251 -120.78898 -127.07505 -123.33609 -124.73256 -122.27039 -124.51890 -129.11898 -126.28332 -137.10778 -137.27359 -140.20480 -137.02322 -149.45602 -138.19799 -145.43866 -151.16515 -158.71507 -159.16531 -164.59584 -161.96477 -158.89581 -166.51725 -163.77527 -163.68568 -159.15821 -159.58128 -159.14070 -158.21117 -153.17644 -158.36480 -159.09292 -161.06100 -165.83320 -170.09137 -173.09288 -171.95802 -180.37973 -168.57553 -169.57120 -165.98250 -175.13204 -172.46135 -169.98765 -174.27002 -170.76033 -172.19644 -175.28677 -172.49141 -171.31488 -176.68525 -177.60147 -178.66731 -232.28092 -391.69299 -462.81030 -610.97532 -789.98398 -824.03053 -887.73079 -905.76382 -875.67360 -801.18570 -767.85053 -730.11090 -680.94971 -628.96037 -638.38766 -640.96401 -635.82797 -645.22077 -671.69402 -699.78942 -756.51995 -803.26919 -885.15792 -978.16476 -1066.39306 -1067.53457
413.20389 410.68728 303.57196 172.70308 145.39277 67.75773 24.09920 20.72156 10.99752 30.51406 57.56212 93.61119 121.57101 116.07044 92.04936 49.73194 18.11532 -23.30232 -60.36836 -71.35086 -80.48511 -93.36194 -66.84371 -72.66232 -60.83152 -83.17137 -93.17605 -105.41018 -89.09532 -62.18009 -52.01213 -55.86620 -73.30223 -57.04062 -32.50383 -16.42157 -22.30227 -35.73152 -44.52627 -62.28372 -70.50816 -69.05445 -65.37100 -69.24052 -63.66483 -54.16492 -46.89577 -37.92968 -29.59145 -45.33019 -53.10108 -65.35204 -71.14360 -73.44449 -83.42035 -85.27501 -89.54300 -94.25895 -120.22303 -147.26040 -137.74249 -126.24824 -124.47463 -124.67906 -140.00639 -143.90208 -142.21311 -151.88717 -149.99631 -156.67474 -163.89462 -162.29812 -164.98322 -160.55896 -165.55564 -169.32963 -171.67273 -173.26600 -171.93372 -174.19321 -173.32716 -168.66470 -170.12842 -163.46268 -164.71592 -159.74656 -163.57783 -158.81102 -163.60410 -158.71429 -170.00487 -173.69499 -175.74957 -170.76040 -177.31069 -169.13703 -166.84951 -168.95120 -171.14190 -170.99900 -163.83753 -172.54351 -175.94884 -177.22734 -170.05025 -177.20611 -173.76078 -176.16567 -171.42589 -179.03987 -218.59539 -337.25413 -475.10534 -685.06175 -745.59960 -817.76201 -844.29662 -832.36410 -820.69480 -785.57600 -724.86417 -705.41094 -647.50079 -623.40420 -588.62260 -604.47846 -610.36641 -632.79219 -650.01045 -698.73180 -705.96051 -751.62332 -840.37446 -967.35445 -1004.00119 -1007.22967
374.51990 371.40680 284.80611 173.23761 148.89417 77.04302 26.00296 13.94053 -2.02456 22.11191 56.57239 107.85593 125.02975 129.40780 121.47042 66.35022 13.49520 -22.93443 -27.99859 -52.77533 -57.69848 -58.47798 -57.36577 -46.38806 -50.58621 -60.38697 -71.67702 -83.21483 -77.79884 -63.60291 -50.39397 -47.68152 -45.04691 -37.26995 -7.50199 -8.47612 -15.74870 -28.67644 -34.29526 -56.00499 -57.91382 -61.86948 -60.31391 -48.29525 -46.84666 -49.80956 -33.76397 -27.45383 -17.16065 -34.18548 -51.25741 -69.25205 -79.14746 -91.15621 -97.51301 -97.42684 -91.69362 -105.62463 -134.43052 -143.92219 -152.24057 -136.79734 -129.51098 -137.73152 -141.30802 -161.38776 -155.74018 -165.06082 -171.43561 -167.97374 -166.35286 -165.04793 -164.80757 -163.26906 -159.22648 -170.50006 -168.13145 -165.94250 -167.33447 -166.32834 -170.16720 -169.20752 -168.50684 -169.70989 -169.97807 -172.12799 -165.64439 -166.25836 -159.55548 -170.45039 -167.94030 -178.35747 -169.51608 -170.85728 -174.85031 -169.55612 -167.77467 -174.00737 -171.85315 -163.62576 -168.87326 -172.46482 -170.57771 -177.71247 -175.22926 -174.59316 -173.20694 -179.19985 -173.86308 -173.86509 -224.25752 -280.43754 -404.14449 -570.64709 -725.11737 -747.52568 -794.74630 -815.18475 -795.91540 -732.52169 -691.65543 -627.23208 -603.97384 -591.89467 -572.73425 -553.06287 -567.60926 -593.04132 -590.01501 -630.17562 -650.62754 -715.17107 -727.09756 -928.69986 -931.05173 -930.50864
364.82343 363.99285 274.89563 138.67319 95.96305 83.71905 43.34489 8.95056 -5.26438 17.79792 43.14091 105.56136 150.57900 143.50626 133.43948 103.74381 42.45132 4.72821 -18.37685 -32.76420 -44.95057 -37.65591 -38.13926 -15.11499 -11.23354 -39.85100 -51.91464 -69.83804 -71.09029 -60.53138 -48.01272 -20.71560 -22.50755 -5.13892 4.91796 2.94332 -6.65075 -14.55362 -36.11364 -39.23179 -40.06221 -55.46249 -55.85095 -43.51458 -27.23435 -26.93562 -23.87102 -17.99841 -19.84172 -41.43174 -71.25011 -92.78268 -94.43429 -108.43615 -112.76495 -105.45297 -98.17091 -107.93926 -139.62305 -152.30887 -156.38635 -141.01855 -137.57441 -141.46374 -152.09571 -159.50043 -166.78588 -174.55853 -169.67402 -171.07744 -174.37062 -167.95599 -173.69597 -163.18642 -166.16451 -170.88149 -161.47948 -163.34920 -167.06394 -172.25032 -173.47840 -172.33540 -178.13796 -172.27254 -173.46968 -175.62322 -171.90962 -175.26091 -178.27830 -172.98252 -172.14967 -173.41849 -175.92294 -169.46773 -167.51238 -169.61644 -171.74454 -170.78552 -174.30427 -172.94078 -174.72264 -177.29377 -173.98921 -177.15114 -170.55040 -172.96527 -179.33870 -173.30080 -178.69996 -175.92038 -222.82072 -270.09848 -392.81341 -506.00521 -622.91503 -743.24978 -737.51593 -775.97118 -727.25688 -711.85674 -622.81035 -593.61243 -551.15083 -518.10478 -518.97131 -514.36912 -510.13479 -539.92946 -520.37037 -561.77072 -580.35922 -646.18276 -711.64148 -798.04462 -857.20668 -854.53106
293.62343 295.10046 285.89660 135.94064 69.68862 49.43000 25.36436 7.33949 -12.51974 17.44747 51.22934 102.71461 121.64103 139.68792 127.32122 112.86625 84.92587 45.45309 30.45573 -0.18425 -5.51982 -7.78225 -7.36743 0.17671 11.11154 -6.26342 -32.01784 -63.89964 -61.29130 -47.91773 -31.38843 2.14604 0.63727 10.75285 21.54071 9.66064 -7.49389 -20.28049 -23.47693 -23.55196 -34.73590 -41.10839 -47.65317 -28.58125 -21.13465 -17.17939 -21.88014 -16.92985 -26.68650 -71.36381 -90.92664 -101.24204 -100.06566 -113.90929 -127.38527 -126.00010 -122.01415 -112.66921 -133.24753 -156.39270 -155.65772 -166.54739 -157.52749 -151.11894 -156.36219 -165.54859 -168.25485 -168.60087 -171.83850 -170.50063 -170.21194 -170.25537 -170.97128 -171.62464 -172.41461 -167.09769 -155.55542 -153.46508 -162.16255 -165.15504 -166.93269 -166.87724 -169.16160 -172.59432 -166.87303 -173.21667 -166.73815 -165.36402 -169.98497 -173.37899 -172.54157 -178.39223 -174.26886 -168.86780 -171.48788 -168.50296 -171.12728 -177.56127 -170.84110 -175.02230 -172.64092 -172.84142 -175.86293 -174.68523 -176.88143 -173.60420 -180.06145 -181.76746 -183.25736 -195.19695 -229.11751 -255.87675 -333.39584 -384.97470 -555.48795 -600.37843 -712.42252 -700.70085 -692.49975 -621.29488 -609.04728 -516.80092 -498.76924 -488.29108 -470.90684 -470.01311 -478.05487 -473.96751 -503.20190 -503.72558 -551.70968 -614.59652 -659.76377 -749.01922 -777.96219 -776.82386
199.38186 195.53150 217.40059 67.45141 36.43524 42.27276 12.23133 -19.97797 -18.77262 8.13839 47.44460 78.76229 111.16391 104.44555 113.09608 105.67598 95.26733 81.92443 61.10413 35.40274 46.30297 49.87710 38.91965 30.35234 16.23740 4.40649 -16.57888 -39.01263 -51.09116 -42.45512 8.78065 34.19081 38.65453 27.78104 11.95523 -15.92874 -32.60257 -35.22849 -20.14856 -23.61408 -24.17061 -28.90825 -31.19431 -31.59242 -22.56942 -26.37124 -37.32538 -45.56325 -54.61415 -68.69149 -102.65597 -108.32042 -121.90661 -127.65349 -136.23686 -123.35124 -116.96479 -120.37463 -136.79265 -142.35747 -152.81047 -164.42213 -164.50229 -156.75603 -150.95938 -159.22748 -158.01746 -161.52606 -152.58444 -156.74257 -162.86134 -157.70544 -154.90580 -163.32028 -162.84104 -162.23716 -157.44267 -154.43812 -152.54904 -162.32869 -164.07032 -164.70709 -164.23029 -161.35390 -165.69602 -161.91823 -172.14887 -171.48728 -168.25968 -163.57747 -162.69169 -170.99727 -169.39515 -165.36843 -171.87663 -171.72171 -173.70805 -177.76884 -170.55222 -176.62529 -174.06512 -171.31876 -177.06689 -179.43315 -170.30842 -173.90436 -182.03156 -184.28021 -192.13780 -199.33783 -239.26350 -241.96114 -248.44263 -246.01926 -390.55457 -500.98215 -548.46608 -598.88296 -528.97925 -579.06254 -535.40843 -508.98670 -484.62144 -452.88790 -454.73889 -441.50259 -438.54056 -437.77013 -460.55984 -477.72096 -498.37309 -517.09514 -579.41139 -630.49275 -697.62917 -702.93195
174.89646 170.64320 116.69191 45.13919 20.66521 21.23777 3.01654 -14.21020 -16.17448 -1.31309 40.52762 62.42715 82.81692 97.65005 105.43138 111.21462 106.55444 91.05065 115.41064 121.88031 119.84479 81.30032 85.10282 57.61319 29.62802 40.85175 21.26668 1.32603 11.25499 24.07107 72.36929 69.35922 59.51097 25.79346 1.28235 -41.99513 -44.99800 -44.05941 -31.30879 -33.05914 -39.66550 -44.63165 -39.10034 -37.60021 -42.59928 -44.27698 -53.88771 -73.38708 -72.92799 -84.18275 -97.48217 -112.76214 -126.68524 -126.66990 -140.10569 -134.88186 -133.18323 -144.48985 -140.19795 -156.16978 -146.68701 -163.64416 -157.14070 -152.47990 -149.89494 -155.16620 -157.34353 -148.89094 -154.64518 -147.87895 -149.23184 -145.20690 -155.94392 -156.75725 -168.01078 -153.90180 -147.25078 -149.11653 -152.88297 -153.81533 -160.38790 -163.11647 -156.27492 -155.90783 -154.53250 -161.33075 -160.50211 -164.72381 -161.43480 -161.44894 -167.42443 -167.35953 -171.13617 -169.51419 -174.69630 -173.64972 -174.13029 -177.41039 -173.33225 -174.91714 -172.77388 -178.81420 -174.18983 -170.09121 -173.63109 -172.90617 -174.44098 -181.82214 -194.18934 -206.23622 -211.54482 -230.17436 -233.42162 -218.34066 -216.42773 -317.63277 -418.47672 -493.22767 -500.15725 -522.69771 -489.93514 -449.54138 -434.07242 -430.24267 -429.58921 -412.98154 -419.96490 -425.43228 -443.83822 -464.87649 -471.48432 -509.47723 -556.60623 -622.95590 -641.73546 -645.75049
174.63126 177.23409 117.85460 30.96356 13.24898 -0.09264 -8.30511 -20.54668 -18.71378 -7.96209 17.85596 68.56938 82.20813 78.69320 78.03344 78.21462 104.18423 119.67013 149.03527 165.11108 138.80498 91.28916 77.07463 70.28714 59.33274 64.47261 57.76813 40.36513 40.76417 92.55964 90.81750 75.29635 35.92998 25.37316 -10.70761 -62.95179 -66.90553 -54.34466 -41.40703 -44.47693 -58.30634 -58.11202 -66.49663 -52.97873 -48.19638 -50.31581 -66.43661 -87.37813 -100.41908 -100.88786 -106.02237 -116.70554 -114.01899 -126.12591 -140.35261 -144.50897 -148.69128 -150.49597 -151.01630 -153.81597 -148.14089 -140.20847 -137.17986 -139.97120 -137.21743 -146.30127 -147.18179 -144.58735 -138.92497 -134.28831 -136.08820 -150.31339 -155.26151 -151.98542 -146.22617 -144.85084 -148.48626 -143.87495 -145.71428 -147.18977 -154.11175 -144.68638 -151.77441 -149.03504 -163.26152 -157.99773 -164.00736 -157.35191 -157.06278 -158.45867 -160.12927 -164.04456 -168.02569 -169.27903 -171.98543 -175.26926 -175.96019 -165.51410 -170.63049 -169.54043 -170.01276 -165.98412 -176.79965 -173.49577 -173.07619 -175.99645 -171.22670 -177.25619 -188.56980 -190.20253 -204.24196 -212.76014 -210.15818 -203.45692 -194.13992 -255.61061 -317.57124 -326.76830 -390.40783 -428.78127 -467.95539 -420.71302 -409.18940 -392.25544 -389.30783 -399.06586 -403.64841 -426.57518 -428.41323 -445.36898 -457.56646 -493.79966 -519.74880 -568.26794 -587.78549 -589.37993
155.38883 154.03891 92.13121 2.88510 -0.93040 -22.37121 -28.16578 -28.85811 -19.53609 3.63980 10.19695 43.50181 46.50563 50.28682 45.63265 55.05606 106.53210 140.50992 147.83639 169.91806 134.17322 100.78436 83.57569 51.02166 50.04400 61.63716 62.08264 63.99808 74.01424 99.42213 111.29412 70.94003 1.99430 -15.07474 -49.39122 -71.83090 -77.00572 -76.45173 -80.10325 -71.37148 -81.68102 -80.93149 -82.22564 -79.00463 -82.32912 -77.63484 -86.34466 -112.00984 -114.51626 -125.00584 -125.57467 -123.30750 -111.36810 -127.08929 -140.78006 -147.64460 -148.12972 -145.91178 -157.60699 -149.33442 -137.73510 -126.64996 -127.52531 -134.73776 -131.15428 -137.03577 -133.99980 -125.45257 -127.91277 -126.72490 -129.64230 -132.71477 -135.33461 -140.43900 -146.40491 -138.90039 -140.46519 -133.29384 -140.95167 -143.89694 -143.64482 -150.97836 -149.62034 -151.30580 -156.16833 -157.90881 -167.33278 -157.40531 -157.82495 -155.46332 -159.60736 -164.20867 -164.04739 -167.38726 -174.26253 -169.37714 -170.97264 -171.54024 -173.28670 -165.43860 -168.80267 -167.89532 -167.65614 -172.23761 -173.53963 -169.62132 -169.08218 -181.51926 -175.84013 -172.04835 -188.88639 -185.47495 -187.32564 -185.83499 -175.28636 -193.22195 -208.85822 -259.87436 -302.88643 -348.50078 -422.81862 -383.84449 -369.34765 -365.60836 -359.22923 -363.25056 -383.53592 -404.95316 -413.16086 -438.05987 -454.46772 -474.27452 -501.04915 -532.73877 -560.28617 -557.93574
159.28531 157.42632 102.86314 3.38339 -15.86147 -29.57931 -31.19726 -43.05103 -19.19076 -11.47021 -0.31054 16.14309 8.16800 18.10836 18.72715 45.97150 72.50223 126.13186 140.21113 122.56020 107.77883 79.08271 51.89747 39.46222 25.83101 35.68452 56.46133 58.08738 82.64086 101.59210 120.28920 90.54654 43.72321 -26.77929 -46.81554 -68.87420 -80.48418 -91.38286 -82.16139 -79.44637 -84.89848 -92.10191 -96.42628 -94.76732 -81.19693 -105.85727 -105.55455 -115.11956 -131.65070 -136.16896 -134.20774 -132.49718 -141.02858 -133.26219 -144.97900 -138.95411 -137.65354 -142.87009 -145.54358 -147.56979 -132.27662 -120.80624 -112.95196 -121.90232 -119.58963 -116.52330 -121.11628 -126.96926 -119.33032 -125.00425 -130.64862 -129.00136 -129.55836 -137.33385 -141.72312 -135.81030 -141.04786 -141.77071 -144.79805 -144.08188 -149.17717 -157.12646 -154.86849 -156.08727 -160.87053 -162.05283 -170.10851 -164.40004 -161.51657 -162.07681 -167.54740 -167.11552 -166.82947 -166.12236 -167.35273 -166.96415 -169.22312 -165.29267 -167.25848 -166.55988 -169.14243 -165.08202 -171.04124 -170.55379 -172.28591 -170.03852 -176.32094 -172.00261 -175.83959 -176.95724 -176.60022 -177.36239 -180.44361 -178.14880 -177.34311 -178.63473 -208.36060 -238.40424 -299.33963 -334.06167 -361.20594 -353.99159 -326.19145 -324.32313 -343.99657 -350.70340 -378.72520 -394.82586 -415.49253 -433.24993 -451.22570 -477.42617 -508.41106 -557.43475 -548.44795 -551.35559
216.24069 217.97210 113.61129 0.77005 -15.75468 -18.36684 -13.45201 -23.10302 -27.96150 -43.84622 -33.77983 -12.97155 -18.34644 -19.71769 9.44729 32.49608 56.02865 73.83616 62.40671 45.95827 37.87330 40.48914 12.97133 -2.72438 -7.80540 21.82382 32.49476 42.94020 64.55251 78.34534 116.87212 79.37946 24.22772 -31.34886 -47.69643 -70.61804 -81.73992 -91.20453 -95.49175 -99.36104 -107.17481 -105.96478 -115.74281 -108.00449 -105.84128 -111.24890 -119.44828 -132.03921 -134.69434 -137.45661 -138.13464 -140.23171 -141.33642 -146.63300 -139.05997 -129.06643 -120.02126 -121.51280 -135.53140 -147.58816 -125.95408 -114.15630 -97.06907 -102.17955 -103.61320 -113.58956 -115.05656 -118.56942 -122.89550 -129.22769 -131.33068 -130.81194 -132.65629 -136.08595 -130.27344 -137.49487 -137.91175 -151.09213 -146.53985 -144.70353 -150.10400 -153.23946 -158.80089 -163.23038 -166.63896 -160.82394 -169.04111 -166.81363 -166.81117 -167.74825 -165.61841 -166.66678 -170.92245 -176.54917 -172.00567 -171.44881 -167.29092 -166.53638 -163.44557 -166.64129 -168.65598 -169.31079 -165.46692 -167.29530 -169.70770 -171.79652 -177.95643 -177.76736 -174.45484 -178.26916 -175.11209 -177.57826 -171.97672 -176.34980 -177.74765 -178.30225 -185.92197 -234.42593 -259.60792 -285.65705 -307.22797 -300.81174 -318.44339 -292.89166 -299.72571 -307.90044 -324.30436 -368.80084 -386.50827 -440.92812 -452.82553 -493.38593 -533.20404 -583.13773 -583.04128 -582.88115
167.73735 168.73963 106.58765 13.63797 4.50437 9.66008 23.97327 2.79822 -15.11344 -30.74607 -45.82149 -33.20522 -34.73506 -32.38717 -3.51432 10.76270 23.94516 15.63740 19.18488 26.15482 25.39674 14.56154 -13.82784 -16.39235 -28.13279 -3.91102 21.78495 33.67924 27.18360 49.78770 86.74737 71.96884 31.35122 -19.40795 -41.11309 -68.66041 -56.52691 -86.56664 -85.93682 -96.91351 -96.06343 -104.91896 -108.34553 -110.33848 -120.03895 -121.94942 -127.39746 -133.37380 -138.10214 -140.48684 -137.04314 -136.30390 -135.91712 -137.44670 -134.50893 -135.06762 -119.35459 -120.41042 -119.75480 -127.31859 -115.46505 -101.50789 -98.15462 -90.72574 -104.37191 -110.96243 -107.49387 -116.97885 -117.66877 -128.39535 -133.97183 -131.49012 -140.95367 -138.53159 -146.26347 -145.77939 -148.06315 -157.36466 -158.80785 -153.35423 -163.08392 -165.57804 -170.38177 -167.85867 -174.17746 -168.37772 -170.01444 -172.93335 -170.02138 -172.41729 -173.68365 -174.05300 -169.56708 -171.81187 -167.84101 -166.79429 -166.17960 -162.87197 -160.17973 -166.31268 -170.27073 -166.41596 -169.11016 -172.68733 -170.97996 -173.66889 -176.62622 -173.08254 -176.03289 -169.00081 -176.63921 -175.31166 -180.30339 -174.09126 -169.02135 -173.88697 -176.66701 -202.28397 -244.13249 -284.41636 -300.55208 -284.01450 -257.48029 -285.57083 -267.60937 -295.51716 -304.19458 -323.62271 -384.68549 -413.75280 -447.06827 -547.27215 -561.78282 -590.24948 -636.15942 -638.01720
201.07033 199.06505 209.48207 57.97652 38.99966 44.01457 46.03913 30.40777 -12.32864 -27.22617 -36.50198 -48.89110 -37.42604 -32.12816 -9.93666 2.13543 7.54628 4.77669 -3.48861 5.88781 25.87675 23.04437 -5.03616 -29.64349 -36.08100 -20.56564 -1.29255 -6.55329 -10.26401 32.67624 70.95542 49.24550 43.43202 -0.72140 -38.31227 -29.73202 -4.51035 -35.73694 -53.62679 -65.95185 -63.58727 -87.23782 -96.34456 -105.90620 -107.53784 -119.42207 -112.00146 -122.23881 -123.88105 -126.62493 -104.76970 -115.79796 -117.41341 -129.10490 -127.59840 -120.39029 -113.73958 -101.39125 -103.04073 -112.00469 -126.96184 -96.08893 -91.34550 -91.32252 -97.48126 -100.33157 -104.77465 -117.89065 -125.39791 -121.98752 -128.06858 -133.43075 -140.32019 -151.61562 -157.20325 -155.70364 -154.61514 -163.10197 -159.38832 -161.19626 -168.14291 -167.37611 -171.10523 -171.78584 -170.97207 -171.21090 -168.86025 -171.25207 -168.53625 -171.98562 -163.09218 -167.06134 -164.67983 -164.77381 -170.37285 -169.26973 -167.96755 -161.65243 -162.47211 -165.86356 -169.22878 -166.43423 -174.06542 -173.37692 -175.19454 -167.78799 -170.55214 -175.69595 -177.11906 -173.97100 -169.66879 -174.50205 -172.13593 -174.38875 -175.70231 -172.66572 -172.02057 -190.40352 -230.51902 -258.38207 -259.99104 -238.27636 -236.88059 -234.11957 -244.84574 -256.86483 -281.39868 -309.68380 -376.82393 -404.53252 -468.98505 -542.41048 -603.93770 -632.62773 -659.44636 -660.11199
270.76258 270.21792 255.70723 96.37168 51.59214 70.53513 57.40375 18.94624 -17.00282 -21.75318 -37.20003 -56.52515 -52.69915 -48.38284 -30.30373 -25.82662 -26.31244 -13.46081 -7.25696 13.86455 38.80815 46.15218 9.54624 -29.73344 -38.87294 -46.49550 -30.60347 -26.02125 -13.82211 20.47605 41.29671 55.61908 35.13984 16.73958 -6.35773 -3.32150 7.52266 -2.46080 -20.40036 -39.58396 -49.12847 -61.58783 -83.24520 -94.10897 -110.30638 -106.35161 -104.11022 -105.63611 -111.21119 -116.58064 -98.95060 -85.89901 -89.24296 -91.58980 -99.78287 -99.30248 -98.20398 -91.45649 -99.82694 -110.39834 -107.74289 -102.63722 -84.42808 -83.95803 -104.07255 -107.29884 -99.65411 -118.73877 -129.76065 -132.43985 -134.02357 -135.74875 -142.72046 -154.78471 -159.00585 -160.82085 -167.86266 -162.16137 -160.47311 -178.58633 -169.75249 -168.20464 -168.82631 -162.47768 -167.14741 -172.87216 -167.89917 -164.84788 -166.21965 -159.63747 -162.06245 -161.32238 -161.96286 -165.96678 -171.90656 -165.81226 -166.26171 -163.03320 -170.01851 -169.89186 -175.80571 -169.58393 -171.17774 -169.82295 -169.39654 -173.36424 -176.16201 -174.46913 -173.53476 -173.69157 -168.83571 -175.30028 -173.59705 -176.22252 -179.26916 -175.55878 -168.77825 -181.49511 -207.08092 -211.78728 -204.49225 -193.68205 -212.77910 -219.56131 -218.89309 -224.92308 -255.11666 -275.27028 -334.84760 -386.79519 -475.07904 -527.60132 -592.08070 -629.07289 -635.52571 -641.73644
295.08689 295.67954 198.78268 105.27164 115.43907 67.15335 56.84611 13.95534 -17.39234 -29.79736 -49.97766 -45.54735 -57.26070 -53.35982 -48.85515 -40.62449 -50.69035 -22.50078 -7.30178 4.89052 34.73515 34.89109 28.56215 -2.33231 -28.89054 -49.42287 -44.69794 -36.12537 -30.35133 11.50687 38.97582 57.28873 46.43665 41.11672 37.73361 44.12571 45.67600 20.91278 4.79204 -11.23345 -30.26091 -46.94581 -86.49238 -87.25925 -90.93060 -78.81117 -98.41790 -98.23318 -110.60683 -102.53827 -92.68632 -77.76617 -73.85849 -69.71019 -93.66833 -90.81753 -77.64429 -86.87933 -92.02059 -91.17578 -88.49778 -80.00581 -76.56406 -88.43317 -95.67855 -105.36611 -107.29600 -122.28776 -132.09759 -137.93817 -137.55673 -140.98654 -155.23100 -155.22828 -156.74000 -164.40119 -161.86054 -162.07018 -165.45350 -172.53765 -168.43244 -164.15524 -159.71929 -160.07880 -165.19215 -165.93938 -160.83288 -163.82031 -162.49885 -160.90956 -161.47378 -161.96754 -168.30754 -168.65706 -161.62052 -164.37047 -169.97337 -166.53920 -168.28017 -167.04499 -172.74097 -173.30171 -177.66554 -174.19916 -169.73743 -174.22753 -173.03799 -170.26428 -174.53783 -176.32018 -171.79473 -175.36542 -173.97065 -170.64798 -174.83938 -179.28376 -178.12676 -170.89457 -177.38153 -198.06525 -187.52150 -191.56718 -189.27592 -184.99558 -187.05498 -195.89636 -221.72973 -257.43161 -297.15797 -324.40393 -427.74361 -520.03068 -531.08562 -600.67292 -601.78299 -603.10858
294.14020 301.42830 203.29647 171.02482 160.03734 108.11258 53.42988 10.54520 -7.64007 -16.12384 -37.07121 -43.64529 -53.82320 -52.91861 -61.53685 -55.55934 -63.43226 -45.06500 -12.12394 14.10640 12.32160 35.52296 6.40531 -6.12769 -37.48678 -44.09045 -41.69844 -27.79414 -8.60544 28.11402 39.48532 34.99652 30.07317 22.44669 35.63346 46.47465 43.23443 38.28871 29.32449 14.92366 -17.00907 -42.82303 -67.17574 -73.40497 -66.73002 -64.25502 -77.04540 -81.14196 -101.54702 -99.39223 -93.92792 -79.68691 -70.70650 -73.55614 -77.41940 -77.38996 -78.11862 -78.28803 -78.82201 -75.62030 -78.20323 -74.57570 -77.21637 -81.93588 -98.11653 -106.18674 -118.96222 -122.75188 -135.20714 -136.02519 -138.50482 -138.52160 -141.95567 -147.03105 -148.71168 -162.32390 -154.71485 -159.09773 -164.08799 -163.85796 -161.81412 -157.96181 -152.04446 -155.78562 -154.39088 -156.92353 -157.39767 -151.23516 -156.47634 -161.64448 -154.61327 -167.18584 -163.19306 -168.93372 -166.29571 -169.99193 -162.97470 -168.79468 -167.86374 -168.37401 -176.93505 -174.86022 -173.76421 -168.84199 -176.66757 -176.11043 -172.62836 -174.40186 -172.64556 -169.27129 -176.43721 -172.80365 -174.42829 -174.32193 -175.37538 -173.42025 -174.85015 -174.48813 -171.29816 -177.75519 -175.84515 -177.97053 -173.70411 -172.96834 -182.08512 -180.82367 -198.04426 -237.71823 -243.60377 -281.73909 -379.59370 -474.04026 -518.70671 -544.99548 -564.15870 -554.52677
350.85280 351.98575 320.77389 194.60823 213.09736 155.22138 107.71621 47.24886 22.85430 -11.87435 -17.45923 -34.22130 -45.54630 -51.88670 -56.78637 -64.55879 -61.69486 -56.53068 -32.29732 -3.56375 2.00583 6.24898 -1.97261 -31.55061 -39.62895 -49.00815 -41.15605 -8.47373 0.29058 12.59371 28.96536 29.38055 9.46977 7.36556 17.22127 44.36398 53.46688 46.79540 46.29850 32.59413 18.33943 -18.76412 -46.39953 -65.27885 -44.68051 -32.18443 -51.12165 -64.05661 -72.04691 -76.80154 -86.72247 -72.70156 -63.76280 -62.70476 -66.79970 -67.12251 -70.28991 -68.93519 -67.88750 -71.64530 -72.42288 -70.41233 -74.68149 -84.34279 -95.38605 -104.51758 -115.38895 -119.68775 -117.64673 -124.56274 -124.51951 -128.12370 -123.60370 -136.69697 -148.89149 -148.52586 -163.19403 -155.86252 -165.55476 -169.08436 -160.45555 -153.25831 -151.65227 -147.55429 -148.36366 -149.99152 -151.90869 -156.86647 -159.41619 -158.33376 -155.66579 -166.63934 -165.61970 -169.79941 -173.38586 -171.14932 -172.18143 -169.95776 -172.59507 -175.83110 -172.62309 -172.40836 -173.29928 -174.50012 -178.31391 -174.23544 -173.25453 -174.15461 -172.66784 -172.86081 -178.36373 -176.10204 -177.78358 -174.78986 -176.22461 -176.96570 -173.02700 -172.16933 -174.36137 -174.32505 -173.27643 -173.78836 -174.34184 -172.18292 -174.79067 -181.27699 -178.34217 -205.80985 -237.75802 -278.76900 -367.65495 -429.91256 -437.58496 -491.24465 -496.83484 -505.34093
442.72246 447.24206 347.39378 239.60976 231.09967 167.56828 110.13482 67.36350 33.94450 12.38693 14.15673 -11.81861 -23.03223 -39.43248 -52.33085 -67.27211 -63.95466 -58.19324 -36.34880 -27.40320 -20.63443 -34.47163 -24.32023 -40.18220 -52.55357 -58.53684 -39.71586 -20.74397 -1.61074 -4.43547 1.49898 -3.24504 -11.04192 -3.85868 12.75083 23.70226 25.14470 28.03713 34.52196 43.91571 24.01873 -7.82505 -40.11446 -32.49366 -41.85521 -23.40353 -27.91420 -41.62318 -51.46398 -56.23573 -69.10983 -61.33074 -56.18970 -58.91587 -59.10578 -72.26534 -74.50988 -71.58606 -71.17825 -71.82307 -79.19809 -76.99770 -79.25692 -80.17797 -87.12920 -102.86331 -100.73047 -112.29791 -114.87539 -118.61330 -120.49102 -124.21444 -133.79806 -134.62570 -149.66341 -154.26938 -160.15988 -157.80194 -163.95289 -155.70898 -150.10541 -150.67147 -142.00572 -143.28427 -149.37956 -148.16245 -150.72958 -151.61288 -163.20981 -158.41487 -161.54437 -168.98598 -174.14513 -166.83291 -168.80812 -166.20567 -177.83708 -172.06233 -172.37891 -174.59618 -174.87472 -172.02675 -174.42388 -169.61849 -180.70547 -174.33915 -170.38697 -177.85538 -172.24459 -175.49782 -175.89333 -174.91539 -172.84911 -174.73928 -170.99410 -173.17665 -180.04246 -170.12029 -174.32595 -173.05973 -172.04821 -171.93769 -174.39492 -177.10575 -167.26507 -176.12830 -167.76505 -190.29364 -203.37438 -261.09647 -290.71905 -395.11726 -390.37868 -430.11647 -440.01465 -437.68843
442.65089 436.96620 432.54826 257.21844 234.19900 197.82990 124.45696 87.30171 51.78001 36.70609 19.69492 -4.29386 -21.27155 -45.31070 -50.90274 -70.10524 -67.90911 -56.76566 -44.87097 -26.97150 -33.82033 -43.48043 -50.49943 -57.91282 -62.96162 -57.99780 -38.92452 -7.43176 -9.98136 -4.58513 -13.61008 -32.04271 -27.19598 -7.58754 -9.78885 -10.83564 -11.50578 -1.42097 22.62898 47.70659 52.61359 22.66628 -6.69976 -9.72454 -22.50670 -23.69645 -28.55058 -30.57483 -33.80559 -46.74589 -41.36258 -56.67640 -63.60617 -65.91042 -64.53874 -75.19500 -71.36281 -79.81811 -76.64020 -82.07296 -90.08587 -87.77626 -86.17857 -77.84022 -74.05291 -85.53663 -96.05698 -107.01557 -105.50734 -122.25680 -120.46722 -126.78357 -134.30575 -142.26791 -149.86147 -147.98008 -141.15104 -153.67230 -150.21880 -147.96126 -146.10256 -145.25599 -146.37692 -140.14525 -142.09969 -142.96671 -153.00082 -161.34189 -165.00555 -166.34503 -159.09265 -169.82894 -171.33662 -169.41073 -171.80320 -171.37628 -167.93196 -171.22706 -170.31867 -167.42396 -174.55059 -168.72188 -168.40333 -166.95933 -171.38222 -167.29871 -171.43623 -172.47688 -168.95759 -177.93612 -175.45818 -179.85041 -173.23918 -175.48590 -171.83529 -172.91713 -173.57721 -172.43542 -179.05109 -170.71212 -175.27990 -172.03633 -166.58875 -170.29855 -177.10146 -170.16615 -175.12359 -174.53812 -190.89507 -208.12801 -229.58738 -320.59724 -340.20559 -391.06310 -384.07201 -383.55360
410.06826 415.39661 329.62104 283.64167 239.28550 174.61713 91.92641 49.34775 46.13118 30.11609 7.05514 1.21624 -15.09351 -31.11120 -50.34721 -63.14557 -65.07004 -65.39427 -65.66917 -54.61772 -63.46525 -55.16550 -60.64885 -69.56283 -59.99972 -48.54576 -29.01816 -9.52200 1.57843 -15.66571 -32.53622 -39.95880 -32.11884 -21.14724 -27.12654 -30.76757 -33.82556 -17.52902 19.74665 34.67241 47.96457 33.14790 3.66545 1.19162 -14.71114 -14.91278 -27.83856 -29.70778 -39.87656 -38.02463 -50.81133 -58.14043 -72.75048 -73.89406 -77.51231 -77.55597 -86.05130 -88.46155 -94.79915 -91.73021 -93.69199 -92.86051 -84.69808 -71.55718 -73.33118 -78.98194 -99.39225 -110.93520 -119.43449 -128.76871 -130.57867 -132.35700 -136.62344 -137.71922 -132.63079 -142.26444 -140.34814 -140.76353 -142.77503 -143.85877 -146.41976 -143.15870 -144.88053 -151.81091 -146.75453 -156.91133 -162.18692 -164.37964 -169.13614 -173.69453 -169.71532 -170.87543 -174.85030 -166.93329 -167.87871 -160.51174 -164.70805 -166.18431 -170.88798 -168.41939 -169.92304 -173.67595 -168.95095 -165.93026 -169.41910 -176.57640 -170.05861 -174.83083 -172.73993 -174.14889 -176.26408 -172.65025 -174.73183 -176.79766 -179.32006 -176.15276 -178.97247 -174.30828 -174.33586 -167.74185 -165.05699 -169.45474 -173.01443 -173.23708 -165.49757 -171.21862 -177.81749 -171.57509 -169.24981 -178.72799 -182.55458 -239.41848 -270.25918 -301.39487 -333.83168 -327.57671
407.98412 405.95441 321.16538 230.39642 217.84914 133.88428 39.57336 13.57895 -8.39506 -2.12564 0.71064 -19.08577 -25.80040 -51.75944 -38.32936 -49.88947 -61.09407 -74.16736 -74.92530 -76.79564 -67.95010 -77.13924 -80.21987 -78.25473 -58.17155 -55.28317 -33.73780 -13.76408 -12.82270 -20.60635 -34.72495 -56.86041 -57.56228 -43.72082 -45.26956 -39.12193 -21.27522 -19.67280 19.66773 44.73176 44.28227 34.06828 8.57819 -7.11270 -19.22119 -24.88235 -29.44073 -33.61863 -41.46713 -46.38864 -47.30578 -66.95592 -73.59303 -79.27558 -84.94823 -77.81510 -72.52536 -84.99936 -85.31992 -93.26665 -102.13787 -100.91893 -94.11801 -75.09858 -72.77732 -83.85021 -94.96894 -100.87906 -109.66051 -119.54017 -119.21336 -129.86217 -123.54134 -135.41680 -132.77983 -129.89751 -137.29044 -139.55981 -140.37386 -152.21372 -155.86500 -144.05645 -144.07061 -153.49043 -159.10564 -161.44448 -164.66484 -161.71315 -170.70828 -172.84378 -170.78100 -170.24806 -179.04829 -167.65350 -166.21291 -165.42708 -165.25800 -166.14015 -165.04828 -169.40479 -173.56160 -171.93536 -170.00034 -169.08496 -169.79316 -173.79435 -172.16861 -170.93342 -174.35400 -177.81594 -171.92980 -171.20043 -174.33376 -180.40489 -176.39638 -171.40173 -178.42682 -170.25197 -166.52706 -165.32779 -163.05567 -165.01828 -167.91310 -166.16188 -168.61921 -170.94259 -167.53447 -172.89543 -172.73035 -168.68350 -173.80153 -187.15637 -200.63333 -245.60594 -285.93102 -283.45525
337.50319 339.17051 281.24490 180.49546 112.32600 66.09176 26.02740 6.73903 -3.46804 -23.13503 -47.36487 -45.73488 -34.57179 -25.50017 -19.24710 -28.51692 -53.23616 -73.24018 -78.68293 -74.85839 -77.40269 -79.79707 -87.07212 -73.24160 -78.25145 -59.73810 -57.21595 -30.64630 -33.20944 -34.99408 -50.54620 -58.84377 -62.40690 -51.83875 -58.59506 -40.56849 -19.50267 10.40482 13.35261 26.41458 25.58987 0.44603 -4.50382 -19.22972 -24.94117 -38.29343 -41.63464 -42.50237 -48.24343 -40.28986 -58.67561 -65.62221 -65.59536 -60.91718 -70.01127 -69.43591 -71.71213 -65.53952 -73.20362 -82.68081 -99.44428 -108.84770 -104.09824 -89.24077 -77.25033 -81.50584 -90.23363 -98.10232 -106.14004 -110.23641 -109.55054 -117.48387 -116.13222 -117.66202 -123.98627 -130.04877 -134.49301 -131.93615 -143.77360 -149.19959 -161.88327 -157.99077 -150.45074 -158.19885 -161.73936 -168.22578 -170.01422 -173.30040 -173.88392 -171.70034 -172.90938 -173.90632 -169.53951 -169.24794 -156.51207 -162.47038 -167.39180 -166.90695 -159.99909 -171.58608 -166.02967 -175.26683 -169.95682 -170.80653 -173.39183 -171.36570 -174.10834 -179.96062 -178.62750 -174.47203 -174.54737 -175.42512 -175.49204 -178.21181 -174.11855 -175.58587 -174.11026 -172.93062 -167.59849 -164.54863 -166.34579 -152.63618 -149.37022 -157.41237 -161.04195 -164.84230 -161.31274 -172.80655 -176.27320 -179.04931 -177.62674 -182.17185 -182.06963 -221.76735 -213.58413 -214.40962
285.37174 285.57082 253.34545 187.33986 116.61761 68.55786 27.01170 38.29772 16.46904 -14.79749 -46.37741 -44.87932 -31.03197 -13.97121 3.14228 -27.65277 -45.42042 -56.34494 -52.05183 -49.07193 -67.80323 -73.09066 -81.94349 -82.86967 -77.78577 -65.92178 -69.56630 -75.23699 -52.20935 -54.55637 -61.22520 -63.71293 -66.30321 -70.21405 -66.27376 -54.94786 -14.32060 -5.81103 3.28960 13.34354 15.49518 -3.79918 -21.35821 -25.14997 -39.59534 -39.91519 -47.06607 -44.29022 -47.38086 -54.73421 -61.31689 -56.54886 -59.29263 -44.72966 -56.79348 -59.97515 -59.41516 -66.74973 -63.29711 -76.61451 -91.74846 -104.80708 -117.50393 -98.81687 -83.03659 -80.68210 -89.91346 -97.75933 -96.95135 -99.50367 -111.05735 -106.36504 -110.75155 -116.34047 -120.88352 -130.34353 -135.16074 -139.51761 -144.35979 -151.70237 -155.08108 -163.10758 -160.89720 -164.69473 -167.74272 -167.46471 -169.89345 -170.77378 -167.77234 -173.16705 -168.99274 -165.35570 -163.03464 -165.81230 -156.34670 -162.22783 -163.07899 -159.64775 -160.19371 -167.34823 -163.85946 -164.60108 -175.18058 -170.04213 -170.72713 -166.21542 -170.34676 -175.54081 -172.51678 -177.15884 -172.77826 -169.53369 -171.75124 -171.19826 -169.76384 -170.28735 -170.46050 -177.58410 -171.29689 -160.07317 -163.67142 -150.54937 -151.70565 -152.06433 -152.94669 -161.71608 -164.29765 -167.42240 -170.15097 -173.47473 -175.16509 -175.85369 -179.71906 -188.32424 -215.46785 -215.29956
214.46273 221.23844 252.02802 155.11307 146.54299 106.32125 84.69505 76.50870 58.67128 -2.09171 -46.02418 -28.75412 5.82538 26.48298 18.61925 2.01732 -31.03178 -41.47357 -23.35893 -29.57697 -35.82179 -53.51172 -80.83985 -92.00660 -95.24982 -86.08660 -101.59238 -88.30169 -79.20366 -66.05787 -69.47661 -74.12252 -74.92773 -67.41599 -75.03112 -68.09362 -36.50312 -9.36647 -4.96126 8.04281 4.11991 -7.93936 -22.39327 -32.56786 -36.75862 -42.67096 -47.44849 -45.37661 -48.01269 -53.07827 -50.24720 -47.04358 -45.31805 -41.39547 -49.95158 -58.33240 -62.31252 -63.33924 -65.84930 -76.12346 -87.69895 -92.65101 -110.11640 -111.59289 -91.92129 -90.71756 -84.47321 -91.77316 -92.20317 -105.62314 -111.74768 -109.15587 -107.75700 -113.75295 -116.31944 -128.08560 -130.24888 -138.51080 -144.20868 -149.85527 -157.71081 -158.22793 -162.82323 -165.33770 -168.55813 -163.73564 -162.39347 -164.90098 -168.58775 -169.84838 -163.74655 -160.32173 -161.95251 -159.60597 -157.97793 -159.81039 -153.22839 -157.10601 -159.00178 -162.39703 -171.78069 -173.26363 -176.86295 -173.12239 -172.93827 -179.03720 -176.12003 -174.20009 -172.86659 -172.34370 -176.73864 -174.75177 -167.63156 -175.21529 -167.66028 -171.96216 -167.85256 -174.38300 -171.75717 -171.28215 -161.37333 -153.50415 -150.93992 -149.18410 -154.33921 -154.39805 -160.08531 -164.04461 -163.94632 -173.61867 -173.86019 -180.13601 -179.17126 -188.23175 -181.18615 -174.70301
267.43076 271.94384 223.03110 184.54711 148.93101 162.20478 132.59844 102.45254 91.97800 41.73372 -2.12727 -5.90209 14.27868 29.94897 21.18751 8.23669 -18.36627 -46.94874 -17.50270 -9.58850 -24.39546 -52.78985 -59.22624 -79.67411 -88.66890 -99.03232 -96.27506 -88.50900 -91.21126 -82.60439 -78.04482 -70.94585 -80.33700 -86.75074 -76.51744 -78.09461 -43.62063 -23.97012 -10.04781 -1.60620 1.82882 -10.49892 -17.57878 -36.79900 -30.88833 -39.32888 -37.41088 -33.70184 -36.18645 -42.20544 -43.58631 -43.50157 -40.79402 -44.27292 -41.30207 -59.87819 -59.61006 -75.13080 -78.42353 -85.87612 -80.29523 -79.36184 -92.16625 -110.76341 -119.02274 -96.90172 -89.02954 -88.35951 -92.63938 -92.80036 -104.14067 -111.07406 -113.95875 -112.55215 -119.11980 -130.32189 -139.57980 -140.05913 -148.77084 -141.75763 -153.29614 -157.63439 -166.62984 -162.27139 -153.80770 -156.51362 -159.71333 -166.97843 -167.01420 -160.19507 -168.02065 -160.85995 -155.62682 -151.77795 -153.77901 -158.12363 -153.83106 -157.83439 -158.73810 -168.38920 -173.73434 -172.57253 -173.04572 -176.23472 -176.63727 -172.40852 -171.56107 -179.36805 -172.88917 -174.17662 -166.00468 -171.69800 -175.38209 -172.83849 -173.75591 -171.36865 -166.01252 -164.43929 -165.42677 -166.20679 -155.68567 -156.56148 -154.24531 -150.16403 -149.41386 -155.35455 -162.13744 -168.21525 -172.69789 -179.41684 -175.31033 -175.17898 -173.72122 -175.19856 -174.02397 -171.21922
271.10720 268.86508 227.49361 186.97535 170.47299 163.97268 137.46532 125.85728 79.94017 83.54255 17.99388 7.18715 11.50815 29.84430 11.74638 -0.84145 -34.83115 -24.74639 -6.44247 10.46130 -11.96806 -30.04208 -53.54886 -64.80255 -68.98759 -83.71993 -91.56057 -101.57598 -101.96923 -102.42177 -96.24064 -89.63587 -92.55684 -96.06849 -86.33228 -71.77325 -48.18147 -29.08063 -6.88533 15.17715 6.03038 5.59405 -11.83109 -16.47801 -25.96282 -16.05568 -16.56542 -19.57921 -24.04503 -26.75205 -34.20916 -38.71568 -36.78089 -47.83859 -57.67152 -62.22600 -75.07630 -78.18120 -92.38883 -89.64826 -78.26228 -83.80879 -90.65579 -114.68194 -127.09505 -105.77925 -100.36972 -87.70496 -95.14502 -95.24573 -101.85262 -107.24359 -111.54690 -126.11677 -124.07179 -129.54613 -140.84493 -142.65271 -147.52663 -142.21595 -145.06285 -155.11349 -157.62133 -152.36770 -150.97516 -153.28489 -161.43457 -165.47638 -170.03833 -167.75370 -159.60411 -163.17066 -153.52464 -148.87206 -148.33084 -154.32804 -160.06548 -162.64075 -166.95739 -173.97421 -170.85155 -174.71127 -173.47931 -172.93950 -174.47013 -172.91280 -170.02335 -176.83961 -176.12573 -169.98198 -168.69887 -166.64528 -170.13691 -174.76780 -170.51681 -170.82566 -164.37662 -169.06923 -168.27390 -164.38497 -160.17828 -150.32788 -147.86937 -148.21585 -152.39727 -150.35647 -164.90103 -168.61021 -174.16690 -175.11381 -176.68068 -178.00075 -178.10943 -176.43169 -172.66138 -175.78384
244.85988 244.51881 218.63902 168.18985 169.10573 165.53726 176.84696 147.66412 140.98819 96.57729 54.09023 28.80320 51.91943 21.08781 5.89560 -22.64502 -28.09924 -22.39769 23.13295 28.48551 4.26149 -19.65310 -39.64791 -62.48453 -68.25039 -68.54099 -86.20931 -78.66914 -93.34667 -109.15007 -102.49434 -100.18008 -104.24396 -90.91574 -87.62764 -53.73055 -33.12857 -18.70569 -13.25204 8.95700 17.19112 10.04010 9.32077 -6.56643 -4.13243 4.35780 5.00050 -7.71151 -30.76632 -24.25161 -29.58998 -31.91152 -45.74803 -61.43729 -70.65881 -83.65899 -76.37961 -96.15056 -102.78929 -102.13225 -98.96402 -84.53617 -94.01181 -122.46743 -128.55012 -116.43761 -94.85395 -89.84944 -89.36084 -86.28574 -96.52308 -96.95623 -114.12619 -113.25240 -115.88769 -125.80908 -129.48000 -138.22512 -132.94445 -134.00271 -143.17091 -143.74443 -144.13087 -146.65378 -146.22418 -147.74616 -156.38354 -164.45710 -169.12151 -156.11776 -157.03170 -155.24497 -153.80687 -144.59672 -145.94819 -161.07530 -158.48072 -170.22613 -166.18806 -169.41236 -166.64582 -170.24398 -169.73076 -173.10590 -172.55889 -172.54365 -170.84571 -172.00657 -168.27239 -171.85887 -170.48747 -159.78790 -165.88838 -172.78538 -173.55493 -172.22438 -177.13594 -172.56948 -166.02742 -155.40509 -157.18954 -154.90200 -152.66519 -146.81937 -153.42984 -150.46602 -159.82963 -170.41088 -172.77477 -172.15173 -176.73428 -178.40115 -177.13730 -169.14582 -174.06165 -170.03006
238.01224 243.09549 208.62514 182.19394 166.97450 168.71358 175.25202 165.09293 177.54701 127.47774 91.75354 87.57024 70.23135 53.22046 10.64846 -1.41842 -13.42511 13.22065 48.94506 51.85987 35.02425 -3.10253 -20.49451 -38.20841 -47.31380 -69.01996 -61.65043 -73.43076 -90.21894 -107.42054 -116.43697 -112.10933 -100.39017 -82.19799 -73.47211 -52.15112 -18.84177 -20.29990 -14.91765 -3.93818 6.53735 12.51842 2.70169 -7.14867 -2.29149 6.63302 7.13402 1.00547 -17.51583 -26.89708 -30.12276 -34.05986 -46.17489 -68.50926 -82.59315 -76.36381 -89.75357 -96.01608 -111.64681 -114.49412 -115.90093 -103.35833 -106.25892 -128.77514 -127.38631 -122.99405 -95.18833 -91.54209 -92.08911 -90.37569 -87.27071 -89.27944 -98.90997 -106.87316 -113.34316 -121.89323 -124.26591 -129.16344 -131.73298 -125.10248 -130.06913 -135.98863 -145.85354 -142.21640 -144.43501 -152.97347 -161.79039 -159.77395 -164.27983 -151.71770 -151.27562 -151.94274 -145.36528 -146.62962 -154.95345 -162.16116 -160.35968 -169.31051 -165.69934 -170.61909 -165.89036 -161.83531 -171.97674 -175.94228 -170.57577 -166.62439 -169.63472 -170.03575 -169.78285 -170.17887 -159.31436 -170.19173 -172.23848 -169.78320 -168.39362 -168.54429 -169.31005 -168.35591 -165.46356 -160.08519 -152.37643 -153.08391 -141.20504 -143.39972 -143.36725 -157.21597 -154.03857 -163.44275 -170.89361 -169.46950 -173.85533 -178.61610 -176.15559 -174.81810 -166.66300 -173.52151
233.54130 233.50816 227.78418 164.62681 165.18986 167.05650 176.68147 184.69525 164.27006 134.43909 109.53613 115.60855 87.39552 58.12355 26.30551 8.28207 6.03399 54.25384 96.56298 96.27626 66.86695 34.85833 -20.15217 -13.29954 -30.66964 -43.25760 -62.41544 -66.70408 -84.03958 -112.26440 -119.96156 -125.31518 -106.21015 -89.13277 -75.73703 -46.82770 -35.13045 -14.14972 -7.26990 -13.22825 -3.51915 -5.78075 -12.66633 -9.78139 -10.81036 -1.64550 1.89736 -6.42789 -22.63161 -25.87740 -27.67970 -28.61300 -35.66679 -59.32430 -64.49052 -84.27579 -94.42663 -104.77835 -108.96007 -121.09942 -129.75778 -117.93241 -126.71977 -133.23807 -131.57435 -117.17067 -119.01358 -100.64165 -96.09952 -84.19384 -82.49350 -88.85968 -90.73330 -96.97279 -104.15640 -111.83027 -116.93988 -119.11406 -124.48223 -130.22360 -129.32920 -139.03558 -141.84753 -145.00267 -151.84575 -156.38206 -161.76234 -158.27449 -164.23922 -159.84849 -140.33441 -147.46333 -146.46821 -143.81205 -148.79527 -159.01333 -158.93230 -159.50453 -157.55382 -158.20070 -161.69529 -173.34338 -169.43541 -166.94299 -169.24260 -167.10369 -168.84245 -166.85953 -163.61447 -163.88781 -160.42556 -167.89152 -165.83334 -164.57239 -164.70197 -160.82785 -162.03127 -159.73201 -160.33359 -156.79204 -156.23729 -151.64208 -145.03702 -137.39286 -144.01701 -147.52201 -157.32505 -161.57942 -161.97289 -173.45400 -166.22817 -167.09273 -173.57322 -167.12694 -171.96081 -174.03930
208.43313 212.55630 195.61435 170.58452 167.53119 171.17229 175.69348 175.67010 152.82862 141.69556 131.06951 140.96292 113.98489 113.59605 103.65166 58.30134 62.27483 62.05933 127.80964 136.44569 102.78950 83.78527 33.86122 15.84798 -18.37008 -35.54614 -51.21144 -68.83949 -91.92646 -111.79466 -115.04781 -116.83397 -122.49894 -99.39510 -82.59865 -57.96871 -38.04242 -20.91894 -16.34927 -27.93452 -52.88834 -29.97594 -32.14218 -31.22822 -16.96052 -24.77778 -14.88553 -22.56086 -31.32776 -31.65512 -24.98890 -27.01174 -33.34486 -41.49529 -60.99165 -75.37912 -81.14773 -98.28440 -104.43853 -114.23110 -128.50811 -134.70003 -128.43297 -144.82947 -129.18993 -121.41013 -128.90271 -117.63937 -101.22009 -90.10056 -84.03611 -83.09001 -88.57123 -91.30468 -94.50611 -105.85158 -111.74722 -119.13502 -117.85113 -122.22732 -128.47290 -133.46268 -150.27275 -154.98526 -148.82441 -157.76271 -163.18587 -158.04306 -161.83247 -148.31693 -148.80468 -138.11331 -141.00305 -142.89420 -149.83827 -153.53812 -156.25957 -150.36248 -157.42096 -156.32028 -159.74011 -161.80754 -172.52094 -169.81989 -168.99923 -172.72873 -163.02936 -166.03034 -169.33804 -162.55797 -155.80815 -158.46504 -160.09379 -161.68262 -164.34319 -155.92791 -162.03300 -161.14294 -155.78111 -158.49342 -153.75716 -147.35597 -139.45525 -144.01311 -146.21694 -142.96948 -149.79585 -160.67363 -160.81103 -164.24539 -169.95391 -170.03709 -171.66685 -171.63661 -165.64841 -166.23486
207.29192 203.77545 185.47916 168.49406 165.00163 174.49268 172.63970 184.56180 160.26816 154.65057 145.08253 153.95555 150.81723 149.97529 124.82126 107.66102 92.36400 132.64768 143.85717 141.15070 138.79669 100.91582 61.10281 21.39676 -33.29891 -37.85082 -60.14868 -80.86771 -91.49122 -97.07469 -100.89363 -108.46332 -123.61133 -116.32466 -106.44733 -62.19460 -46.45964 -30.50493 -37.98401 -57.76026 -62.34462 -53.33997 -51.09624 -35.53256 -50.77294 -47.64497 -33.45490 -36.18624 -45.16300 -39.50342 -40.99212 -34.59968 -27.96159 -40.33463 -56.76846 -62.49917 -76.90679 -82.41648 -91.54628 -101.04687 -109.11466 -133.06855 -134.07222 -131.15332 -134.84793 -131.52818 -130.32299 -131.22084 -108.78807 -104.69689 -86.05690 -89.71101 -93.27905 -87.24189 -94.85101 -101.60834 -102.30301 -112.49547 -121.23947 -126.49787 -132.85966 -136.77367 -147.39960 -146.69741 -152.31046 -146.01990 -160.19178 -156.58438 -160.42837 -150.42699 -151.27731 -140.97352 -138.40340 -143.54192 -138.88939 -154.15450 -156.58903 -150.29675 -148.86023 -154.77916 -163.20157 -170.77514 -170.06381 -170.13464 -168.05245 -167.25077 -161.81105 -163.81288 -162.14240 -159.24090 -156.50681 -155.42803 -155.28378 -150.35886 -155.40692 -158.73261 -152.94902 -159.98235 -153.26683 -155.62957 -149.92584 -142.69870 -146.31330 -139.31773 -141.95708 -142.29172 -148.40676 -150.14221 -152.82138 -157.73723 -162.63787 -161.71004 -166.68992 -165.82305 -150.06698 -157.12565
188.35659 192.90436 191.84361 159.22289 162.93564 172.38899 182.19604 176.37017 178.24265 165.66605 162.71942 156.41894 152.58390 167.37084 165.86553 144.73486 141.13713 157.37347 160.99624 148.94952 136.83976 97.21514 41.45142 15.27220 -34.09544 -46.85601 -57.96142 -76.45211 -80.02190 -73.66324 -76.14148 -99.08934 -121.27798 -115.23718 -100.73576 -76.42222 -65.33569 -58.64186 -64.07263 -72.30375 -80.66490 -70.64399 -69.05293 -73.87302 -70.05983 -71.98191 -41.90710 -50.18878 -45.55241 -54.59764 -46.96944 -48.38562 -43.83362 -40.83599 -45.73829 -57.45950 -68.89612 -76.20196 -81.36211 -88.62031 -100.16389 -112.94457 -114.92430 -131.61728 -132.57781 -147.72580 -134.12527 -132.75967 -120.69393 -103.33138 -86.19627 -85.23030 -92.55786 -87.82694 -93.21404 -99.28972 -105.09907 -113.39976 -120.89644 -128.56626 -131.43184 -140.82734 -139.77279 -142.97085 -142.36466 -141.25258 -147.40631 -153.96591 -150.24113 -146.30426 -137.59775 -136.26831 -139.21893 -140.10186 -137.25251 -139.99307 -144.05602 -151.09273 -153.74075 -156.93475 -166.59797 -170.52030 -167.91862 -170.21456 -162.90944 -163.83466 -162.67835 -157.45832 -155.16850 -157.00838 -148.62216 -156.84563 -157.40421 -150.86848 -150.95681 -161.95821 -158.12320 -153.56322 -156.67083 -157.40746 -163.45622 -154.71725 -152.53210 -156.13771 -147.47497 -145.41109 -141.84774 -149.66480 -148.87308 -151.55385 -150.06342 -161.16988 -161.43895 -151.27205 -152.65676 -148.29771
184.30405 181.67958 174.63332 168.10317 163.18394 167.18766 172.55116 176.38118 177.98821 165.91187 164.20916 159.52087 172.80626 174.72669 169.88669 162.05508 159.02515 170.56154 167.10076 141.17271 123.79548 70.86059 42.45820 -7.91456 -28.83068 -39.85548 -62.11091 -68.29947 -65.23517 -60.40199 -76.54785 -94.23596 -105.62269 -114.40845 -90.96602 -96.09548 -76.32296 -75.84580 -88.46526 -95.65327 -91.92143 -86.10709 -85.25552 -98.05374 -85.40132 -68.69908 -41.78269 -45.25944 -42.73796 -51.88425 -60.80940 -63.16104 -66.07755 -57.48621 -51.65752 -59.78575 -67.34845 -68.24011 -71.42959 -89.71935 -93.34530 -105.29223 -110.49160 -119.13450 -133.08185 -148.47889 -135.66395 -124.72752 -119.70961 -103.47343 -96.81320 -97.42917 -95.07534 -84.41970 -97.73400 -110.89243 -107.72843 -117.53650 -127.38934 -132.48463 -133.58411 -137.90329 -133.26113 -131.56175 -131.73530 -144.01062 -142.43705 -143.00367 -144.69566 -138.44676 -128.12246 -132.53228 -139.08100 -131.51023 -138.66555 -139.42941 -138.36626 -150.97386 -155.63552 -163.10271 -161.59389 -169.39570 -172.25090 -159.67843 -168.01662 -164.27967 -157.75475 -156.34908 -151.08878 -152.99260 -149.50966 -155.00337 -148.45997 -152.00800 -160.12131 -155.13289 -156.04848 -160.93461 -159.25018 -159.36156 -155.47360 -154.57188 -152.07502 -155.48718 -153.23121 -153.61972 -144.16095 -145.58284 -140.34344 -144.80982 -148.13440 -153.67894 -154.61727 -147.91947 -142.34144 -143.74994
181.40168 183.39594 174.32396 165.58486 161.53317 161.86822 171.11519 166.85871 165.85596 158.42776 161.67297 168.40981 172.79783 188.16022 192.39280 180.79112 185.26611 173.38134 167.51577 142.46378 102.26025 77.14559 55.39681 28.73635 -18.42636 -41.73194 -40.28103 -45.38719 -58.03218 -56.35179 -76.83407 -93.62639 -119.56256 -124.80807 -113.14209 -99.42209 -103.93092 -96.94240 -113.00816 -102.86675 -95.82492 -105.13655 -100.67247 -105.86371 -83.83403 -68.89413 -57.44730 -51.40966 -45.73640 -54.01848 -65.08362 -67.90804 -74.00541 -64.96818 -58.60148 -61.35116 -70.68453 -75.39839 -77.88499 -97.12008 -94.19638 -103.71101 -130.60057 -141.22893 -143.27425 -152.60293 -145.75058 -121.56890 -117.66982 -108.36260 -100.51166 -93.58783 -104.62082 -103.42312 -105.86682 -113.56697 -113.78809 -116.10281 -124.02392 -124.93995 -125.78171 -129.12077 -126.29588 -122.47723 -121.44516 -128.38669 -127.04309 -133.62875 -134.71220 -129.93051 -127.36764 -136.00131 -135.62041 -140.38182 -140.64675 -140.00831 -142.71896 -149.93728 -159.88772 -156.16320 -160.22886 -153.33011 -161.86644 -164.04787 -154.33304 -157.46360 -152.13446 -146.91846 -147.52638 -153.36278 -147.94025 -148.74866 -152.79956 -160.12849 -154.25975 -156.31745 -156.77263 -161.79714 -166.39764 -165.52633 -162.02217 -160.48413 -164.71505 -164.35645 -153.78342 -155.15346 -147.39032 -147.48005 -142.69619 -143.83778 -143.48897 -145.83822 -151.72547 -148.93037 -146.77828 -138.67738
192.09614 189.92492 186.94781 160.17283 159.63516 162.95692 163.85319 158.80393 161.43706 166.43611 167.74526 166.63731 183.36122 188.07457 172.14842 180.86150 169.69275 169.27874 161.79950 139.48229 109.44542 90.16468 78.01896 36.81480 4.73897 -25.85648 -38.22416 -53.77542 -60.67035 -73.61584 -90.00435 -113.71615 -122.73135 -128.75967 -126.47090 -120.88677 -127.13099 -127.44245 -115.72221 -114.40731 -107.86627 -113.50582 -121.79180 -120.05398 -103.04823 -83.52663 -70.28404 -58.41261 -47.86916 -52.10979 -59.13342 -73.15958 -71.78513 -78.88434 -81.09968 -75.34154 -75.39782 -91.90054 -89.21693 -88.94660 -102.23879 -118.28707 -129.01472 -148.78737 -151.79696 -150.61942 -139.46441 -119.26109 -111.89077 -111.53004 -119.85427 -125.63880 -120.91960 -117.88418 -122.19341 -119.71298 -119.21197 -122.98265 -119.28585 -117.40347 -124.22198 -122.14146 -118.79245 -121.26408 -118.72765 -116.12716 -126.91484 -131.45598 -134.97959 -130.40023 -130.99517 -138.51795 -141.98345 -138.80113 -147.28567 -136.86916 -140.95004 -144.85419 -150.95130 -154.38701 -154.62577 -150.31480 -150.33718 -154.52172 -151.14559 -150.83720 -141.44792 -146.89683 -150.89416 -150.17221 -156.65256 -157.66310 -160.57064 -165.98841 -166.86137 -163.38733 -161.55931 -167.28355 -165.54067 -165.83993 -163.05063 -164.00548 -164.49672 -165.85531 -158.01120 -159.31665 -156.35344 -150.19274 -144.10985 -143.08219 -142.33838 -148.56439 -151.56574 -153.96238 -147.97230 -146.81173
184.46477 186.82371 177.30081 154.92047 161.78907 164.05395 166.04665 165.70404 163.14787 156.59520 157.72644 167.32061 181.93814 183.31699 173.56717 161.10887 162.29987 163.79951 134.82163 111.32151 74.23531 87.23691 94.76722 50.92202 21.50718 -20.00231 -58.39513 -85.20231 -91.15750 -102.39656 -112.74715 -116.91368 -122.27690 -109.79538 -116.32599 -132.22467 -134.18411 -137.14844 -137.01603 -117.66918 -112.80336 -115.51866 -122.94662 -121.15296 -120.21706 -87.17725 -79.97064 -55.09812 -50.62289 -58.42479 -70.42264 -66.35702 -77.78515 -74.11480 -78.36159 -83.54886 -85.84285 -96.27459 -101.23749 -99.68475 -106.69100 -120.10517 -134.82504 -139.53879 -146.91813 -148.30780 -135.05404 -122.56173 -119.71113 -130.21910 -135.79109 -143.15851 -130.47343 -118.66938 -126.19216 -129.80943 -123.36756 -114.65685 -120.22793 -118.62881 -126.00455 -116.23611 -123.22802 -120.80020 -115.85039 -118.35872 -120.85807 -129.92157 -123.52918 -132.39561 -137.18258 -138.88340 -140.07270 -147.73974 -135.92355 -144.55233 -145.76971 -148.13792 -154.23730 -156.17082 -145.48837 -154.00747 -155.05082 -148.39309 -151.07112 -141.17771 -147.75584 -151.30764 -143.46788 -146.90521 -156.75311 -164.27977 -162.87219 -168.62748 -169.45724 -166.29626 -165.79339 -169.26408 -171.31156 -169.77171 -167.99236 -170.49422 -168.09042 -167.14480 -163.81988 -161.78343 -159.17638 -148.18475 -145.89718 -144.91570 -151.55859 -148.56973 -152.70845 -155.33778 -156.67086 -153.50384
190.82946 185.96792 173.69120 163.71193 161.26357 165.43210 167.24465 164.08537 161.94844 162.04976 158.38569 173.26592 185.40890 177.37597 158.47337 152.68934 153.39583 146.67874 131.12138 104.53845 67.28975 61.62481 67.40875 53.18845 26.93362 -14.00839 -72.38156 -103.66651 -93.75695 -84.49297 -88.68563 -94.52334 -95.84671 -94.48380 -106.29652 -120.09726 -126.27611 -130.17278 -140.83969 -125.28965 -106.27745 -109.17411 -123.72705 -140.22681 -143.00810 -124.71559 -71.35196 -67.14631 -49.46033 -74.32928 -82.37781 -81.68985 -75.24668 -78.14117 -85.62034 -88.70106 -95.65923 -109.14309 -108.56840 -106.43175 -108.19688 -123.11992 -128.75241 -132.98761 -124.26685 -142.87976 -140.81093 -145.11478 -136.22340 -137.53179 -151.75981 -141.18622 -140.42977 -135.76295 -144.47116 -140.46556 -128.48771 -132.30800 -128.57794 -138.33890 -123.36499 -128.49025 -125.85152 -115.98189 -115.55369 -114.42365 -113.31912 -115.71342 -125.66158 -134.56103 -141.65974 -149.48445 -148.77484 -147.00691 -151.41595 -143.74678 -148.72373 -146.08358 -148.84851 -151.84388 -156.75487 -152.89534 -152.77414 -150.19532 -149.28830 -151.23729 -145.48621 -144.63610 -153.74607 -147.42185 -159.23797 -163.67376 -163.74960 -169.97110 -169.21862 -170.94333 -169.79437 -172.32170 -172.03231 -173.52516 -172.26963 -173.16409 -169.15887 -169.11936 -171.00078 -159.17406 -156.22040 -148.88917 -152.57220 -153.97859 -157.28012 -156.47191 -162.13376 -154.55011 -163.00428 -161.29305
192.95011 198.28561 190.22629 159.91294 158.79422 162.86076 157.40454 162.86564 156.01387 156.47003 164.24049 174.28138 175.56604 175.71433 153.33638 149.16819 148.61590 129.31705 93.94383 82.19100 35.75779 23.92844 46.18177 44.17970 -0.53232 -60.41693 -77.12451 -78.42031 -57.93999 -69.07967 -74.04355 -86.71327 -77.44643 -87.76718 -111.07851 -115.02339 -108.24985 -120.14159 -130.64678 -123.89181 -112.77425 -94.21823 -129.00854 -132.94931 -144.39189 -122.26236 -80.00077 -72.61288 -76.01640 -87.22069 -104.00713 -93.24551 -85.63023 -79.83359 -86.89597 -97.77531 -103.63356 -103.91377 -110.09561 -113.85355 -117.31981 -127.97595 -126.69587 -129.52961 -128.43448 -135.48190 -156.49601 -154.36181 -143.85235 -141.88864 -145.52119 -154.54825 -147.02323 -154.24704 -143.50231 -150.03353 -145.88406 -146.84147 -147.28101 -138.35887 -141.26244 -140.93377 -140.65906 -126.29981 -124.94234 -121.45265 -118.93409 -124.17645 -128.83164 -138.90199 -146.21790 -152.92851 -158.26743 -152.17677 -150.62448 -151.35610 -148.58444 -149.45635 -157.34469 -158.51039 -156.97819 -158.54719 -151.83923 -152.61610 -147.92474 -147.78751 -154.73588 -156.21256 -152.04267 -151.10407 -154.27703 -157.90811 -157.99823 -165.79799 -168.63580 -168.35150 -175.88007 -172.85319 -171.39843 -172.83235 -175.15295 -173.70818 -176.26632 -168.22590 -165.18638 -171.21383 -161.85349 -153.54386 -155.73261 -163.15567 -168.03986 -155.52951 -162.62416 -167.60618 -169.88577 -165.68940
200.24384 195.62479 185.70643 168.09709 167.06975 159.13380 157.64566 154.25340 157.80798 157.47246 163.17903 164.48838 169.42035 167.10593 149.91004 140.94018 135.27751 95.08465 81.05405 54.43569 30.66279 1.14381 -13.39228 0.96895 -44.16684 -56.24985 -62.43223 -49.18259 -43.13959 -56.12159 -65.60735 -76.27179 -88.57297 -95.28565 -109.94894 -104.18018 -102.26339 -104.03451 -131.15450 -136.48080 -121.19993 -121.41988 -124.36777 -134.71475 -156.31580 -129.88661 -116.48228 -85.46605 -91.18766 -107.90913 -113.49356 -96.62251 -84.32565 -81.77769 -106.04827 -102.00454 -109.30579 -104.01528 -108.76191 -114.87146 -118.22176 -118.83339 -117.64149 -122.85329 -119.96130 -134.29667 -151.30335 -154.71132 -156.91985 -157.49039 -149.36946 -155.92297 -164.45684 -162.96892 -164.05738 -161.86153 -157.60562 -161.39893 -152.65576 -154.45411 -149.41531 -141.28633 -146.93935 -140.68101 -134.71216 -127.30289 -123.95857 -129.03712 -121.57073 -137.42756 -148.08350 -153.44744 -158.62464 -157.29159 -156.99712 -150.51668 -148.94368 -156.32988 -160.91380 -168.62978 -167.06323 -163.04176 -155.67616 -153.42829 -154.87352 -157.05774 -154.20750 -158.00879 -156.13502 -159.13779 -158.11400 -156.67889 -161.11696 -161.20757 -170.16143 -172.50437 -175.36533 -176.80859 -174.77516 -170.94592 -171.97684 -173.05667 -172.40525 -170.68463 -169.50193 -164.78721 -158.34921 -161.58470 -164.26439 -164.13032 -164.33196 -171.85647 -171.02919 -173.60105 -173.23810 -173.43160
193.06939 188.29849 179.99590 168.56059 162.65750 156.01183 158.59040 154.47277 157.74390 155.46857 166.93686 176.80815 170.24880 172.59745 149.20351 136.47472 105.90597 86.68892 66.97335 45.06846 14.25470 -32.91230 -34.70977 -35.22249 -51.97726 -39.55157 -22.06578 -10.66269 -37.63044 -39.02837 -74.33051 -81.84198 -98.15215 -87.47793 -95.76333 -85.25275 -83.95795 -92.36948 -126.54862 -140.37881 -141.18935 -129.89007 -118.94718 -142.72946 -146.60417 -137.09768 -118.95571 -122.46941 -118.88878 -119.13430 -116.98816 -103.48566 -92.84572 -99.65649 -112.24559 -119.78478 -110.57850 -103.34478 -110.27829 -109.75656 -121.22965 -111.17841 -107.90455 -108.23894 -111.42677 -123.41774 -149.74303 -145.88247 -145.77923 -138.82557 -141.31444 -146.41327 -150.24326 -160.84275 -162.97616 -160.46781 -161.06131 -155.26572 -160.69712 -163.66776 -155.04189 -153.45343 -152.74796 -144.61959 -137.11579 -137.17672 -133.72998 -126.31863 -124.92735 -138.17109 -143.48574 -149.35251 -158.08053 -164.07801 -162.68111 -158.87491 -153.71221 -162.31051 -166.22303 -168.88558 -167.76859 -165.87005 -156.89388 -162.86969 -158.05164 -159.51953 -164.64513 -160.51081 -156.75484 -162.53942 -157.22991 -164.50384 -158.42738 -159.26780 -163.73688 -171.57094 -173.21321 -178.25276 -175.79719 -168.65051 -179.33445 -175.73547 -176.52114 -167.79172 -168.08847 -168.23494 -161.91485 -160.10640 -159.96193 -170.87432 -167.14452 -169.76420 -172.60691 -167.68450 -170.67654 -168.21194
201.36862 201.89676 191.98366 167.25448 167.17214 158.82010 161.81014 155.12633 158.64432 158.62921 166.35902 171.04731 169.34475 167.32111 146.80845 116.33067 113.07859 76.89940 59.19250 51.37460 6.55930 -19.73435 -21.46812 -41.96005 -26.49460 0.07215 10.10898 0.19755 -35.67630 -45.34446 -68.65288 -89.83309 -102.57946 -89.67091 -68.14457 -57.83629 -64.95471 -89.15234 -111.69674 -124.75909 -130.41105 -125.16616 -131.93899 -140.48915 -158.95085 -148.44390 -149.93336 -151.61810 -152.24688 -141.74972 -135.78927 -113.58649 -93.38572 -119.66256 -130.33397 -139.89475 -129.15735 -112.23569 -97.40717 -98.00798 -98.46929 -103.84767 -97.54449 -107.35729 -109.12328 -125.56903 -141.86295 -140.47635 -136.68514 -129.60228 -132.26142 -130.26755 -143.42157 -159.40369 -165.42208 -165.81395 -154.60101 -159.66804 -155.64692 -170.01095 -163.67100 -159.91772 -158.39223 -151.18614 -144.93835 -144.61007 -136.29894 -134.71426 -130.94410 -132.02760 -149.59042 -150.66488 -157.36191 -162.93133 -168.16406 -161.49478 -163.44433 -163.83451 -174.36915 -170.77840 -168.43553 -166.16792 -163.41042 -164.44476 -167.36424 -166.08753 -165.87004 -166.20453 -161.02370 -160.66880 -159.88839 -160.40790 -161.86796 -162.35296 -160.15906 -172.26213 -172.11452 -169.16740 -177.22889 -178.71487 -178.36181 -170.71507 -170.56831 -173.96260 -165.83529 -171.45221 -158.97510 -164.51221 -162.60993 -171.26169 -173.65746 -167.59859 -177.15914 -173.21079 -169.15288 -170.82650
187.84637 191.05112 184.25653 165.45185 166.20202 163.24092 159.74392 161.82095 159.34353 162.05377 159.61976 167.10830 169.39119 167.02040 144.16565 139.66178 116.45658 68.98238 44.31807 36.27191 28.27953 42.73029 35.38760 8.59733 1.91805 5.08891 10.02968 -17.88526 -26.47153 -50.20665 -69.69304 -92.25868 -90.39245 -87.62015 -56.08902 -49.72022 -65.51921 -67.57018 -96.76560 -104.48624 -104.92755 -109.52574 -119.97604 -132.49022 -151.13218 -150.16451 -158.61040 -151.53840 -159.43104 -151.78288 -149.78904 -118.50509 -117.68345 -120.23073 -142.48712 -142.65990 -126.75700 -100.28023 -95.03257 -84.67092 -89.06369 -91.41694 -96.03635 -100.70752 -109.28317 -118.14913 -121.86612 -125.61302 -121.35393 -118.67363 -118.80451 -130.67135 -129.65326 -153.48880 -147.34840 -150.71344 -147.48519 -147.89747 -160.65158 -149.33339 -158.26612 -167.96121 -162.10250 -157.16349 -151.48825 -149.74080 -141.48565 -138.16193 -136.93334 -140.27499 -144.56585 -153.43293 -160.85325 -161.71012 -169.18468 -170.47530 -170.10136 -165.98300 -164.79685 -165.57352 -173.91881 -165.49662 -167.72450 -168.31001 -162.87542 -169.40694 -171.61034 -162.96093 -162.56955 -158.34488 -158.91532 -167.06318 -166.13077 -158.27860 -162.08974 -169.16690 -166.04464 -165.01681 -175.12439 -178.80613 -177.64601 -180.54612 -174.72950 -171.50482 -168.43692 -168.02020 -164.49612 -168.78696 -169.28144 -172.20611 -172.52269 -171.08950 -170.72000 -172.04256 -172.49158 -171.63558
177.39723 173.70287 172.42007 164.48991 165.55460 152.56293 160.96140 153.46831 161.80306 160.62082 162.23509 159.70059 159.60287 161.62618 159.49187 143.59629 136.66235 105.67786 46.33808 32.00238 61.61102 76.47535 77.86605 55.01910 43.99788 22.81935 10.22903 -11.10068 -37.57475 -64.50189 -73.96972 -85.88755 -69.38161 -53.53821 -25.59536 -33.22752 -46.87415 -61.64398 -85.13782 -99.30089 -104.00190 -100.44549 -120.18135 -137.75929 -143.91997 -141.25117 -141.34052 -153.45687 -148.97251 -148.61058 -157.18309 -151.85315 -131.09041 -142.89553 -150.63466 -144.86675 -138.02611 -111.65765 -103.65129 -92.28160 -93.50745 -85.73927 -87.79011 -97.95693 -99.63450 -104.79104 -118.99959 -122.69222 -131.54472 -128.27026 -115.79955 -134.41715 -140.82891 -153.09510 -147.70210 -135.57997 -134.37550 -144.99076 -144.57611 -151.52045 -163.78234 -162.08271 -164.89797 -161.17841 -158.42543 -149.05501 -143.39705 -138.44376 -140.46315 -143.08699 -145.16255 -152.08929 -164.74228 -166.45688 -163.50786 -175.62772 -168.91416 -165.32596 -166.51317 -166.81915 -170.20647 -168.27406 -169.36929 -169.98057 -168.23911 -167.64458 -168.59530 -166.25757 -164.42569 -162.52454 -160.70962 -163.20787 -164.75014 -166.00496 -161.40213 -165.14029 -168.74724 -171.62380 -168.41136 -167.59160 -176.90468 -175.66293 -175.85362 -178.05401 -175.82412 -165.20427 -168.95203 -172.08641 -168.82788 -169.93393 -168.65863 -171.01311 -173.49170 -174.38428 -169.44011 -176.12630
177.64897 177.16494 173.44150 161.74416 160.95673 162.59195 152.74566 159.57088 155.99935 155.65416 158.24168 159.93880 159.40226 165.58104 157.41610 140.84717 128.65798 104.42076 61.81644 58.90989 70.77503 96.44312 89.01907 68.27544 51.61907 13.61560 -4.20928 -22.13830 -31.36894 -62.86099 -80.60523 -78.32465 -77.58310 -53.56824 -32.98278 -31.55591 -31.72449 -58.56554 -78.08986 -83.72755 -86.38431 -105.65478 -109.34384 -131.62059 -135.37802 -130.24316 -119.11624 -129.65208 -133.60901 -146.65387 -155.44866 -155.30518 -146.99026 -145.87390 -145.79864 -150.18939 -149.56645 -139.57339 -109.28189 -105.96178 -98.88500 -92.94677 -94.10114 -102.94215 -100.77215 -104.95998 -112.88320 -119.41544 -133.76359 -132.35969 -132.64294 -121.12279 -132.91363 -141.10394 -139.13307 -135.22323 -133.51837 -142.81948 -143.65613 -148.44233 -155.02120 -156.83503 -158.46227 -163.27821 -157.86125 -150.13091 -153.81591 -147.90245 -141.96545 -145.45506 -146.54654 -160.34387 -163.73006 -167.40847 -173.77246 -166.46610 -171.55407 -170.64169 -165.60462 -165.28033 -166.35432 -167.45953 -170.17540 -168.68558 -166.16415 -171.43653 -171.22829 -169.50866 -165.33698 -174.56808 -168.74492 -163.12769 -163.97095 -164.21077 -162.70131 -163.71351 -161.82497 -167.45742 -168.55432 -165.66272 -175.27918 -175.75781 -176.61885 -172.33923 -166.45107 -169.23275 -170.95528 -168.56802 -172.50065 -177.54312 -176.63229 -170.50755 -177.71235 -179.23258 -178.64354 -175.98711
177.41610 176.53383 174.04269 160.08417 160.45844 155.58242 158.91617 158.39541 159.61718 154.54553 160.15477 155.77624 162.29466 162.39870 153.07373 137.33625 118.90682 97.91192 88.78673 72.05502 93.20632 119.03221 115.82387 80.80167 56.69864 18.17405 -12.87095 -32.03767 -64.27478 -67.21231 -70.04131 -63.12704 -62.02027 -43.11814 -30.86699 -8.21902 -21.73257 -40.15240 -54.62336 -71.98590 -78.01502 -98.11423 -111.82003 -125.52519 -133.88192 -111.86503 -101.94604 -116.32946 -125.42496 -135.47353 -147.61026 -133.84447 -125.89853 -127.96773 -147.27985 -149.54666 -156.37011 -143.56821 -137.12250 -111.99841 -107.81727 -92.44174 -108.59702 -112.83018 -108.60645 -113.76447 -116.91957 -134.87628 -147.02002 -148.09575 -129.75214 -128.38943 -125.97411 -124.36431 -123.71986 -121.20546 -136.89512 -139.24447 -147.69458 -145.34475 -154.86484 -147.36250 -158.70324 -166.79193 -157.02019 -165.79382 -159.84830 -155.85229 -152.72076 -150.96608 -157.05127 -155.36679 -160.84719 -163.54528 -168.13176 -171.09569 -164.69744 -167.64487 -163.03012 -164.09342 -161.27913 -161.46665 -168.93910 -173.42444 -161.20535 -166.45055 -167.43407 -170.36847 -168.90057 -170.06631 -169.74911 -171.43560 -165.30214 -168.84387 -166.68107 -165.12596 -164.16417 -163.93977 -165.77570 -175.36459 -175.68460 -173.75642 -177.59805 -173.93337 -173.30974 -171.40112 -169.25568 -170.41889 -173.48483 -172.65507 -171.79174 -177.26881 -174.34950 -178.33795 -170.97279 -173.17863
177.76486 170.90835 166.07715 157.59140 156.09472 155.68711 160.94359 153.39370 154.98535 156.51643 154.33214 158.49555 158.24071 163.70534 155.09523 136.19299 126.06238 115.71876 106.17095 106.39447 108.13116 116.99813 109.17490 73.36011 63.00175 39.72217 -2.58757 -35.46722 -33.18609 -64.36263 -62.28495 -46.30433 -21.95874 -24.91935 -13.17001 1.12129 -4.83691 -29.63676 -40.77649 -61.34415 -82.63744 -100.46176 -124.55118 -125.27731 -120.00408 -106.31763 -94.59029 -112.54631 -127.99266 -136.91127 -131.27196 -118.09004 -109.27288 -108.78770 -129.42348 -145.05986 -157.63640 -156.20818 -143.62455 -131.97769 -108.10755 -114.71823 -122.37771 -132.78268 -127.52358 -131.44315 -135.96186 -154.01337 -158.65970 -151.81518 -146.42198 -137.19744 -131.93572 -134.33616 -131.82337 -131.77577 -136.60532 -137.81009 -149.97287 -156.36564 -164.78102 -161.71463 -167.16272 -168.50084 -169.25884 -171.97984 -161.40012 -151.78889 -158.26294 -153.03829 -160.86274 -162.61539 -161.70328 -166.51814 -164.98534 -162.75294 -164.92117 -166.38982 -157.06317 -161.63280 -158.31291 -161.65135 -164.25590 -160.46549 -164.24787 -171.85501 -162.28887 -168.26886 -175.93640 -169.57669 -168.60490 -168.12579 -170.57596 -170.93190 -167.02699 -165.42751 -162.17052 -166.00468 -167.86653 -167.67787 -173.52450 -170.04065 -171.47485 -170.27882 -173.72091 -172.14024 -168.14742 -174.60901 -171.02977 -173.91274 -174.91852 -174.92794 -176.42299 -174.60924 -177.77053 -178.04269
176.95439 179.34497 170.68431 159.06052 161.27081 155.31443 154.54161 158.22442 150.65866 156.72649 157.17539 156.03251 164.44422 161.04983 148.82482 147.88969 141.42504 135.43955 116.22346 128.82751 129.87445 128.78446 108.55376 81.10237 52.99032 46.64429 13.11838 -13.07386 -41.42208 -40.99290 -28.09202 -23.34864 -19.45366 20.46007 15.21393 13.90802 5.85872 -15.15026 -20.50201 -52.42320 -75.71300 -93.14164 -110.13347 -123.27865 -108.37322 -87.19654 -91.36656 -113.81642 -118.49948 -128.05660 -117.26387 -105.04098 -103.00554 -111.31552 -121.60633 -143.71438 -155.63658 -156.26574 -155.08682 -140.82316 -113.17658 -117.13951 -136.87243 -136.00958 -144.63511 -147.76657 -154.61138 -155.63064 -168.69254 -162.02396 -154.82239 -149.82159 -137.75589 -138.42193 -136.31847 -141.80370 -143.50084 -152.15824 -157.94113 -166.38900 -163.75985 -167.84851 -163.69494 -164.67335 -166.37886 -166.19148 -160.33288 -157.14259 -157.46887 -162.29852 -157.35598 -172.17570 -163.91773 -168.20246 -163.98802 -161.04368 -161.53018 -160.85982 -158.21770 -157.02434 -157.34116 -156.38805 -159.97902 -162.22301 -161.77275 -166.48431 -168.30630 -172.81481 -167.83964 -167.75594 -168.22626 -173.63963 -177.24390 -177.64179 -168.84057 -167.63666 -172.36401 -169.64810 -167.00979 -172.90934 -170.86487 -170.70110 -173.84548 -172.44266 -175.20715 -173.24825 -178.00933 -176.23307 -175.10406 -169.71252 -170.55378 -176.55493 -171.79854 -172.05141 -174.53374 -180.07882
197.79394 195.21649 189.86299 168.66391 162.62032 159.91342 154.60837 156.95549 155.04341 153.15509 156.47603 158.37699 154.00931 155.59154 157.50203 153.31328 151.32336 139.18300 146.31012 138.47482 132.23264 136.18787 115.00124 84.66170 50.98082 46.23830 27.13727 -5.22856 -14.20182 -23.61981 -16.15997 0.52396 26.61732 35.12102 32.86432 22.59737 4.41189 -14.69237 -26.07652 -57.75466 -73.78607 -99.90114 -99.73708 -97.60125 -90.19109 -69.36738 -93.63969 -105.40921 -105.56205 -108.43837 -89.25389 -85.98798 -100.64309 -106.50532 -135.00072 -140.86715 -149.45388 -165.48565 -155.30235 -152.12020 -137.17580 -135.00697 -138.47865 -152.05525 -155.55985 -152.35063 -159.93243 -164.34606 -155.61473 -161.31860 -161.99039 -164.26259 -157.18942 -150.04448 -153.64076 -149.76067 -153.35394 -164.00891 -163.69015 -166.27479 -162.65671 -157.21149 -160.11538 -159.84499 -162.54883 -166.94958 -158.39929 -152.80014 -158.68089 -162.62699 -166.81877 -165.19443 -171.62883 -162.56900 -157.50564 -149.72043 -149.44432 -144.83741 -151.60614 -151.10441 -160.56981 -148.44349 -150.46005 -159.20520 -153.19729 -163.59886 -169.39493 -161.99859 -165.11543 -161.81775 -163.44700 -168.89912 -168.34110 -171.47642 -172.38974 -172.11412 -169.59087 -171.33450 -170.18456 -172.53820 -170.93035 -170.37613 -172.48556 -167.06235 -174.33405 -171.74669 -167.62987 -174.50802 -171.62921 -175.66632 -176.16937 -176.31102 -177.61523 -175.46758 -176.77601 -165.91024
205.55175 204.48678 187.24832 160.56573 163.55947 160.49954 157.63197 155.30479 152.19684 153.18584 147.65448 156.57485 152.99580 156.82006 150.01982 157.48460 156.24690 147.60922 146.95175 152.12635 144.27255 134.32470 127.82740 104.63865 66.82616 39.21655 25.92606 27.90410 34.13076 19.47317 43.22093 25.56644 49.38130 47.44168 32.44775 1.52180 -19.11621 -25.14526 -46.63021 -65.91855 -77.21634 -81.26248 -68.88849 -76.08005 -66.76810 -72.93001 -83.26504 -84.20291 -76.12942 -66.40344 -69.65911 -84.82454 -108.67772 -121.42461 -132.39301 -135.79670 -137.53488 -137.72698 -161.80039 -161.48093 -145.79799 -138.51699 -154.20674 -163.21683 -163.95857 -169.02848 -161.09781 -157.39484 -143.43992 -150.08173 -161.01797 -165.51762 -162.11434 -158.16330 -159.86558 -157.04776 -160.35049 -164.39187 -158.17789 -159.92317 -153.54744 -150.05062 -151.87800 -155.76821 -161.46616 -166.44909 -162.48303 -165.63959 -165.93676 -168.29170 -161.12429 -160.74837 -150.18408 -168.32830 -159.39264 -149.76773 -140.01297 -143.82350 -144.29195 -147.74522 -148.87485 -149.39665 -156.25029 -155.29596 -158.82761 -164.65110 -167.50428 -166.39575 -162.56723 -158.37975 -159.13130 -163.07126 -162.65763 -162.06446 -174.41239 -175.84294 -173.10231 -171.18502 -171.80974 -171.98103 -169.78098 -171.96307 -170.53121 -172.00955 -180.01491 -176.13066 -172.96475 -175.52371 -175.79095 -173.31719 -175.64200 -177.73700 -170.34467 -174.33582 -174.58313 -174.93183
