1103.23370 1024.99438 993.75264 818.89839 808.64852 744.26483 732.39962 670.29444 552.56854 561.99340 528.26316 477.95582 448.17304 447.83918 441.81396 477.53858 498.55677 613.87067 640.25094 765.31251 792.26839 877.85827 854.66354 820.66095 815.88941 694.60235 637.55559 490.84815 345.81294 218.69811 192.87347 176.60471 164.47358 172.50771 183.39991 190.98606 172.86620 152.41683 129.73964 84.48690 45.01596 27.42626 -3.83329 -4.65100 -7.32457 -11.61018 -15.36578 -20.29971 -21.66990 -35.03860 -41.23590 -54.71304 -58.26500 -67.66777 -82.84772 -92.29425 -99.96058 -103.91521 -104.81075 -105.95111 -105.49693 -105.01191 -99.10674 -96.07316 -88.70940 -81.10521 -78.98985 -80.74339 -83.66777 -87.09322 -94.25076 -96.23937 -98.75469 -98.01927 -94.99212 -93.07912 -86.68900 -74.20893 -67.62535 -63.74175 -75.82936 -91.23465 -142.07110 -180.99377 -261.18734 -286.91377 -406.54383 -461.98688 -495.32962 -652.68654 -827.56402 -850.86325 -925.59659 -1002.12767 -1039.66234 -1075.21993 -1081.21894 -1134.08552 -1139.60942 -1151.74593 -1148.21712 -1144.91630 -1142.74841 -1128.38554 -1116.35830 -1108.47691 -1079.91829 -1073.72018 -1061.26611 -1063.54844 -1076.66321 -1096.65045 -1289.89808 -1381.56890 -1488.20129 -1551.58704 -1676.45816 -1761.76705 -1789.09838 -1778.26259 -1781.25358 -1825.98950 -1842.46871 -1872.82836 -1878.05535 -1904.18771 -1944.67035 -1961.05748 -2023.86907 -2049.72236 -2058.97024 -2074.83483 -2083.08193 -2101.12557 -2100.22849 -2127.01846
991.29994 1124.17349 1055.12720 901.71973 899.02427 890.59703 898.15701 727.60172 809.61689 675.37786 683.95660 593.09094 454.61815 460.62047 455.65403 445.60077 474.01583 534.85819 603.42172 565.60356 743.05055 803.58214 868.72871 842.22797 821.05064 786.68241 694.86428 627.03645 569.84076 410.93426 249.20791 236.54452 197.33034 168.55624 175.16465 182.25001 171.84054 167.60312 136.65481 111.97278 76.26760 53.34749 11.63437 -5.11955 -7.42472 -10.59281 -14.14508 -16.72700 -22.53109 -23.04952 -31.40712 -42.74810 -53.37771 -66.35907 -82.00581 -89.73372 -98.35324 -99.46061 -103.50094 -105.03335 -105.50074 -104.31538 -102.69242 -98.36503 -90.17550 -82.36541 -78.32937 -78.90475 -84.64390 -86.26253 -95.49992 -99.86400 -100.52069 -100.72991 -95.74307 -90.97241 -76.32809 -66.08403 -62.97677 -61.99082 -68.13784 -75.84854 -107.72506 -160.62419 -194.59052 -288.68467 -309.98681 -364.38457 -385.87507 -489.45219 -573.18094 -771.68616 -860.98750 -1000.06889 -1042.00772 -1056.07586 -1097.98869 -1108.05141 -1132.65985 -1139.66222 -1137.68869 -1142.64445 -1135.21762 -1125.85634 -1111.78053 -1106.60657 -1090.96141 -1075.63717 -1051.86678 -1045.36891 -1054.41071 -1130.39100 -1175.86974 -1302.22040 -1440.38682 -1482.88128 -1531.66876 -1561.03967 -1667.49904 -1752.34836 -1725.92659 -1753.68415 -1734.60819 -1795.41889 -1819.99960 -1870.93074 -1869.33289 -1922.80171 -2007.38062 -2018.97895 -2025.81831 -2047.51130 -2055.56031 -2071.98368 -2073.93852 -2048.14855
1388.42058 1256.54704 1266.01275 1041.23972 1071.87584 1095.58380 1099.40542 1000.89902 860.16816 849.45749 855.80535 680.62115 595.70545 547.86894 499.24503 443.69581 434.54139 487.81770 498.76229 557.98850 612.94448 767.37025 834.44139 861.94049 835.52180 732.32650 709.59749 714.55355 640.90336 566.40911 468.78634 310.92563 238.23250 180.02397 182.99271 180.50145 187.95780 177.92865 163.14342 115.14473 109.70254 64.78436 22.27794 1.77618 2.42430 -9.95600 -13.23657 -15.87457 -21.17363 -22.53480 -32.37032 -37.59481 -48.38914 -66.41935 -77.52569 -82.58549 -92.92722 -97.70341 -99.56812 -103.09292 -104.40785 -104.88711 -103.01572 -99.45735 -91.26939 -81.53947 -77.53111 -81.68303 -85.35901 -89.70677 -95.18011 -100.09859 -101.46424 -102.01005 -97.49049 -87.91311 -74.93575 -62.93886 -57.74288 -57.12175 -57.13668 -60.96906 -100.15634 -123.98910 -158.98840 -222.97544 -261.72692 -330.52623 -372.20167 -479.44399 -542.21906 -601.65246 -724.93007 -803.02089 -955.12973 -968.67933 -1047.36516 -1096.64305 -1115.24237 -1115.42516 -1129.09295 -1130.71658 -1127.63088 -1122.97636 -1108.18405 -1104.43063 -1089.03461 -1078.03161 -1064.61886 -1044.15243 -1055.76063 -1102.08206 -1168.07780 -1220.55278 -1369.83010 -1434.76922 -1448.14500 -1512.56913 -1545.22494 -1617.31540 -1619.75556 -1638.56184 -1656.17673 -1709.79667 -1715.25059 -1780.34829 -1828.34899 -1834.93113 -1940.78477 -1982.96548 -2008.68102 -2031.55781 -2022.41918 -2037.95176 -2040.97431 -2081.39408
1220.25414 1421.23855 1272.73672 1164.64075 1135.20917 1187.70246 1333.85837 1336.58442 1105.69050 1012.85142 905.46931 846.99943 695.51938 618.79658 515.58953 437.97948 414.47936 430.18452 445.99132 508.56623 538.83751 780.56334 852.02924 845.53416 801.14171 679.48915 656.81440 687.47157 795.89214 749.28076 595.48585 403.09313 296.96687 209.55341 189.49159 185.56331 190.49973 189.46363 172.27903 139.53974 109.92594 79.57528 40.84886 31.58889 12.87374 -5.19412 -13.06314 -15.30995 -17.48027 -23.32115 -30.95281 -33.34077 -39.26492 -57.92895 -68.60896 -81.23407 -84.90459 -90.77162 -98.73616 -101.27709 -103.15618 -104.43558 -104.67296 -99.79920 -91.42183 -85.06234 -81.69195 -83.09010 -90.89361 -92.11434 -96.26601 -99.71234 -100.63760 -100.01147 -91.48586 -85.69806 -73.52667 -64.03249 -56.79265 -55.23186 -56.49984 -68.88476 -99.14923 -141.96890 -157.76949 -206.05515 -215.10368 -243.30032 -338.79664 -381.89287 -505.30938 -568.09219 -649.10607 -765.88953 -844.64463 -853.95575 -1030.60070 -1062.94432 -1085.71570 -1110.19282 -1111.29447 -1111.89121 -1118.51746 -1114.44808 -1107.30205 -1103.64691 -1087.49531 -1078.97842 -1065.55392 -1049.65472 -1069.77710 -1120.16327 -1176.46929 -1188.80139 -1268.79800 -1369.55962 -1381.36343 -1395.93074 -1401.18358 -1394.79117 -1475.00556 -1503.84784 -1541.39180 -1605.23649 -1649.31881 -1720.96034 -1743.05156 -1808.72616 -1856.88718 -1915.64239 -1940.82934 -1950.67740 -1980.25740 -2013.36528 -2001.05453 -1961.63476
1433.33038 1621.72297 1373.63854 1239.07157 1325.66412 1465.12736 1550.66034 1545.33755 1364.99415 1278.99839 1104.20065 994.34350 836.33954 637.68646 570.62319 506.98495 439.33059 429.07597 431.58366 462.26604 477.07161 646.66305 758.03291 769.09477 727.48007 605.23550 579.76532 729.20747 776.85603 849.66462 764.31413 442.99520 380.04612 331.98080 233.08950 212.65935 192.32163 197.17619 195.84270 170.02518 133.16134 85.39874 65.01356 41.22107 13.50257 8.72115 -6.37595 -11.40671 -16.17776 -22.94534 -26.58283 -32.08752 -34.93582 -51.88941 -63.35910 -71.69330 -82.05516 -84.75805 -94.67107 -97.39730 -100.58359 -103.81736 -104.48845 -101.10582 -96.00595 -92.00675 -85.62615 -84.16334 -88.72301 -91.74206 -96.11633 -97.77856 -99.89373 -99.40000 -95.69312 -83.99034 -76.61966 -69.56034 -60.91704 -58.25231 -56.92844 -71.06551 -84.94219 -117.44142 -158.69791 -191.11833 -206.55642 -234.69426 -289.40696 -356.26731 -448.94806 -509.57262 -600.99759 -745.57293 -782.22316 -808.53617 -888.74397 -960.62757 -1050.54279 -1068.93265 -1095.31447 -1105.03901 -1103.06680 -1109.04532 -1103.44780 -1100.48219 -1088.50773 -1076.42793 -1067.38353 -1063.34746 -1059.29481 -1111.96772 -1134.87434 -1209.88711 -1258.83046 -1309.58442 -1310.22452 -1340.46379 -1320.93807 -1362.79055 -1385.87800 -1423.57947 -1492.57274 -1492.59834 -1516.17911 -1601.05008 -1701.91740 -1733.51742 -1764.90960 -1780.44021 -1839.88050 -1899.94347 -1904.54788 -1950.34467 -1952.79782 -2009.93011
1679.65439 1809.61555 1727.99746 1562.97855 1796.46088 1791.97375 1680.68118 1667.60434 1570.52510 1392.30550 1237.20974 1090.64529 897.39739 779.14247 641.31146 584.64366 480.95008 472.89747 442.82558 437.62468 442.62073 561.94470 641.26072 724.08552 649.56003 588.70133 602.58261 686.10819 880.26681 843.45968 805.29807 629.47912 455.02078 341.50265 257.11873 222.73654 209.71884 197.56933 217.63980 187.07106 133.51946 113.40551 92.39236 55.38923 23.99296 4.37112 -4.42805 -8.61624 -11.42222 -18.77785 -23.28617 -31.21821 -34.82072 -42.91736 -55.29185 -62.45057 -73.61652 -85.32331 -92.58330 -95.86598 -100.57009 -103.82725 -103.17191 -101.63911 -97.77148 -94.08043 -89.49161 -86.02521 -86.60876 -89.24515 -89.62181 -96.80320 -96.53013 -95.90798 -91.55414 -83.02912 -81.81459 -70.54244 -67.55619 -60.82852 -62.37746 -77.89967 -91.70545 -119.80846 -154.52940 -186.23838 -200.82325 -234.86972 -277.38808 -340.83124 -420.62301 -463.11037 -587.00192 -619.05471 -699.79011 -733.86149 -842.04544 -883.67259 -958.10385 -1023.55145 -1058.84434 -1071.35538 -1088.46052 -1090.09447 -1096.78681 -1094.55983 -1089.31271 -1074.74345 -1058.54162 -1057.44906 -1068.77663 -1098.24711 -1152.73335 -1213.62433 -1261.91048 -1271.38266 -1300.52005 -1277.79592 -1289.93350 -1303.81245 -1349.21111 -1355.25059 -1384.67978 -1405.42004 -1467.34032 -1468.64646 -1518.84247 -1555.34206 -1618.81042 -1726.89537 -1791.14138 -1841.05919 -1865.50494 -1856.63980 -1896.16553 -1840.03324
1863.88366 1939.07672 1740.06927 1776.11502 1851.81104 1976.18753 1786.43686 1775.08930 1641.65711 1559.35074 1367.93117 1251.37538 1069.71956 833.58734 696.58534 608.05647 507.79941 480.50752 462.86826 444.75068 417.58101 462.69436 489.02490 617.40152 606.61878 547.84885 556.84195 702.57295 866.62056 882.78065 854.95771 763.53678 420.57496 356.90814 268.73188 239.01155 219.52022 238.90616 231.50834 215.24650 171.94264 137.82277 123.72645 70.77771 39.72636 10.93057 4.36925 -4.49149 -7.93560 -14.75814 -22.40365 -25.21718 -32.11218 -40.34635 -46.67974 -58.39203 -65.82422 -79.95027 -89.48191 -95.59473 -100.81233 -102.91756 -105.08317 -102.99247 -102.20148 -100.51504 -96.42331 -85.98421 -88.35592 -85.00246 -85.47200 -87.80760 -92.30931 -94.69580 -90.40182 -89.11791 -82.98230 -80.62632 -75.14687 -69.21448 -67.26634 -80.20698 -96.02845 -122.04734 -144.89386 -174.49932 -200.10369 -252.32770 -298.09736 -315.12303 -370.46234 -387.78753 -439.34853 -538.45560 -573.53230 -698.38409 -743.24083 -836.21726 -886.25619 -924.98626 -987.45919 -1019.43528 -1058.07793 -1082.04328 -1094.13643 -1084.16191 -1077.65723 -1062.56799 -1056.17226 -1057.22615 -1067.13141 -1109.70538 -1144.44079 -1207.73729 -1229.73259 -1247.17702 -1254.24635 -1225.69788 -1202.20010 -1235.47958 -1244.72143 -1259.91269 -1267.55622 -1311.62691 -1321.62905 -1369.78721 -1446.26066 -1469.80803 -1578.55533 -1612.49497 -1690.06644 -1801.57765 -1805.73187 -1850.68089 -1832.26060 -1904.36021
1983.66007 2013.76977 2000.56516 1893.30274 2055.11964 2071.17930 2024.14367 1959.52721 1870.07974 1599.67329 1451.24431 1348.57890 1109.61617 954.15348 749.05761 698.97166 512.83289 507.91225 482.65259 436.59059 428.42384 384.74890 459.55454 480.22474 492.42969 462.17279 518.43352 695.53954 809.30282 861.38460 815.88214 792.51279 483.68451 259.70709 262.66627 246.87482 245.05135 255.58105 274.46165 249.06769 199.20519 163.75506 141.12526 87.34531 41.24492 23.62172 10.22164 -3.33195 -5.24946 -14.71449 -19.73855 -24.16658 -26.42383 -35.37602 -39.89252 -51.08166 -60.74818 -76.17724 -87.91671 -94.14553 -100.86910 -101.60766 -103.73579 -104.20879 -104.37592 -104.32547 -102.63817 -96.96590 -88.44673 -84.51158 -82.84385 -86.12822 -91.81319 -92.62397 -92.80908 -91.05558 -87.26492 -86.10669 -79.39311 -76.10240 -86.67460 -92.44300 -105.37950 -125.51816 -153.89853 -176.64385 -195.40099 -265.26037 -281.84839 -309.30040 -320.14006 -383.55659 -426.59830 -448.08553 -516.08392 -568.55578 -614.32250 -761.93052 -774.82614 -868.24513 -908.61907 -986.84168 -1005.73673 -1051.14208 -1062.21190 -1077.83636 -1067.11507 -1062.10663 -1058.16854 -1060.90450 -1068.92226 -1088.15273 -1145.18996 -1194.47764 -1233.91897 -1223.68495 -1200.76461 -1156.06068 -1148.61486 -1154.92513 -1169.41602 -1158.88767 -1152.62133 -1215.51295 -1198.81992 -1244.50195 -1313.34180 -1364.95317 -1482.56701 -1525.92189 -1579.82904 -1647.06830 -1714.45637 -1746.64279 -1760.66099 -1689.56139
2078.55041 2043.37947 2052.08125 2057.80540 2127.17316 2235.98168 2211.62764 2138.10199 2058.41718 1894.52717 1621.22714 1552.57769 1233.56699 1020.60753 932.71874 724.86114 604.30409 529.43046 483.05705 441.65149 394.56153 373.76034 384.70477 399.80163 393.29672 444.64415 538.56378 714.01575 702.21696 815.80739 766.72516 531.84615 432.46698 288.31594 300.09086 290.48487 303.91054 278.51630 280.96289 272.72125 245.59739 186.25628 140.56512 86.52761 66.07506 34.64684 23.21691 0.05664 -1.12180 -7.13273 -14.85027 -17.05048 -25.32200 -29.30835 -36.65141 -46.79859 -62.33492 -68.12618 -81.92770 -89.63150 -94.54636 -101.01229 -102.38306 -105.63375 -107.51504 -108.33190 -106.63983 -98.99084 -96.05081 -84.55748 -85.06574 -86.09439 -88.80720 -92.43634 -94.54005 -96.68407 -96.40601 -97.62868 -90.75591 -89.39889 -91.57891 -104.29220 -111.11640 -132.04295 -161.60791 -189.06474 -201.15676 -240.49545 -267.06012 -277.99755 -296.86089 -338.11209 -350.86829 -429.84702 -490.22428 -505.24581 -517.88498 -613.86108 -716.15486 -789.50478 -813.38081 -929.56644 -976.70107 -997.13937 -1036.08575 -1049.94876 -1059.04850 -1060.23205 -1062.58777 -1064.35853 -1082.35684 -1096.48958 -1136.93643 -1188.09506 -1212.41102 -1217.56952 -1176.38378 -1142.80577 -1106.16435 -1076.41808 -1082.68026 -1111.95078 -1065.36259 -1094.80101 -1155.71178 -1162.92041 -1173.50859 -1287.05103 -1341.62588 -1400.55772 -1493.73662 -1528.79601 -1614.33995 -1696.15954 -1680.12595 -1765.21655
1971.53760 2007.70853 2027.57756 2086.17501 2174.87312 2253.60907 2284.45458 2269.20161 2165.43164 1952.70511 1847.60144 1633.84176 1328.26778 1163.62027 1030.37856 778.75339 629.73218 570.83265 485.61630 430.06302 389.14907 372.35296 344.69698 329.43565 322.58288 369.32687 466.89332 564.73377 649.03016 577.68629 569.41462 525.13248 392.66861 444.19165 379.27854 340.75842 357.92180 336.80384 298.86442 287.92960 268.31964 216.79925 179.49987 112.97222 90.72659 52.07199 31.84618 11.61276 -1.07868 -5.37792 -10.94020 -14.36330 -17.56545 -24.67170 -29.02728 -44.69093 -47.77362 -68.21299 -77.33088 -87.72168 -93.74272 -98.94651 -102.82296 -105.79567 -108.61466 -110.00420 -107.69467 -103.78975 -97.17230 -94.11507 -88.15973 -89.87553 -91.84449 -94.46035 -99.07256 -100.14979 -101.73386 -99.96160 -95.55713 -96.63937 -93.74326 -106.18898 -122.55363 -140.40233 -156.13781 -185.02512 -199.47703 -223.39381 -244.77455 -256.35711 -286.01490 -310.38258 -301.29336 -344.60116 -377.66575 -467.40115 -514.29656 -554.68883 -671.73754 -687.25086 -751.58668 -791.73070 -881.98639 -971.36462 -999.32390 -1018.89620 -1059.31815 -1063.92772 -1065.23461 -1065.79093 -1085.61051 -1106.19855 -1137.70981 -1159.49282 -1208.00121 -1179.60925 -1158.91441 -1106.33131 -1051.95598 -1034.21201 -1022.92796 -1012.81663 -1030.04591 -1037.96331 -1042.09204 -1013.81606 -1017.31083 -1102.86369 -1192.16994 -1242.64308 -1344.39047 -1466.85983 -1465.91075 -1595.92562 -1595.53534 -1679.29346
1973.55697 1974.18083 2044.94147 2102.30491 2090.37368 2219.09934 2261.75571 2294.89263 2229.93326 2166.03700 1952.66228 1679.75169 1420.47334 1166.02160 1094.08212 959.77143 613.72648 550.26378 487.62332 436.23078 422.91107 370.82199 361.19174 334.91673 339.82400 342.63774 366.57823 481.48026 476.25803 511.69709 487.38758 446.65163 504.74839 520.76043 531.49263 468.83199 448.62292 440.25763 391.82875 359.43357 324.15114 262.49474 207.57071 110.94965 102.51149 68.02415 35.53140 17.58091 6.89395 4.50083 -11.04547 -15.18903 -17.04738 -22.30048 -25.81998 -36.40357 -43.27169 -52.04227 -71.64677 -83.30551 -92.16713 -97.70040 -100.16393 -104.55708 -108.97779 -110.57135 -112.25856 -106.20342 -102.85489 -99.54071 -93.22328 -92.45080 -94.95415 -96.95546 -100.47969 -103.68911 -103.69753 -105.44664 -109.52481 -105.53873 -105.07077 -118.06630 -123.71124 -143.24415 -149.97989 -168.00654 -191.86415 -206.06662 -212.57715 -234.53554 -243.14932 -277.34166 -292.23962 -308.85460 -356.48901 -426.15781 -457.16569 -482.48735 -551.61134 -626.29760 -709.56464 -732.73057 -785.24659 -891.47602 -972.21272 -1002.23835 -1061.99479 -1065.37101 -1061.22710 -1057.81353 -1072.35124 -1093.26248 -1133.24938 -1136.47000 -1148.28610 -1137.47646 -1101.45366 -1059.11146 -1040.32465 -1022.46588 -1021.65206 -987.62282 -965.80527 -963.90137 -965.44901 -986.49246 -994.63545 -990.48260 -1027.79075 -1148.35065 -1275.46980 -1340.61002 -1409.47706 -1434.73975 -1512.27723 -1591.39066
1973.92855 1974.30469 2041.06785 2074.26333 2103.85337 2158.40135 2244.76071 2317.29534 2370.75721 2142.17448 1951.07966 1656.01610 1489.16723 1313.61402 1109.81727 1028.60541 815.49078 728.25308 543.00592 520.06860 417.76434 428.32175 404.67024 355.80669 361.33402 359.58535 360.32774 391.50991 408.03474 437.86110 429.30588 502.80267 576.37758 644.53374 580.80532 605.12242 605.68514 515.38485 457.46260 385.67635 372.13423 345.35726 228.74857 178.49399 125.60739 73.18641 34.12277 23.49232 16.44438 10.30904 3.92101 -12.14641 -16.49962 -19.97163 -25.57462 -33.57549 -37.54438 -52.16900 -67.46360 -80.90426 -87.74303 -95.52459 -98.51606 -102.97857 -107.06697 -112.60692 -115.49423 -111.92044 -109.52329 -108.68559 -104.73752 -98.26086 -102.43870 -103.27060 -103.99557 -104.30708 -109.91580 -110.87493 -113.59764 -114.38609 -123.58487 -137.74528 -137.96609 -141.27367 -148.21834 -165.10418 -171.86189 -180.18314 -196.30850 -210.14608 -218.45293 -237.70850 -260.48014 -290.30781 -308.85875 -328.76603 -370.87076 -404.03179 -418.92458 -497.21247 -605.52360 -643.70647 -751.12747 -790.73861 -873.12034 -957.69675 -1036.04571 -1059.22830 -1055.32325 -1032.76996 -1031.31840 -1082.05801 -1081.78886 -1080.16666 -1107.43393 -1060.79669 -1068.10263 -1050.36190 -1023.41776 -991.61982 -979.46476 -971.30485 -929.25624 -930.70654 -885.22099 -900.64161 -901.14831 -916.09867 -992.11335 -1014.47077 -1120.26611 -1320.38458 -1329.73699 -1427.40932 -1433.66380 -1355.55037
2023.38203 1956.92241 1942.40154 2009.06621 2017.49234 2076.76288 2169.52765 2209.34278 2293.84162 2216.60017 1865.69098 1611.10111 1476.96280 1376.37040 1252.45257 1157.73481 1016.79344 813.19182 764.98327 625.55788 575.37767 457.53315 404.61562 399.88347 359.75798 358.66595 356.84311 341.82268 365.52844 398.95573 410.93950 513.21975 681.59742 774.90645 790.85680 751.06837 649.37418 588.42608 510.81832 465.76064 396.01977 328.88225 307.81477 205.61282 149.03632 137.98354 62.47791 55.10220 23.02622 20.05590 10.24706 -2.54843 -11.81769 -16.45138 -24.22821 -26.31340 -33.50106 -50.93756 -57.80298 -72.31853 -79.23176 -93.81809 -96.36765 -100.32971 -106.17357 -114.33926 -117.11677 -116.91366 -112.38053 -110.32489 -111.63800 -107.95083 -106.94417 -107.70320 -111.62342 -112.47623 -113.48297 -116.07402 -120.06721 -125.76034 -137.00034 -140.53524 -142.76511 -142.53595 -144.12342 -155.86824 -159.64971 -176.26738 -188.11124 -194.59580 -196.71953 -203.17922 -249.16341 -259.76171 -280.07760 -310.62920 -326.52360 -371.01043 -384.67206 -439.74382 -491.83667 -601.49986 -661.70505 -762.53300 -828.77663 -944.56936 -974.06633 -980.05534 -1020.48316 -1017.82559 -998.58834 -1045.08542 -1045.46923 -1050.09290 -1047.11949 -1050.63635 -1046.53341 -1019.75485 -1011.64021 -976.25008 -937.53595 -898.99913 -871.40168 -873.69011 -842.53509 -834.09653 -831.18344 -835.49605 -908.21499 -942.36227 -1010.54300 -1131.78693 -1235.99632 -1311.44710 -1360.87996 -1424.49114
2007.32771 1889.96279 1834.32434 1877.08056 1914.96528 1926.27006 1885.31046 2085.46656 2172.87581 2122.91780 1784.31912 1614.11514 1512.20908 1420.93536 1351.16241 1289.04869 1240.18251 1063.84514 901.68533 793.76944 614.95980 567.21555 539.31874 381.91435 381.76028 375.77721 347.50727 336.98469 329.87338 354.92403 406.09020 587.82067 682.27358 791.60252 799.92882 814.93401 726.15642 603.13025 579.50314 504.34861 417.88772 389.10354 317.67034 218.57922 167.21018 143.90988 104.28711 92.37018 79.24877 49.14312 13.07711 1.24544 -3.90860 -13.61680 -15.71058 -23.33749 -34.71433 -41.03949 -53.76427 -61.78105 -77.23781 -84.16985 -96.88828 -100.80647 -109.75236 -115.30498 -118.40585 -119.97127 -122.16265 -120.46461 -120.88643 -119.79996 -123.84091 -118.02430 -124.63902 -123.65664 -121.23705 -118.24811 -135.91473 -136.79874 -140.14112 -140.89163 -143.87203 -143.12541 -144.26971 -148.18434 -152.82407 -156.33127 -160.72791 -171.16018 -172.84272 -191.34960 -208.78922 -230.82961 -269.53851 -285.53729 -296.34901 -325.57763 -343.69539 -369.73630 -403.78407 -519.23651 -620.06287 -710.04418 -787.06839 -859.55788 -922.35710 -931.04156 -953.41057 -971.69749 -977.85504 -978.56766 -1015.63158 -1036.49535 -1030.98774 -1035.09577 -1023.45128 -1010.75869 -1006.78708 -939.19516 -907.86082 -884.52553 -860.67486 -807.65508 -798.24410 -791.42048 -799.15724 -818.26246 -853.07042 -871.02954 -898.70241 -1026.47682 -1145.82494 -1267.34778 -1297.76877 -1235.15759
1908.19134 1772.09786 1750.93544 1757.30868 1661.83963 1666.66985 1845.56243 1895.34276 1993.54199 1926.16202 1778.02566 1623.95254 1544.19112 1445.96045 1367.73250 1391.04641 1354.98712 1252.19856 1064.65435 856.05474 692.30580 677.14301 606.16931 539.27892 430.21813 391.76007 389.89313 349.58985 330.12910 349.09033 370.16120 540.00346 664.50845 798.05542 801.82731 801.93753 755.16106 670.12459 604.83577 554.49621 440.03516 384.44358 330.36558 237.15595 160.53463 147.17843 125.40036 102.80456 109.47639 71.75376 34.09480 15.54439 -4.54024 -7.95943 -10.56944 -18.34422 -23.67511 -34.08969 -46.79617 -55.47036 -66.76061 -83.64424 -92.17462 -100.14360 -109.57860 -112.29066 -119.76516 -121.10664 -125.89281 -130.68095 -131.10620 -132.75529 -133.72583 -133.49373 -129.68859 -136.87568 -136.35988 -133.31375 -140.78419 -140.99989 -146.69748 -147.75888 -147.53089 -149.50613 -147.89984 -148.96853 -150.58784 -150.69331 -156.18011 -161.79875 -172.02112 -183.37563 -204.31299 -228.02831 -235.31693 -259.59144 -280.29885 -271.55560 -309.09909 -341.74957 -377.76582 -409.58082 -515.24308 -558.67172 -690.52925 -815.69713 -819.93094 -873.80334 -890.93634 -921.58035 -924.02881 -962.65056 -992.46230 -1023.30469 -1026.01564 -1023.95267 -1018.19880 -997.03655 -965.50600 -916.75534 -890.37796 -873.65810 -813.09267 -779.16575 -750.01743 -735.60472 -747.40217 -754.99702 -799.25689 -818.08370 -886.19970 -979.89485 -1043.28697 -1250.77638 -1249.15132 -1292.72045
1784.37499 1635.50439 1631.76205 1609.98928 1588.39582 1602.15509 1563.31329 1684.51281 1827.18474 1815.09051 1596.05205 1550.25488 1560.05078 1470.40323 1458.53559 1450.79212 1481.37808 1371.24599 1141.84494 1030.84174 851.73875 761.90846 623.82497 544.19571 471.58645 457.44468 399.67939 371.39999 352.11907 345.84320 352.75854 500.78718 612.91292 638.58925 697.69332 726.73949 763.05417 673.97387 625.80251 534.20631 444.37242 390.97629 362.78276 259.79323 172.73911 175.85196 180.30941 173.36885 172.42481 165.66787 73.58683 26.99189 18.40327 -6.18985 -7.83909 -12.34893 -19.60288 -24.02932 -31.68122 -49.97541 -68.35372 -72.41496 -87.11383 -100.70473 -103.58836 -115.49987 -121.43186 -125.71297 -132.68755 -138.30669 -140.79687 -143.52209 -140.59314 -139.67713 -141.79026 -142.90124 -143.29373 -143.44930 -147.34771 -148.48915 -150.22420 -153.12835 -153.72297 -152.07869 -151.12187 -151.93562 -150.66065 -150.43023 -151.67980 -152.50152 -161.18108 -168.37730 -185.97221 -201.96616 -212.07323 -232.82442 -249.52120 -264.34250 -270.72139 -279.68443 -327.79981 -399.48094 -458.03532 -498.84808 -514.92524 -641.51562 -742.86536 -772.95503 -860.20732 -871.78454 -904.20034 -954.33153 -963.37926 -998.52598 -1017.32087 -1017.16379 -1004.64243 -991.60955 -952.21119 -899.94867 -859.50710 -846.45427 -811.74125 -757.97179 -734.30306 -721.46651 -720.98329 -709.04345 -746.09828 -781.74392 -857.43353 -956.78221 -1044.93341 -1141.92340 -1206.08219 -1163.51306
1336.26318 1486.13378 1465.43941 1522.65914 1470.90462 1443.83730 1405.02715 1467.75658 1504.37328 1461.82586 1436.69172 1485.08084 1512.55327 1487.29206 1481.18926 1497.91015 1493.27422 1422.01034 1181.79688 1013.37354 941.33938 700.82988 665.74970 533.35156 513.92208 489.56440 456.41438 431.18105 386.38781 374.78009 380.89317 453.93171 521.20369 565.52195 630.02215 651.63659 692.15364 639.16059 582.13210 473.80692 425.33832 358.10468 318.24920 266.45075 241.83674 238.66129 268.61463 273.16181 274.93800 219.15518 165.32297 51.00293 29.31809 14.94781 -0.01233 -6.49522 -12.27955 -17.72314 -23.66181 -39.70950 -53.71991 -74.19144 -83.16961 -99.12893 -104.29413 -113.32559 -123.07317 -125.51647 -135.75011 -140.85413 -144.42788 -149.76820 -151.74096 -151.77459 -153.40249 -155.88145 -156.16844 -154.74325 -154.63899 -153.57859 -154.95854 -156.27708 -156.11783 -155.77426 -155.33294 -154.69427 -152.57000 -151.82136 -151.66149 -153.19490 -153.96962 -164.56894 -174.11565 -193.53374 -202.78466 -219.71055 -241.02679 -244.12381 -261.85609 -266.25007 -311.07958 -352.55515 -403.84124 -404.76962 -486.15636 -533.56157 -590.65700 -633.55066 -692.44146 -799.93085 -878.24182 -903.67859 -957.00765 -986.84798 -1017.00441 -1014.57092 -999.46538 -982.24313 -931.46869 -882.52071 -835.86614 -819.41710 -754.11754 -713.15551 -708.68899 -684.04382 -692.60395 -707.16325 -745.35500 -782.46497 -802.70651 -924.50890 -979.16013 -1119.09098 -1164.81860 -1208.86752
1483.32297 1315.89250 1449.56500 1461.85886 1390.01912 1294.59269 1323.43273 1305.90565 1380.46419 1344.87683 1268.22761 1340.58021 1398.30061 1510.82426 1610.94763 1589.62973 1507.09429 1393.71010 1148.71009 947.20910 914.79161 775.56341 685.07905 633.14461 597.43787 571.54808 532.52011 470.33491 449.68001 394.90220 392.01037 411.24232 443.75997 478.05893 504.58921 587.38083 612.64541 608.04434 544.46324 434.43683 385.44666 328.47518 304.92453 278.42518 310.68693 299.51289 315.18730 376.88901 395.02603 300.08698 225.24207 120.87229 66.27302 56.91121 -3.98214 -5.35515 -10.29956 -12.51705 -23.24506 -34.28026 -46.63383 -57.87769 -75.51523 -94.20220 -102.68693 -112.00510 -117.03530 -126.44636 -137.61514 -144.72690 -147.81912 -150.54873 -158.11641 -157.83882 -157.98735 -157.16599 -161.04708 -158.07154 -159.54619 -159.85668 -158.06607 -157.64213 -156.73399 -158.29979 -158.91300 -156.05753 -154.59956 -153.50363 -152.29255 -152.60632 -150.94547 -156.02390 -166.40096 -186.13101 -192.24952 -213.56899 -220.25963 -237.72332 -240.76534 -253.20630 -266.05703 -324.98510 -369.35899 -384.27466 -419.61039 -476.44298 -539.62612 -569.28076 -661.49720 -704.05731 -816.12788 -903.99680 -953.25287 -973.23165 -1009.89010 -1009.28446 -978.53021 -958.73035 -896.32634 -846.73289 -805.69302 -788.05861 -719.61015 -705.70131 -671.27409 -672.84711 -666.45881 -675.38036 -715.65630 -748.28071 -787.63622 -870.41347 -903.41081 -1118.04078 -1121.26967 -1078.22075
979.53154 1147.96202 1167.59219 1288.59220 1207.30948 1170.70926 1169.40441 1178.23871 1202.61772 1184.30333 1186.89647 1198.99897 1443.53397 1513.96830 1645.80197 1581.69209 1558.18621 1463.08304 1218.83876 913.37650 898.14590 859.87825 797.35005 697.30799 637.24978 622.12441 621.71938 554.99759 497.15470 469.96878 468.92111 458.11733 428.94075 459.80238 476.03685 510.48106 569.01413 580.04718 543.26727 462.99382 392.37745 337.84308 341.89483 336.75502 346.32056 320.69822 377.86420 457.00377 417.85695 373.33674 263.27740 162.76329 141.37784 88.08845 61.98654 10.39860 -5.50985 -15.78867 -25.45835 -34.32859 -39.56859 -56.16165 -74.67556 -88.05002 -103.05600 -112.01532 -114.82960 -124.44554 -136.76538 -146.98453 -154.14337 -157.47499 -161.20128 -168.63963 -165.07250 -164.28291 -163.12571 -164.84105 -163.28995 -160.35655 -158.68909 -158.51196 -158.29195 -158.89644 -158.61950 -157.63568 -156.07073 -154.43017 -153.44647 -150.70990 -148.63937 -151.80998 -160.95859 -179.83719 -182.18978 -191.66999 -203.28947 -212.45772 -225.20077 -237.11661 -238.42111 -265.62643 -291.24805 -334.62351 -390.86505 -420.27519 -448.95657 -479.27332 -583.88674 -711.75522 -807.82748 -923.67088 -938.72459 -971.59746 -994.27094 -998.35149 -969.66040 -931.01340 -887.85711 -805.88355 -772.21758 -728.40759 -679.63267 -628.97821 -638.87364 -639.87438 -636.22891 -642.48182 -676.15264 -699.81081 -752.25655 -795.81518 -876.33694 -972.55621 -1066.69663 -1131.72687
1117.61796 1024.48071 1107.20089 1145.84735 1174.63027 1123.96441 1053.14555 1044.02188 1005.28359 1075.39648 1147.65631 1209.47349 1324.41382 1460.93291 1696.35425 1601.58557 1498.37828 1315.01976 1103.14342 960.94383 966.95942 937.15095 918.13217 851.00778 819.52136 702.88657 641.79243 593.66380 526.78390 529.80179 523.11696 535.50849 486.05945 482.26761 490.98141 535.25773 584.26658 603.94723 573.11573 489.04703 431.38917 412.67422 410.73028 410.62648 394.57645 442.96249 486.08833 547.91400 477.99799 400.79745 321.71301 211.92260 138.42992 129.04537 76.76224 29.58127 13.92576 -4.30866 -21.24595 -27.22602 -36.18269 -53.33784 -65.32917 -74.57580 -90.79262 -107.76473 -113.74008 -126.40371 -129.98370 -142.81015 -146.66088 -158.85283 -163.25273 -164.50349 -166.60697 -166.71668 -166.14941 -165.11009 -163.24949 -160.25258 -158.41190 -158.45866 -157.23904 -158.50724 -158.17645 -157.58807 -154.65667 -153.75430 -153.12497 -149.89815 -145.31136 -143.58383 -152.97876 -163.15865 -173.47241 -176.26172 -190.03018 -194.04314 -198.46851 -233.29956 -233.51380 -257.03243 -262.17594 -281.72677 -320.94290 -378.25291 -440.05236 -455.81825 -569.67781 -665.85214 -772.55620 -869.44151 -923.30900 -973.66090 -981.80529 -991.52231 -913.56963 -846.21280 -835.80338 -792.71310 -727.97698 -697.47948 -637.75290 -617.81364 -588.34157 -604.96086 -602.18047 -629.08109 -654.99649 -695.51614 -704.05303 -743.22101 -832.38046 -965.20680 -1002.16640 -938.13617
836.70620 930.84345 958.90291 1072.72997 1066.37101 1052.37189 994.01141 976.89913 968.28724 999.72959 1081.71762 1164.45076 1194.90992 1413.38656 1562.79747 1549.23113 1427.60590 1256.26986 1164.89396 1046.51560 1014.07327 1020.55214 958.01307 973.31863 860.61499 774.55017 708.82722 688.18848 601.23497 558.48564 598.99817 568.83301 572.80084 572.49612 583.18404 600.07342 640.67125 665.74274 619.69125 561.20451 504.31476 477.34182 458.88536 512.58761 533.57790 507.00572 589.58199 565.94962 559.82012 456.49958 338.02109 214.59181 188.40803 131.01502 95.31722 73.15031 17.65978 3.26489 -14.97581 -25.21694 -32.08583 -49.83067 -56.00846 -70.74497 -80.65712 -99.63798 -107.72973 -122.85165 -132.12205 -140.37131 -143.22789 -151.22734 -159.88349 -162.68138 -163.86274 -163.60798 -166.00343 -164.03088 -161.81158 -160.31802 -157.49034 -156.35531 -154.49908 -154.43058 -155.24855 -154.49579 -153.21223 -152.36275 -150.90932 -146.58793 -143.63509 -142.64686 -142.86560 -153.95799 -158.08423 -170.06608 -172.87687 -183.76315 -178.69194 -187.00416 -212.56458 -220.87364 -230.69380 -272.70681 -308.85107 -354.87230 -396.81780 -478.11840 -604.99378 -652.22984 -766.05254 -841.53034 -897.82422 -938.08026 -948.57940 -942.76323 -890.28924 -835.96888 -806.57598 -736.24762 -687.62309 -624.25430 -599.12039 -584.32867 -569.56017 -551.03031 -563.60084 -586.45569 -582.71846 -626.49096 -650.84039 -708.68207 -718.41729 -928.42459 -929.95154 -1007.87975
763.04800 847.19572 911.19317 983.62736 1022.63564 1018.67123 998.33447 917.58947 904.20040 975.46903 982.49387 1123.11054 1212.62587 1395.33141 1484.29798 1516.75261 1381.50815 1248.00662 1137.95492 1044.90791 1033.63214 1056.32544 1046.41904 1009.01750 969.31029 833.55348 796.86890 704.03427 678.76743 628.73024 634.09586 656.78894 673.97002 675.01945 664.61752 656.73433 672.41414 681.79262 654.28152 617.74162 594.10378 527.02635 494.50558 554.60443 628.88368 633.28451 702.62279 687.05834 666.24317 581.92415 355.62373 251.88877 237.63458 177.42072 163.01633 75.97640 28.45185 15.46521 5.00427 -14.50217 -18.10384 -32.93412 -53.82009 -57.83209 -82.60868 -91.68198 -109.55160 -120.77010 -132.86193 -134.98136 -142.50768 -146.09101 -154.83694 -158.61369 -159.21892 -161.18932 -159.87647 -160.19607 -159.80595 -157.40728 -154.70441 -154.29633 -153.23431 -153.37435 -153.08583 -153.12885 -151.95795 -150.48944 -149.06120 -145.45417 -143.30981 -142.73028 -141.20151 -142.64461 -144.80951 -156.34069 -165.26626 -160.53481 -159.57424 -157.43338 -178.96564 -187.41284 -207.15714 -255.28979 -271.86295 -312.21239 -384.70768 -494.41947 -582.56132 -662.54055 -774.11290 -829.04652 -896.49732 -917.18329 -918.21658 -890.30069 -850.88880 -827.38418 -740.81349 -719.47494 -624.46351 -585.42285 -543.59607 -510.82930 -512.41146 -506.18546 -510.31722 -532.53004 -512.74584 -554.33060 -571.53370 -639.46694 -705.03389 -792.35991 -852.52333 -775.59513
844.64124 769.12313 769.72487 897.70052 947.32355 932.76170 896.92449 885.07113 847.89959 904.22407 929.12226 1034.35103 1085.31654 1255.34889 1432.57955 1412.75029 1367.18642 1299.38873 1177.91021 1072.02066 1058.55540 1078.43807 1073.53003 1067.84455 1041.05533 943.71395 845.24707 721.39301 699.76418 685.41517 680.13299 692.48950 683.18541 699.97745 707.90371 685.85346 688.71550 712.83207 702.10641 663.12168 633.42186 578.59487 559.80961 644.53292 699.44427 739.29815 801.31789 798.72222 707.07444 593.38062 377.41218 304.19709 262.13364 190.16492 161.82929 128.04880 59.85985 28.28858 5.18272 -8.72431 -10.46271 -18.17927 -35.89412 -53.12857 -62.04374 -97.67040 -103.20254 -117.79981 -123.15217 -132.01050 -139.90252 -145.29911 -148.19011 -151.07162 -154.42202 -156.76791 -155.95886 -157.10790 -157.41307 -155.31476 -153.39312 -152.39621 -151.56413 -151.07609 -150.59220 -150.58774 -150.15926 -148.06791 -144.95291 -144.60094 -143.44944 -139.86013 -137.79782 -136.99570 -138.37035 -140.92722 -151.64087 -150.06907 -153.71627 -152.78566 -156.47200 -163.78245 -192.02809 -222.96536 -276.41028 -318.72874 -397.88287 -451.93866 -548.80026 -656.12413 -755.47578 -804.22723 -887.41891 -901.71782 -904.51228 -856.49273 -839.76298 -824.95964 -703.65177 -622.20188 -607.13197 -509.21411 -491.10218 -478.67317 -458.57385 -458.99309 -473.61571 -469.34295 -493.83070 -496.43857 -540.21965 -600.67553 -644.01313 -750.54091 -775.91725 -850.29323
616.58691 693.10502 692.39338 806.46564 850.28825 891.24964 850.82713 796.67670 788.54234 844.61744 894.79515 930.12991 1001.44389 1107.26472 1255.10218 1356.66256 1338.19616 1264.87967 1185.74588 1112.99149 1095.17649 1074.91725 1055.73589 1048.68409 1031.37121 943.46137 854.08212 818.38072 751.46966 720.13320 695.19838 698.28309 694.07019 694.56230 688.84456 651.39409 679.92584 699.53908 719.76280 701.65757 662.34179 636.95188 634.04141 647.19657 659.12950 738.59985 815.24449 764.32390 708.53422 586.71270 425.06342 312.67037 265.20854 194.02683 170.68790 100.05055 76.54428 30.56667 4.98881 -5.20672 -9.64513 -16.99235 -30.60775 -35.14926 -45.76954 -76.45358 -82.73704 -103.52941 -115.22955 -129.77576 -133.82376 -139.85996 -143.96427 -146.06502 -148.56891 -154.65420 -155.08050 -154.76492 -156.08352 -154.34579 -151.85231 -151.41667 -149.86540 -148.79559 -148.10553 -147.73813 -147.13198 -146.14426 -144.82300 -142.64412 -139.88740 -136.88540 -133.79535 -133.57806 -130.74438 -133.99702 -136.99686 -135.37721 -142.78235 -144.41396 -148.43203 -152.73859 -174.97078 -191.86370 -262.82330 -309.48035 -393.65390 -441.42060 -541.37756 -649.85933 -776.44798 -814.70904 -870.04588 -874.33656 -861.08349 -840.24452 -807.85910 -742.78084 -648.88469 -598.88759 -532.00337 -505.36294 -473.09452 -442.05944 -449.98950 -432.40935 -431.24569 -433.39451 -450.64064 -467.42500 -486.32233 -511.64193 -565.44614 -627.53079 -702.04127 -628.66529
660.96835 614.65722 624.62031 718.07569 784.04547 790.42270 770.01816 755.57661 760.95050 788.44306 851.21845 873.61008 904.31638 1021.62993 1159.62937 1213.57994 1236.37988 1238.92761 1169.72537 1128.59562 1091.99813 1017.92731 963.86867 971.47632 957.73588 964.50884 911.03732 909.63810 893.03948 737.20557 730.89583 683.98326 655.36936 663.63324 658.40191 645.52148 642.70044 688.18464 719.79833 698.66578 674.32105 658.33566 648.48267 594.21879 642.59595 687.78153 741.68500 663.64246 615.73107 506.85601 434.39098 314.40959 249.59369 203.70533 176.39493 106.23013 72.03355 41.50321 33.14991 11.93214 -0.54858 -8.69984 -20.11900 -27.20779 -42.02558 -67.98742 -78.79089 -95.69082 -101.49398 -119.13918 -129.56838 -135.14561 -141.02002 -142.65626 -146.41416 -149.27570 -151.27837 -152.96539 -153.17709 -152.25077 -151.37837 -149.90188 -148.12353 -147.61751 -146.43685 -145.61042 -144.64129 -144.83496 -144.17767 -142.00305 -139.25862 -137.98149 -132.93569 -131.71271 -129.61555 -126.41629 -128.60526 -129.41968 -128.47634 -132.50445 -135.97541 -147.81804 -157.61438 -180.09642 -235.95061 -294.35138 -333.95590 -420.61505 -536.23791 -605.18881 -741.45010 -814.36134 -860.56836 -865.07019 -860.28797 -811.79780 -740.20571 -695.60900 -657.16902 -531.60454 -497.78738 -446.19657 -426.77432 -420.86844 -420.24887 -412.23248 -414.50545 -422.89110 -438.41558 -457.32578 -463.29433 -494.39658 -542.72768 -620.37845 -637.40490 -685.23916
520.53497 567.84610 619.34325 638.33036 684.08718 704.13821 692.71172 676.69828 693.91986 723.21205 772.33926 866.94769 889.22817 897.28233 969.62018 1041.42520 1091.03124 1131.05826 1101.70788 1095.78148 1025.40233 950.61341 930.40429 897.30602 903.93976 922.15097 975.60393 994.53195 953.94523 871.66129 745.92850 656.23101 629.72829 623.72652 602.65742 576.92921 588.16533 655.61151 699.67914 692.31792 666.11911 654.26733 573.81974 531.98620 541.35445 588.33678 624.10710 593.02340 481.37482 463.83094 368.11296 276.90189 242.67986 196.81780 162.94614 117.43290 76.93967 64.70553 38.84047 24.45350 17.78163 3.74013 -7.05918 -23.27367 -27.85603 -45.58624 -73.87205 -93.78547 -102.65052 -114.30109 -120.87743 -132.98349 -140.67871 -142.09983 -143.06513 -144.63862 -149.04877 -151.00888 -151.36048 -151.98228 -150.52395 -148.59116 -147.97816 -146.80856 -146.00585 -145.11784 -144.46118 -144.11430 -142.88110 -140.38307 -137.76547 -136.12593 -131.61961 -128.14859 -126.09312 -124.20304 -123.86577 -124.22996 -122.47759 -125.95888 -128.57056 -137.72492 -139.75013 -157.09863 -207.66678 -265.76412 -305.04276 -396.59400 -498.20385 -626.70505 -754.96676 -784.13252 -851.42912 -854.46461 -831.42428 -801.47415 -731.24937 -697.03563 -582.72535 -546.26178 -479.36254 -428.74192 -406.98206 -384.95199 -389.80408 -397.25016 -404.11132 -421.35696 -422.61232 -436.37162 -451.23859 -485.09576 -508.59564 -565.19963 -590.07063 -621.99510
594.38284 581.36447 585.47993 591.52321 598.92266 624.99097 626.24725 636.45049 659.17287 700.59068 721.08961 803.27336 840.85107 848.97538 906.79873 904.63062 1000.12451 984.77266 1070.18559 1052.30625 1000.45302 930.43004 915.87389 844.45538 848.17256 885.60290 977.17778 1019.12250 980.06683 904.96235 829.82325 704.06496 612.54579 609.04953 591.38940 573.40281 566.25519 591.26713 628.54320 657.45497 642.12402 638.52405 545.19317 465.30253 449.32380 451.51981 460.11537 439.78045 368.96946 327.33798 278.12461 245.34979 216.46041 178.50094 156.72224 105.43891 98.74775 83.47589 49.64558 46.85725 33.68895 16.57062 4.24239 -17.19133 -21.78044 -37.26390 -63.13198 -84.30287 -99.48960 -108.56880 -115.95969 -125.26955 -131.60131 -135.71429 -140.98311 -143.01500 -148.46809 -150.11564 -151.24486 -151.82919 -151.30998 -148.69002 -147.08325 -146.18123 -144.79946 -143.87830 -143.65351 -143.44758 -142.37116 -140.71034 -137.43823 -134.86675 -130.33511 -128.09016 -124.12537 -122.67298 -122.40283 -121.77858 -121.93595 -123.48520 -124.89584 -132.49886 -135.51098 -155.98062 -167.15096 -204.96659 -295.29998 -355.45284 -500.43558 -578.25858 -734.90627 -791.50373 -817.20522 -829.64499 -787.49784 -775.29713 -692.33521 -639.55549 -566.32050 -514.73196 -439.23142 -391.13348 -371.98189 -361.64652 -363.61098 -372.14206 -389.67342 -404.95000 -413.90293 -434.79572 -450.45068 -468.64444 -491.61178 -528.78458 -558.64617 -568.38554
706.66597 644.26522 626.37513 591.67621 565.13941 564.83099 566.71548 596.72788 644.24473 671.88166 695.47375 721.70730 741.73974 788.56162 804.82930 818.76310 836.71747 953.06382 980.65161 977.89910 935.45896 884.92169 842.80639 808.23595 802.85107 835.58377 948.90090 969.68065 964.72212 915.44342 911.72577 898.33088 789.15144 675.56690 635.95794 579.40658 560.10994 576.56567 602.59804 634.11127 631.36000 570.07491 534.63090 469.76780 433.44266 392.43750 391.50519 396.21350 300.89006 198.11901 202.43677 192.96446 160.83559 158.84847 128.55629 126.46639 114.56433 91.39430 80.70149 57.95017 46.12027 20.10187 20.51891 4.28520 -7.84907 -22.33487 -42.31975 -64.94634 -80.67662 -101.65898 -102.99482 -114.71159 -122.01207 -133.80504 -137.25575 -140.68325 -143.74730 -150.26099 -151.48274 -152.38551 -151.21324 -150.13974 -148.99505 -145.77696 -143.87247 -143.67181 -143.21654 -142.75332 -141.94575 -140.20744 -136.72940 -135.14747 -129.85335 -128.83496 -123.32645 -121.48759 -121.19041 -120.40502 -120.68590 -122.65496 -124.74353 -128.00596 -132.97151 -144.43191 -151.11928 -163.13194 -224.09235 -323.23836 -495.95338 -591.88668 -646.77266 -740.76342 -776.42802 -788.15269 -772.19817 -698.15970 -663.52120 -578.96767 -533.24710 -450.38369 -382.93177 -363.75114 -328.56519 -332.87986 -348.55811 -359.88458 -386.57627 -397.74714 -412.13336 -434.85718 -452.43311 -472.96283 -499.20573 -560.47770 -549.40679 -521.34772
640.74255 736.97202 745.50455 627.33449 597.52606 568.49540 569.05070 570.95370 589.95620 591.51486 624.85471 651.30279 666.98345 685.09688 733.91222 739.25133 754.65623 821.05036 853.28760 833.37245 815.57779 808.91556 763.58834 740.00502 738.20178 818.78733 853.21348 896.33970 933.44024 915.96284 921.58084 909.95072 842.65168 777.50593 717.37143 648.59997 604.35199 565.59588 586.48736 592.43329 591.94395 582.03185 491.47408 449.58665 405.80778 365.56699 338.40172 284.86869 238.39348 173.48420 175.15106 170.51029 151.51846 147.97941 162.53431 163.14302 155.36844 120.99834 106.06463 76.08485 80.05375 70.93454 50.61553 37.35032 5.93958 -24.30219 -29.73204 -42.86609 -75.68089 -89.63876 -99.11508 -106.55898 -122.75455 -131.41656 -134.67928 -140.21558 -145.73906 -147.98637 -151.95477 -152.18416 -151.22870 -150.85976 -149.15477 -147.64591 -144.67680 -143.22716 -142.55579 -142.44699 -141.56684 -138.95906 -136.24946 -132.34230 -130.05692 -125.05268 -123.33968 -122.11493 -120.41546 -119.91229 -120.29544 -122.45469 -125.03476 -127.97122 -130.44943 -131.00995 -136.23566 -154.82795 -174.74268 -278.29817 -375.12817 -565.42786 -627.23918 -719.71299 -732.95603 -715.75981 -702.70015 -668.87483 -594.90175 -570.08774 -501.44143 -422.27806 -376.05835 -318.87905 -322.00892 -303.37327 -315.17367 -325.78028 -342.04344 -384.95410 -396.90075 -445.66191 -453.44944 -490.37323 -530.00813 -580.11506 -577.96585 -516.57093
927.93096 832.70149 754.43100 727.57719 736.26372 673.72861 622.06581 561.64815 555.95132 571.24216 583.96904 606.19903 605.21520 629.03746 661.28339 674.40136 705.70848 709.84698 748.03676 757.90511 769.17504 735.61190 711.72877 675.44285 665.48792 740.37760 841.53513 874.44965 872.73835 904.63142 917.31566 909.72473 894.97273 815.43947 796.47458 709.06594 733.66573 621.81768 638.96276 638.20655 629.47334 590.69783 549.57354 501.23910 416.73615 341.43429 309.12392 254.93773 201.92932 160.85713 199.06246 229.40415 226.32939 224.45308 187.00211 190.86966 177.94210 128.72884 102.96467 84.56948 95.78359 87.18677 74.09206 51.20086 8.43401 -20.16138 -24.04465 -41.79564 -54.86938 -86.67194 -91.64737 -99.99289 -114.04273 -124.13288 -131.56639 -136.86918 -145.35282 -148.76665 -152.86427 -153.72072 -153.54451 -152.16001 -151.66002 -148.67902 -145.62662 -144.54709 -142.54617 -142.04977 -141.06047 -138.09784 -135.07553 -131.89285 -129.61679 -125.73335 -123.09553 -122.54523 -120.65044 -119.72218 -120.17727 -120.94008 -122.78970 -126.09001 -127.65687 -128.99439 -127.34685 -138.89294 -193.15333 -285.72752 -311.47364 -486.89949 -623.31246 -619.77783 -649.67581 -624.86297 -625.51492 -594.45665 -519.43648 -500.91644 -412.75005 -388.16173 -336.13045 -313.89291 -278.01552 -290.88528 -287.19309 -311.23484 -327.00884 -336.27397 -404.79359 -426.37111 -457.44167 -559.97945 -563.25209 -585.88655 -639.86078 -702.25571
905.55447 882.35605 860.87146 859.90660 890.58099 813.08393 669.41594 635.16675 536.49253 537.40209 553.44352 567.56441 590.20013 611.03086 655.12748 657.11546 691.17434 705.31409 713.76770 720.15016 736.38377 720.56794 671.33421 650.84873 614.61221 687.51139 774.36837 774.57424 802.46366 873.65032 920.14574 911.78519 906.48883 886.67953 869.08866 847.99236 847.17858 777.85267 761.45817 765.64910 782.18050 709.03286 583.90519 514.18793 472.30514 341.29193 325.29683 278.83617 224.15056 221.16964 311.90241 310.36108 307.27190 251.38645 239.73954 243.68351 185.81522 154.03164 109.25066 96.42317 85.10006 115.41030 111.66387 78.39053 13.30340 1.08177 -17.36178 -21.14130 -44.11960 -61.08449 -84.36326 -90.43062 -99.90786 -115.48731 -120.79146 -130.20403 -140.54924 -148.94105 -152.04095 -153.28747 -154.41697 -153.88765 -152.22364 -150.34058 -147.03032 -145.13438 -142.28466 -141.77470 -139.82044 -138.16895 -134.50174 -130.91314 -130.16181 -125.46683 -122.33416 -120.58084 -119.80304 -119.09332 -119.88695 -121.55151 -122.95561 -123.13041 -123.99090 -124.91898 -124.69528 -123.90911 -191.87805 -269.35155 -333.92654 -490.84735 -588.52053 -597.16555 -605.65663 -592.70609 -557.04839 -550.29304 -465.59626 -407.28835 -381.35448 -335.97053 -318.27911 -276.79552 -272.02540 -251.96926 -272.98067 -277.92615 -299.72608 -325.97161 -388.78404 -425.16956 -502.22481 -573.61615 -647.17785 -718.42079 -718.81905 -798.27733
895.17675 858.65763 854.75609 954.37413 952.26263 866.65144 841.49957 773.86948 648.63427 629.66969 550.76794 538.58173 563.75790 578.13135 613.92184 610.05231 623.83737 639.02999 655.80546 670.59609 677.65500 693.02588 662.23946 611.90441 573.57020 596.04787 673.27235 727.73642 774.66327 852.33579 860.34894 883.72312 891.22912 879.63492 865.67800 836.00310 843.35332 864.44055 841.12175 856.79556 873.77461 786.35840 655.57431 529.31693 491.76901 380.00139 320.07304 295.62468 259.43637 259.05672 320.67712 363.99289 353.54055 280.67320 270.46919 233.98077 187.09381 131.29437 97.40004 79.40478 93.12363 118.65006 147.87615 124.59532 24.94580 16.68916 1.29981 -13.13639 -22.79537 -42.68710 -63.97087 -67.68425 -88.24128 -103.85733 -116.52534 -128.61836 -139.27229 -147.70957 -151.51831 -153.17228 -154.99137 -155.17001 -153.25677 -149.80106 -146.78867 -143.79165 -142.88556 -140.61491 -139.30863 -135.81344 -133.48773 -130.87909 -127.54113 -124.32551 -121.18957 -120.51398 -119.42730 -118.94644 -120.05620 -121.16262 -122.56750 -124.61800 -125.23721 -125.05441 -123.63799 -123.85294 -170.58662 -260.13025 -339.68066 -391.70855 -509.96351 -535.57074 -555.54882 -500.30222 -462.57062 -409.29587 -377.96391 -347.84145 -333.69755 -310.96900 -274.18716 -247.13663 -240.56217 -233.35477 -235.55521 -245.48960 -271.50113 -288.95086 -352.01550 -404.37908 -522.75916 -592.50166 -676.34096 -726.72034 -792.44167 -866.56428
794.85477 821.63852 941.73298 1074.99432 1076.47139 1042.25294 1011.20128 909.47096 844.23461 633.61917 578.62257 564.19122 535.98206 543.49376 542.36690 554.33936 552.60596 616.28218 634.66119 640.37196 674.49084 679.87839 660.50186 612.49698 573.25294 581.91980 612.74413 678.50080 760.61069 788.02293 797.85356 851.50682 860.97292 857.75854 838.69135 813.06803 778.63886 856.24159 876.28256 880.04090 886.34957 794.31802 561.67449 526.88136 472.17471 419.60914 357.32539 304.18272 284.43949 289.38979 326.61828 377.00716 341.83432 317.79216 258.47375 219.58564 158.29448 118.89467 79.92141 68.23925 67.80774 123.53828 138.75217 138.27526 121.85930 68.28433 23.24727 -9.19017 -18.97235 -38.71348 -54.05354 -66.00130 -80.05239 -101.62712 -114.26220 -127.22785 -136.88412 -140.72308 -148.17469 -153.02889 -154.30532 -154.54529 -153.37911 -150.68784 -148.45259 -144.81523 -142.41023 -140.49231 -137.57175 -135.90780 -133.21967 -129.59672 -126.25331 -123.88381 -121.37275 -120.00400 -118.42222 -118.50851 -119.27116 -121.36355 -121.97222 -124.55094 -126.95907 -126.00317 -123.46002 -124.75990 -125.85135 -243.90488 -324.07342 -413.96292 -456.62092 -464.38511 -464.48523 -452.11662 -367.99761 -350.76184 -284.67612 -284.86855 -272.55901 -262.39835 -241.49377 -227.54611 -201.89296 -197.92421 -197.35395 -208.47711 -234.78052 -275.45590 -318.85639 -355.86433 -488.21561 -608.44250 -664.51553 -811.94929 -827.04040 -862.13914
747.79003 847.92227 944.18385 1139.46684 1203.84971 1196.32334 1161.67243 1073.59289 930.94893 866.73974 712.26850 651.45843 565.61515 532.47348 480.54912 498.30609 499.95900 532.02167 594.66147 668.63340 679.34388 695.58568 651.02967 605.26820 553.48787 543.31061 574.80270 631.79484 706.98951 774.17554 782.35208 767.80093 778.81375 812.98770 781.04716 758.77877 742.39495 768.52099 836.91180 882.56984 859.55033 750.34568 600.42073 521.21750 502.12780 452.74731 387.72640 362.45444 304.25826 291.91178 309.28356 344.55511 344.14706 328.00272 254.95518 221.28540 155.52363 102.85265 85.00273 69.71996 67.69899 103.19637 131.02704 135.78047 105.72027 77.97796 61.40569 15.24702 -10.49775 -25.07658 -43.82292 -48.54703 -64.11138 -85.91040 -101.84551 -113.98412 -126.26027 -138.57197 -141.70109 -144.30188 -146.55897 -151.58352 -151.66539 -150.54436 -148.92929 -145.05895 -142.06516 -141.74075 -137.89172 -133.10855 -130.89209 -128.50977 -125.97711 -122.47266 -119.98288 -119.48401 -118.21239 -118.11450 -118.97063 -119.48136 -122.71924 -124.29799 -125.48742 -125.44802 -126.37404 -127.12315 -154.00391 -222.71138 -274.14320 -296.37628 -428.67543 -423.64156 -394.11762 -357.04378 -290.77781 -274.11750 -244.23327 -244.99533 -204.51835 -203.33001 -202.55493 -191.93094 -178.07628 -170.26644 -166.41126 -173.42555 -201.19643 -260.05345 -276.01338 -324.38702 -463.57292 -608.89010 -703.56296 -773.33988 -810.11486 -876.82961
826.36323 947.55450 1057.90487 1153.34268 1230.14171 1277.87187 1354.24986 1278.48639 1160.83939 958.83563 839.09018 738.88970 578.11968 555.60507 500.98273 451.48512 465.56408 467.63024 536.84282 636.96930 662.37167 687.84151 654.35663 591.00408 565.61401 527.43369 536.50003 593.97412 654.76797 670.58160 709.90789 737.39942 733.08882 698.64015 687.86508 651.59461 636.74256 731.02179 795.49854 828.55806 766.24991 748.89584 635.67838 552.26468 528.94879 481.60628 430.60259 368.53763 325.15411 314.32000 311.98956 308.44209 313.89471 285.42760 253.76186 149.18649 119.06361 107.67271 77.74691 63.84600 62.33777 81.57905 103.47981 103.60233 85.59892 90.99357 65.13913 25.92077 18.96691 -14.77147 -28.32016 -39.87859 -50.01803 -76.71932 -88.70451 -100.63828 -118.22142 -126.43824 -137.55433 -141.78085 -145.59443 -149.63336 -150.33395 -150.02457 -148.97543 -145.04963 -142.55910 -136.94536 -134.25379 -130.02587 -129.33566 -126.97642 -124.69114 -122.01617 -119.65519 -117.81042 -117.89997 -117.08519 -118.06108 -118.71701 -121.44668 -123.75284 -124.66975 -124.31900 -126.91262 -135.91651 -160.83342 -191.10220 -235.93242 -290.19086 -348.60647 -389.16637 -357.55656 -286.71901 -267.19544 -269.76586 -237.77763 -209.98444 -194.23227 -160.36679 -154.15606 -150.99663 -161.27948 -139.10059 -141.83440 -152.97163 -148.38362 -206.85956 -260.23392 -319.08773 -440.38816 -548.89401 -595.50394 -709.47417 -743.90011 -678.18536
1188.43705 1068.24578 1116.86633 1189.70552 1289.03023 1336.70515 1408.43481 1362.76528 1198.84367 1108.60619 1048.63491 854.55489 699.98822 588.03097 510.54765 458.37128 461.53070 450.81886 517.18027 557.43774 572.63350 621.18204 660.58295 606.54719 547.92222 499.60333 513.71456 526.36827 596.34373 609.58002 627.44336 642.99421 646.77406 614.54259 591.20481 580.44151 602.00781 662.21243 719.45264 776.42209 754.51816 704.56823 629.76565 539.36953 532.90680 492.57520 432.92501 360.65766 319.45516 306.34847 298.91173 298.88616 289.07766 264.64263 189.47599 147.67982 118.72650 93.44435 81.75618 60.75707 53.72459 58.87731 84.72614 74.92091 84.45560 92.49377 95.34669 50.37983 17.56618 -16.91167 -23.37648 -24.09825 -42.12946 -49.86111 -72.88665 -87.80929 -111.17885 -122.32209 -127.86287 -134.45905 -138.19537 -142.85375 -146.63002 -146.44005 -146.90826 -145.54531 -138.40703 -137.31384 -132.98844 -129.86657 -127.05978 -124.48346 -123.50345 -121.07686 -118.38401 -116.92689 -116.58733 -116.23601 -116.36843 -118.04164 -119.98930 -121.14098 -122.45674 -123.50198 -125.02227 -142.19927 -147.41888 -177.52212 -193.71331 -280.16640 -286.85981 -275.58871 -235.90874 -259.20486 -218.14151 -190.21360 -189.41039 -171.92083 -156.56831 -141.36529 -133.05049 -122.44711 -99.35859 -99.75145 -95.68486 -103.44011 -109.27153 -172.39478 -208.18858 -310.67534 -349.44743 -506.59648 -518.96262 -609.12497 -636.98223 -753.57483
1133.15404 1159.47720 1140.31956 1207.08356 1312.60075 1329.17615 1396.67620 1395.01965 1309.70410 1170.77931 1083.15069 868.53894 738.53054 592.81942 550.60327 495.94922 481.42880 458.65739 473.64411 522.89533 532.16751 548.42498 577.98918 563.06920 529.65553 475.34939 504.40646 485.63352 489.28939 528.02998 527.26954 541.74524 556.98773 582.57554 539.45990 534.67925 560.83523 617.54077 676.99164 697.09145 680.63028 658.22385 601.16637 516.29509 504.88968 477.61618 436.87767 358.66341 312.48346 306.48263 304.34365 283.29762 257.20150 230.51660 177.90661 150.40397 131.86528 93.63906 86.71234 64.12906 50.57343 43.96633 53.28664 67.89265 79.14865 95.49406 95.81108 60.51332 38.94905 5.05113 -14.98458 -22.05396 -26.47183 -40.60198 -60.61195 -70.26022 -85.04647 -107.77411 -115.69902 -118.52635 -133.02262 -137.57089 -144.30128 -145.20648 -146.24201 -144.49931 -139.97747 -135.88850 -130.42563 -128.79411 -126.24603 -122.50603 -121.22926 -119.04914 -117.99306 -116.35130 -115.39329 -115.53176 -116.11875 -116.13985 -116.85035 -119.58785 -120.39701 -120.43641 -123.77797 -137.53500 -144.64357 -166.55911 -192.30506 -206.61584 -250.72752 -230.70826 -231.92579 -212.29120 -199.20372 -174.84651 -151.93077 -146.16421 -133.48451 -113.86003 -107.46012 -94.00653 -82.65289 -71.69959 -73.69788 -91.03325 -94.09155 -128.24706 -195.18483 -230.02739 -264.47452 -414.11815 -445.15149 -536.76186 -520.88963 -405.29703
1210.62350 1185.30035 1152.77299 1199.42060 1273.57420 1342.31058 1365.86856 1286.60482 1278.93382 1190.18236 1079.83905 924.99642 825.74272 712.73401 618.54818 569.37626 548.24332 471.86244 445.66787 458.84177 460.65608 499.07146 528.27193 494.89363 466.83254 454.26173 463.67522 463.50551 424.26023 442.85669 451.93645 444.39649 509.62365 508.48620 520.01357 508.71518 524.43437 549.74148 596.24081 611.93761 608.40016 571.87531 505.24091 479.22847 457.16891 406.95876 384.34786 355.06751 309.18778 305.44129 288.69421 276.33981 246.34892 226.05448 178.87122 143.05981 118.77710 102.52337 83.03600 60.03522 47.56827 43.34610 47.75190 51.02139 87.96909 106.39406 83.54531 84.59751 39.25269 12.42707 -5.01641 -19.42673 -26.13370 -31.70907 -39.61360 -61.26249 -77.48350 -81.93756 -104.43673 -115.99289 -123.10110 -127.43559 -139.89028 -142.86386 -144.07122 -142.83488 -137.71752 -135.29269 -131.00508 -125.30217 -123.45708 -121.52691 -119.90471 -119.08618 -116.79346 -115.88935 -115.54192 -115.12223 -115.31656 -115.58568 -115.65340 -116.83660 -118.75317 -122.47067 -123.50110 -130.18531 -141.32391 -151.91583 -177.25098 -195.10548 -213.54779 -216.84239 -199.95042 -192.94306 -163.35405 -152.25595 -148.42508 -133.02303 -114.35293 -99.69013 -95.13322 -77.54555 -75.60509 -54.16466 -65.42721 -60.60327 -77.36304 -82.61886 -139.79866 -180.56754 -213.69760 -301.62067 -349.66286 -399.71108 -417.75949 -499.21706
1229.63359 1122.27370 1138.52083 1105.96698 1258.14678 1301.81176 1263.65848 1215.36231 1164.73046 1149.02530 1062.89977 895.28202 807.78042 688.51840 723.70291 631.27819 574.00995 453.88388 437.47400 407.12124 423.51072 426.65462 435.12863 449.39000 432.71673 435.84482 449.07461 435.92693 422.91748 419.99851 420.14114 410.35713 435.74105 461.47437 474.75279 480.38466 521.29191 531.41724 550.88650 559.79923 583.56905 573.39955 454.39415 412.49136 374.29099 380.01666 354.31189 334.31837 309.00486 286.31125 275.92227 247.28695 229.03305 224.49079 198.30791 154.89184 144.96884 104.45919 81.25733 62.35023 48.18771 42.12818 41.63318 77.19308 101.19302 125.60743 118.60995 90.35515 74.20378 27.78248 2.26918 -14.73459 -21.68391 -33.98781 -37.87353 -51.87848 -66.40177 -75.62901 -93.66592 -110.80575 -114.26171 -124.34375 -133.82683 -137.93556 -140.84560 -139.33844 -137.88354 -135.11934 -126.33575 -125.55420 -122.13457 -121.18952 -120.22365 -118.75963 -116.90997 -115.78789 -115.27437 -115.08710 -115.12049 -115.33972 -115.41077 -115.69585 -117.49810 -119.76473 -121.79009 -129.04915 -133.83741 -143.59292 -156.19500 -162.65605 -189.40227 -185.91213 -183.28011 -161.17205 -145.15542 -141.48088 -130.27064 -116.82259 -103.63393 -91.37694 -84.81075 -73.99051 -60.70272 -42.51662 -48.82791 -53.40495 -55.99889 -68.30072 -115.86635 -168.09317 -179.50550 -219.80900 -250.96154 -304.43913 -336.80193 -256.34436
906.05393 1014.41382 977.95141 953.71237 999.09529 1175.40301 1223.58621 1168.18159 1116.53252 1058.60224 927.10970 851.36267 799.55285 822.04428 782.23853 752.74619 601.35469 480.92274 446.27627 403.19942 414.90823 413.27314 416.52675 416.20385 398.15964 396.14133 414.15610 448.70955 422.64067 414.54473 393.74178 395.34629 404.34073 443.99473 438.04253 468.58283 498.07341 526.36937 529.45742 502.40135 497.03070 445.54385 421.90509 368.18243 361.52447 334.92442 318.17523 311.35456 304.44611 277.69896 264.43308 231.71088 234.91539 234.71384 211.67261 184.41495 144.41372 98.05548 85.32346 62.57851 50.69328 45.08011 41.07248 98.76111 110.35961 132.78592 142.01254 114.70033 76.59076 21.87493 7.39118 -9.85914 -11.94827 -15.92746 -25.95565 -46.16955 -52.32587 -68.20127 -82.11173 -99.26770 -113.85905 -118.87109 -129.13866 -134.01924 -136.84221 -136.65835 -134.43774 -132.55357 -126.65641 -123.22888 -122.35819 -119.90625 -119.50750 -118.61377 -116.12660 -115.87661 -115.63597 -115.46693 -115.58166 -115.46532 -115.99265 -116.08148 -117.34542 -119.99851 -120.85386 -126.14875 -132.93026 -135.14962 -140.41014 -154.67872 -155.80538 -159.08085 -155.78825 -148.69256 -136.97333 -130.57843 -126.63750 -115.42760 -108.83314 -88.24718 -72.09626 -57.03347 -42.31042 -38.66017 -37.06322 -47.76489 -48.01142 -64.96872 -107.79510 -119.06136 -158.11603 -212.46753 -211.27839 -265.41504 -278.75050 -316.36350
972.06880 913.09028 921.41258 908.95307 981.23432 1141.23579 1182.73267 1167.77207 1117.89034 1007.37240 891.14496 843.94364 821.94980 863.93997 898.99511 761.52033 673.22784 592.99308 567.94065 530.18185 446.06348 441.11087 429.70127 398.77429 387.07325 392.78287 396.07957 395.24287 436.79268 420.57545 399.07733 374.26572 390.52802 402.06736 409.99129 446.85883 490.51229 514.13580 493.21151 478.15407 438.82724 395.20730 361.71215 355.23167 330.83230 326.77389 311.50486 306.54151 312.51978 298.25587 283.78013 272.18426 245.05472 252.36308 245.99026 210.68438 141.80420 94.21715 89.59343 81.83974 64.77201 51.14132 44.38420 72.90979 114.91964 139.26029 147.03204 122.46519 87.13636 47.54142 16.74551 -2.54093 -11.04573 -13.17783 -17.53265 -31.78363 -46.78832 -54.13234 -70.55554 -80.08778 -108.38103 -117.36393 -122.22500 -128.36096 -133.93802 -134.96324 -132.13896 -129.40063 -125.81063 -123.08454 -121.17662 -120.43483 -119.24550 -118.06540 -116.88566 -116.25565 -116.26196 -115.97750 -116.08541 -116.29386 -116.52692 -116.61092 -116.82412 -118.58680 -120.43817 -123.71993 -128.23451 -132.64061 -139.81364 -141.45806 -153.26899 -153.53753 -145.36597 -135.27793 -133.35257 -126.23162 -120.05166 -117.82734 -101.84388 -82.63794 -76.16152 -47.98417 -40.46834 -37.86462 -35.43601 -40.67401 -43.28300 -62.47564 -75.45835 -114.62585 -133.87241 -153.79531 -189.32059 -217.33535 -241.63751 -205.02451
876.98080 853.61176 864.04153 877.74576 965.95417 1139.92386 1210.29627 1178.80148 1151.86760 997.83068 857.79282 842.48821 914.07900 936.05915 927.06930 820.85737 729.51930 694.82010 682.50162 681.40474 623.30027 556.76307 470.65071 457.70222 377.82227 386.27172 365.45516 377.87840 407.75047 414.53701 392.72941 382.17404 357.48227 402.58805 401.10936 439.45139 479.22265 511.24501 494.66168 476.27958 431.72507 394.68639 357.15005 333.41327 324.63080 327.63017 329.07937 318.56199 329.08303 373.32744 340.19235 295.18946 303.36714 282.56101 255.84719 216.96171 120.84961 111.18886 94.31679 91.43798 75.00085 62.57569 46.71429 57.79859 105.39920 123.57169 155.34751 127.39095 104.27564 68.89318 21.02092 5.78729 0.41920 -7.90865 -16.66885 -21.37258 -34.98967 -47.51415 -51.25675 -78.09519 -102.01650 -105.55955 -122.94209 -126.09333 -130.47494 -129.51527 -130.94292 -125.76860 -124.90833 -122.51546 -120.97322 -119.79695 -119.22966 -117.86759 -116.76927 -116.45464 -116.39135 -116.38299 -116.53406 -116.76218 -117.10130 -116.97969 -117.15953 -117.37611 -119.50835 -122.66897 -127.64570 -129.59202 -130.09207 -138.06498 -140.98396 -138.29961 -130.00679 -128.15744 -124.92676 -119.79429 -117.99462 -116.35521 -102.42857 -88.07736 -68.81360 -47.97238 -45.88979 -42.11970 -37.76028 -38.25195 -38.42191 -59.37251 -80.85698 -112.52578 -117.36598 -151.10294 -155.35504 -216.66667 -214.42512 -187.71274
831.04455 829.74271 814.51147 809.59861 963.22201 1117.68922 1252.94132 1228.20025 1228.76531 1096.61228 964.10327 900.45864 932.03399 944.24325 911.26302 884.88587 826.14821 742.12280 841.25944 884.70900 796.39440 697.38388 630.54588 506.07858 410.21028 385.22751 355.26442 362.74245 353.50003 372.95292 369.90284 363.76359 352.85225 367.41256 410.80419 425.45558 486.45353 510.53595 510.49221 484.20399 438.99966 392.48558 359.52651 338.05643 348.33484 333.99592 347.82907 397.50488 409.95017 401.14999 396.32133 339.31514 317.98062 295.76770 267.66023 189.67123 151.05823 118.00534 94.02500 93.88322 74.13305 60.24240 52.02896 49.24791 70.27908 116.85304 145.27787 140.58301 118.75328 85.84339 48.55654 20.19915 7.33763 2.41105 -8.98454 -18.78989 -32.78164 -38.84695 -54.11421 -62.20707 -84.92510 -101.94733 -114.08227 -123.13429 -127.89817 -128.49857 -128.22517 -125.74366 -124.65146 -121.80847 -121.06733 -119.79666 -119.07410 -117.58056 -116.88583 -116.25763 -116.26578 -116.27259 -117.02935 -117.43957 -117.37553 -116.79800 -116.96661 -117.47015 -118.71786 -122.34641 -124.54042 -124.29171 -127.33346 -129.38962 -122.60364 -125.70841 -125.83029 -125.90865 -121.34131 -120.05796 -116.77985 -111.62978 -100.21690 -94.51257 -75.64011 -63.01784 -45.71608 -43.14116 -41.02360 -39.32119 -42.49977 -57.74803 -71.46244 -109.30887 -116.06579 -134.48809 -152.13180 -177.96133 -194.86587 -175.80662
825.63902 827.94087 806.50747 752.70505 887.34027 1103.21435 1221.11140 1223.06479 1262.85241 1164.63801 995.51618 923.27161 936.97612 955.07963 944.11768 903.81275 856.31003 860.92511 922.20727 1014.59813 913.55349 825.22797 693.30744 618.66770 548.18023 452.01557 380.81494 302.90948 301.28570 315.85780 329.07676 339.40909 330.63934 330.05234 359.62969 424.00338 480.60546 502.47873 504.83152 510.41746 492.90784 471.14344 421.07637 425.93507 399.45053 404.08952 398.34127 442.26693 465.50574 468.44111 420.33495 368.25744 358.91918 297.93703 275.42977 176.31322 122.28855 114.18001 101.70126 79.45577 67.46457 63.24987 53.23197 52.69153 63.86027 105.46330 120.79862 137.38740 134.70072 102.08351 80.99159 42.15138 8.63195 3.14910 -5.00601 -16.20376 -32.27817 -32.87221 -51.51362 -69.76756 -84.65063 -99.09862 -114.09214 -116.90974 -124.46375 -126.35548 -126.80968 -125.20380 -123.47560 -122.05759 -120.58714 -119.99727 -118.50216 -117.21097 -116.74291 -116.04759 -115.70592 -115.64271 -116.96231 -118.06338 -117.58605 -116.94922 -116.45373 -116.84114 -117.59737 -121.19306 -123.01742 -123.45289 -124.50281 -122.71128 -122.43823 -120.98150 -120.80796 -120.61386 -120.03185 -118.96658 -116.36851 -114.15826 -100.64242 -95.40729 -80.88634 -71.10358 -56.74367 -53.89614 -49.88082 -43.83793 -45.03406 -61.23459 -81.99530 -93.48534 -110.59163 -132.48648 -135.86059 -164.23419 -182.02436 -192.94073
863.75907 827.04996 748.46736 673.71323 675.09423 1009.06838 1149.40110 1180.49190 1209.87139 1150.19132 1047.73964 960.57179 980.94504 1039.94311 1010.23370 986.55780 955.83621 978.72977 1097.86147 1113.84283 1110.08898 1060.72024 858.09060 629.57187 577.82715 532.84853 431.63651 361.12038 301.22580 298.59246 315.88594 312.38633 316.02770 322.86432 349.81106 383.86153 459.03421 489.88224 498.42990 518.11199 542.69445 517.00812 512.85893 461.95592 465.10087 448.86346 450.42141 462.05712 464.80508 457.90300 422.38686 402.00970 337.53558 281.75151 199.71132 159.88350 126.86625 96.01417 81.13114 65.14517 58.07287 53.16398 50.17147 50.11416 65.88203 85.99510 130.51152 141.75871 144.27218 133.52018 97.84812 78.12174 43.72630 15.49398 10.29351 -8.69169 -19.01500 -22.75031 -38.48261 -59.73631 -78.53468 -86.73605 -108.75007 -114.41369 -123.00830 -123.93548 -126.12098 -124.42365 -123.32950 -121.89901 -120.64545 -120.42862 -118.84265 -116.86979 -116.39582 -115.75788 -114.72587 -115.64888 -116.57225 -117.31432 -117.34882 -117.01353 -116.49784 -116.28119 -116.50526 -117.45083 -119.76384 -120.48067 -121.00994 -121.79085 -121.32327 -120.67698 -119.30594 -118.44314 -117.90525 -117.04191 -114.58562 -113.64497 -105.30721 -96.89475 -90.84207 -87.45405 -73.70136 -59.72796 -54.27626 -47.42158 -49.93400 -51.72871 -73.29686 -87.01993 -100.62018 -113.50162 -126.00973 -146.37121 -171.60799 -161.69162
752.13173 789.84085 707.53628 662.49685 703.49668 846.66593 1059.43220 1168.92591 1195.72508 1073.06133 988.00331 999.95698 1054.47759 1099.19330 1088.82370 1069.44563 1025.15924 1105.32118 1227.42921 1292.31208 1306.84287 1228.20308 1084.99253 926.47964 732.31623 537.89393 499.36922 405.16866 295.87323 289.62912 290.02347 287.46500 297.65944 327.90999 337.83133 387.14560 434.86985 435.40980 444.24321 478.36690 517.94181 529.81858 516.60720 488.26297 463.68351 450.65145 440.60449 426.42916 435.33718 426.13468 368.74617 375.68103 335.04093 239.18291 182.28631 174.32575 126.95126 91.02405 69.44057 55.02838 45.93075 45.24914 42.20664 41.67509 63.74702 82.95549 120.86659 135.11455 156.21762 139.69684 114.83632 103.82980 67.41182 42.49113 15.41941 1.42790 -13.80636 -19.52370 -39.59715 -56.53240 -75.82712 -86.68135 -101.77887 -106.85743 -120.55182 -123.99562 -125.93502 -125.28751 -123.53509 -121.68171 -120.84215 -120.17043 -118.02639 -117.15112 -115.53811 -114.39423 -114.35509 -114.64056 -116.19012 -116.49087 -116.99384 -116.52749 -116.50510 -116.01229 -115.49879 -116.74355 -117.87822 -117.81410 -119.08650 -119.12115 -119.76427 -118.99984 -118.66920 -117.50483 -117.07069 -116.92180 -114.56473 -112.18230 -104.62705 -100.76650 -93.45735 -88.73620 -80.70363 -74.42812 -66.74366 -54.39411 -48.54547 -49.01810 -63.84201 -88.03817 -94.06197 -96.74598 -111.15675 -138.89358 -159.52002 -170.40052
801.19512 698.74121 695.26917 608.67430 630.29000 799.86162 977.00897 1034.33347 1100.46363 1028.59317 996.61245 1032.76495 1063.16929 1107.30783 1106.24461 1089.08685 1096.60997 1202.62085 1303.98473 1348.44394 1349.58668 1368.61739 1128.68588 1062.82244 853.67405 726.57762 530.22099 479.32210 363.98151 277.96833 267.76013 263.51274 281.99699 300.79028 331.35292 371.12552 402.24978 416.66710 433.31535 462.19079 487.11263 497.79342 459.16985 473.03394 436.33446 431.10976 429.58815 418.21871 385.76334 365.56905 357.80404 326.75961 307.56766 183.86633 178.35449 153.30891 119.61585 79.78754 68.48331 46.96737 35.44749 34.74023 34.82829 35.02546 30.66347 55.29084 73.88949 122.04026 136.58066 141.39242 109.67130 94.01085 75.12143 48.06747 29.76503 16.30259 -3.31204 -15.74377 -40.75361 -50.84240 -68.04959 -84.15162 -94.88089 -106.28752 -117.53958 -124.23783 -125.78091 -125.34608 -122.96771 -122.63867 -120.45487 -120.04922 -118.73031 -116.89000 -115.45418 -113.43802 -113.45632 -113.57996 -114.99045 -116.09633 -116.32942 -116.15447 -115.98774 -115.45222 -115.20463 -115.21245 -117.12804 -117.56526 -117.39809 -118.23582 -118.49757 -118.86083 -118.46965 -117.67792 -116.92516 -116.58705 -114.29430 -113.24615 -109.61961 -107.22126 -103.54066 -97.60269 -91.19015 -82.76654 -83.80746 -60.14455 -47.68848 -48.88054 -66.04413 -88.71226 -92.86407 -90.69239 -89.88471 -150.10394 -149.13952 -139.25902
669.67263 595.78729 559.82329 570.37093 629.69243 694.68318 805.71732 887.30111 993.84541 1041.37088 991.78514 1000.10168 1044.46073 1065.52063 1102.32562 1142.15864 1180.28086 1211.41145 1242.66733 1256.46158 1330.49489 1352.01080 1285.42009 1152.89503 1007.47339 913.95328 705.51742 587.54503 477.43019 319.60800 257.49871 250.51480 253.36586 290.15194 317.86829 337.33475 363.58173 369.32302 402.96105 390.44629 355.12232 402.77032 395.34518 409.36452 422.15546 393.51820 388.17711 374.22302 333.65141 321.15850 325.89315 301.71712 221.88765 169.61673 152.00286 147.40302 108.68055 84.14902 70.27554 46.51544 29.11073 25.67623 26.14295 26.89166 27.14442 28.46622 40.09781 74.68559 114.65903 128.71471 122.96569 91.62130 65.16328 58.97602 47.21874 23.05431 5.63304 -12.10349 -32.39173 -43.49600 -63.30381 -81.90621 -92.92976 -107.07108 -115.75402 -122.50391 -126.89482 -125.88789 -123.99893 -122.03835 -120.81319 -119.54943 -118.72553 -117.30297 -115.57366 -113.87720 -113.32356 -113.26613 -114.80327 -115.83539 -115.97229 -116.06184 -115.66580 -115.14293 -115.23626 -115.27809 -115.55101 -116.24497 -117.09092 -117.87718 -119.16666 -118.98853 -118.94280 -118.81538 -117.78376 -116.72292 -114.42470 -113.94403 -112.84069 -109.91837 -108.72128 -109.54464 -103.75989 -101.09691 -91.75313 -87.80866 -66.64120 -58.78518 -64.95136 -86.54751 -87.26367 -86.18392 -93.09574 -117.18806 -142.05176 -148.34056
580.60813 521.40196 514.48206 542.41780 597.55837 696.12861 726.12087 753.28400 807.87480 791.85068 861.90123 896.39675 961.30995 995.21590 1077.21640 1132.89693 1117.98270 1133.90382 1151.24708 1222.43749 1258.27302 1362.86660 1261.31290 1180.08418 998.95830 959.32239 776.78345 590.00102 548.34236 379.72882 258.25449 248.55766 254.35762 266.45623 273.93270 328.17728 326.21839 351.13485 334.21614 322.43294 312.44119 326.48770 315.55448 381.08210 343.25082 332.14138 341.14271 306.99783 288.20945 282.67515 264.47260 253.15290 212.21687 170.39091 130.31678 122.84737 98.40861 84.48741 70.35101 48.08810 39.72782 18.42171 18.51951 18.35688 17.57132 26.14505 34.68680 51.35221 81.70415 98.96137 105.39288 89.67761 64.13708 58.43501 47.95431 26.28841 5.56550 -12.49190 -25.51598 -42.87745 -60.42214 -74.42207 -90.11524 -104.39650 -120.01860 -124.18417 -126.38024 -125.54019 -123.92313 -122.48081 -121.68583 -119.40576 -117.70629 -116.60077 -116.25124 -113.90406 -113.30480 -113.88460 -114.45718 -115.50959 -115.72811 -115.89583 -115.67523 -115.43434 -115.43374 -115.38333 -116.93565 -116.85292 -117.07776 -118.55642 -119.72122 -119.55226 -120.06843 -120.05333 -118.99792 -118.66463 -116.44806 -114.49302 -114.16430 -113.23905 -110.38411 -113.24908 -109.37754 -105.90746 -104.12842 -101.07582 -79.75188 -57.21104 -62.48188 -72.49758 -79.36070 -75.29762 -79.70043 -113.74955 -136.26296 -130.97416
503.57551 461.69580 466.77060 522.24591 528.48204 637.70868 738.82755 752.42634 708.97333 728.87609 749.62964 865.38690 895.53344 917.17363 973.32544 1011.49260 999.65206 971.69148 994.33930 1164.52049 1234.18751 1278.27206 1203.55349 1152.74523 1031.25717 971.81766 862.98749 632.56962 564.72301 471.94662 304.15884 262.55873 247.26405 250.61067 256.60916 280.40711 284.75613 291.32627 282.85806 268.34950 259.43342 265.85139 274.80902 272.20335 303.73936 263.45368 252.09705 241.31085 223.16363 208.07764 220.46062 187.05833 165.14712 153.47968 121.86758 112.01078 95.94580 89.56516 65.40561 41.27375 24.40867 10.97186 10.49760 9.63622 9.52654 6.65816 29.93464 42.55563 57.84636 81.91391 84.40074 71.55116 53.04187 57.45719 42.39011 24.96479 1.90054 -16.75212 -23.18131 -41.13073 -58.31935 -69.15263 -87.64936 -97.65581 -117.07013 -124.54603 -127.62042 -126.43279 -124.51218 -122.54574 -121.13938 -119.00902 -117.41016 -116.68915 -115.55393 -114.76552 -113.95434 -113.87925 -114.71356 -115.11988 -115.61161 -115.78801 -116.15005 -116.47357 -116.73518 -117.63684 -117.60346 -118.08739 -118.72248 -119.30619 -120.60622 -121.12010 -121.09871 -120.52364 -120.57539 -120.66431 -118.35244 -116.89945 -114.92706 -115.02967 -115.47836 -114.63295 -115.10391 -114.70518 -103.25006 -97.04933 -77.57282 -59.28984 -52.46633 -52.42920 -58.47469 -72.26660 -76.78284 -135.15001 -133.47832 -131.05546
436.66837 419.31609 456.69235 487.72205 500.51740 619.49065 660.84929 703.67116 698.80343 660.17803 672.03348 740.63602 890.86180 889.82193 946.86126 926.27152 889.60718 806.85700 834.51516 892.77728 1103.26709 1136.07610 1117.16805 1043.00056 1007.86793 968.89221 864.89677 698.16215 587.41119 506.49880 364.94169 272.66883 260.62167 230.49823 238.56524 240.86492 271.45740 268.35201 248.84824 246.52200 239.53762 249.32975 255.80021 241.79005 254.12571 254.12754 225.09267 204.68727 201.92096 178.14626 158.08708 149.21712 125.43991 113.77387 111.60488 102.69655 95.70178 84.07841 65.16166 36.03095 26.83482 7.96795 4.81625 3.91579 2.68256 2.13037 16.84454 27.53107 45.49581 56.75731 59.54435 55.96144 49.53352 45.49225 32.39647 4.41860 -1.33062 -12.81118 -32.90401 -37.82955 -59.31480 -67.29319 -85.35856 -95.42239 -114.77720 -121.83284 -125.13804 -127.16293 -124.76712 -122.58497 -121.41667 -120.55938 -117.39944 -116.65204 -115.43508 -114.92352 -114.57530 -114.14986 -114.39147 -114.74886 -115.46468 -116.32760 -116.64520 -117.91407 -118.21329 -118.44711 -121.57578 -120.43783 -121.64898 -122.05233 -122.48234 -123.01253 -123.43918 -122.74943 -121.92744 -121.08811 -121.35260 -119.88488 -119.27378 -117.85715 -116.99210 -116.88229 -115.69010 -115.14170 -103.03091 -89.98054 -73.51435 -59.73336 -49.26182 -48.29423 -51.91415 -65.63517 -87.14407 -116.63375 -136.40119 -139.82406
383.11153 401.46381 441.46844 458.64529 477.48262 550.33555 635.25454 623.57218 619.84303 601.10041 607.80590 662.15994 771.19928 815.32390 818.74461 795.58584 715.37493 762.88859 760.87285 853.02972 929.48008 1039.56484 1063.10181 1079.10213 998.19630 937.60932 832.58004 658.04952 585.15688 503.75497 405.25775 290.50422 246.46141 220.75266 218.19700 232.75247 236.70388 242.28683 230.63576 238.37543 234.21413 226.74651 231.53387 232.13185 234.06812 228.61806 209.34526 189.47926 152.52920 145.45975 134.03433 129.99930 120.55158 110.57699 106.21485 98.50245 85.02598 73.65863 61.47997 39.91715 31.43499 8.10682 5.46716 1.17351 0.25321 0.76891 2.95334 13.20825 18.75877 43.19459 50.95361 53.98830 24.30876 23.71212 12.57568 2.10070 -11.81641 -15.85886 -30.97859 -38.27114 -53.76804 -67.74211 -82.50038 -101.90426 -105.73335 -117.89455 -124.23420 -125.95133 -124.27521 -121.55106 -120.84290 -119.54319 -117.82704 -117.23677 -115.60429 -115.06312 -114.81600 -114.60803 -114.42324 -115.06417 -115.35778 -116.75003 -118.11061 -119.90856 -120.05718 -122.60528 -123.93570 -123.77730 -123.85303 -123.59152 -124.79612 -124.69792 -124.46388 -124.57535 -124.32991 -123.59423 -123.03240 -123.11850 -121.87376 -118.99738 -116.83291 -116.43189 -116.16377 -114.06831 -101.79461 -94.84280 -78.86092 -67.32041 -51.36230 -49.11510 -48.83956 -64.85851 -87.10175 -119.27941 -139.62850 -141.22067
385.82304 405.66939 410.10402 440.38628 443.91359 535.45231 580.12312 567.29133 560.48429 586.19976 580.44583 645.86969 729.94661 752.56278 710.07951 694.48064 660.15254 678.89016 686.58653 770.39144 952.70350 1036.39976 1074.65886 1083.29316 1034.74008 902.86501 816.20866 662.55331 616.35571 536.62721 427.66148 331.89604 275.11341 216.47719 208.92432 213.67030 208.40144 212.57615 219.76405 215.40478 218.97863 222.73785 208.40081 206.50436 209.48911 210.34692 201.83553 180.18642 151.33328 138.99730 131.21875 120.04116 114.57345 101.26811 96.03994 83.22492 79.04036 65.03107 62.95203 54.71849 30.20938 17.31508 7.03344 1.81070 0.35532 0.36581 2.60308 3.46425 4.52394 15.15342 19.34064 -6.00135 -0.98891 0.08728 -1.10644 -8.10478 -17.81496 -26.00721 -34.70414 -37.78335 -49.52335 -68.43780 -83.77960 -101.90326 -116.01671 -118.02839 -123.92820 -124.47275 -123.47690 -121.45087 -120.99169 -119.25810 -117.48766 -117.14334 -115.92257 -115.09717 -115.49588 -114.60682 -114.29154 -114.62912 -115.96447 -116.92343 -118.35280 -119.89980 -121.31837 -123.52508 -126.27429 -126.64777 -126.35846 -125.28253 -125.03889 -125.63523 -126.33499 -126.95883 -126.85483 -126.94440 -124.97068 -124.71991 -123.47838 -121.23642 -118.84662 -116.80645 -116.37038 -116.70623 -110.11436 -104.33743 -85.80050 -74.61933 -60.45104 -50.67420 -54.25443 -65.25284 -80.32140 -138.07420 -138.53632 -137.94415
443.86209 425.01574 413.36877 397.84582 427.16737 450.24590 540.97361 543.10496 545.85312 533.07185 603.24979 685.28333 743.02163 738.05859 684.78859 621.87197 632.90571 647.50640 649.95140 767.94387 903.80684 956.82440 1116.56128 1108.34593 1091.87551 1011.79364 778.52612 733.28428 624.61849 573.71925 457.84935 372.18191 289.26008 243.08700 217.26955 204.94997 199.06638 193.90034 194.32468 200.84647 201.24840 197.63609 192.94519 197.24722 197.02328 207.73953 198.86140 172.17523 163.04172 145.57678 128.58684 116.31577 105.38564 100.39124 89.59455 80.64553 73.75757 59.01538 56.38475 55.50221 44.18194 29.89556 13.61031 12.78877 1.65620 1.65907 2.85136 1.44786 0.99888 -0.83050 -4.87964 -11.23058 -12.10908 -8.53778 -10.37266 -21.56959 -23.30280 -31.01703 -36.03460 -40.06441 -51.34728 -67.88087 -90.27649 -95.51475 -112.14687 -122.72739 -123.44891 -123.39788 -122.90152 -121.37736 -120.16186 -118.45924 -117.17821 -116.25022 -115.67265 -113.93868 -113.74074 -114.27436 -113.90065 -114.43910 -115.47120 -116.78401 -117.36878 -121.81013 -122.97521 -124.43507 -126.68301 -127.47085 -127.12387 -127.75404 -126.88238 -127.95867 -128.77331 -129.54414 -129.49501 -127.84847 -128.47130 -126.56868 -124.22660 -123.01242 -119.62384 -118.18008 -117.27416 -117.24219 -113.36887 -105.00040 -97.06666 -82.17732 -64.80496 -58.21460 -62.39123 -72.75727 -95.65366 -122.45494 -135.86636 -138.76487
440.19329 446.27939 423.17304 381.46864 375.79321 429.69506 457.65985 493.41504 493.29348 536.37799 574.98486 709.76766 771.87637 741.46052 646.56114 594.41509 594.62211 601.94746 638.84184 647.18106 778.39998 871.87663 964.33968 1077.16855 1119.00632 1086.24411 922.36798 747.82046 652.37391 516.14997 491.81273 430.90742 346.21943 261.87897 234.26981 229.58726 200.61754 198.64318 188.65188 190.55576 186.78107 178.42964 180.58745 177.95261 176.51569 177.90702 177.01843 170.60854 157.08241 148.19390 128.93110 117.68721 107.59874 100.98446 86.44218 74.92985 70.45918 57.92646 52.63012 52.05848 53.39158 35.79206 30.64168 21.76473 12.91753 2.67360 -0.45244 -3.32964 -3.85113 -5.75463 -8.70620 -11.76166 -12.68247 -15.34983 -17.22628 -25.30420 -24.28869 -31.45037 -36.85654 -46.83442 -59.98166 -66.10147 -81.67426 -100.31809 -109.57785 -120.25664 -122.25858 -122.63166 -121.66338 -121.00623 -120.10371 -117.73729 -115.90692 -115.57896 -114.57722 -113.31007 -112.39329 -112.80907 -112.93109 -114.74091 -115.52225 -116.94111 -118.38087 -121.51834 -123.64040 -125.42020 -126.83536 -129.41133 -130.14513 -128.76015 -128.95699 -128.90228 -130.05333 -131.18841 -131.77359 -129.96487 -129.79803 -128.50882 -126.21392 -126.58658 -123.34707 -122.32480 -120.67205 -121.37251 -122.18537 -109.42438 -101.56057 -85.68857 -72.51900 -70.16047 -66.84989 -90.08297 -95.25715 -121.09029 -133.46786 -131.56935
456.95160 451.86550 442.27424 367.17529 370.12675 413.35790 423.15233 447.68417 438.17177 453.75429 593.19205 693.90430 748.68754 756.16039 641.60924 608.08565 582.66691 580.09251 598.97586 606.59742 609.04067 706.96865 938.76126 1027.23560 1064.28147 1008.56517 973.06052 785.20765 636.01149 536.03720 456.89332 421.56576 348.44055 308.53931 278.49307 248.04295 265.28847 209.93847 199.27287 185.85164 180.12154 171.95256 167.31356 166.08604 154.28904 145.59289 151.66107 153.85001 154.17166 150.02360 132.99191 122.86987 118.11789 104.84754 88.62702 81.76571 63.95286 57.22730 48.80732 45.74568 46.43300 39.54704 33.79200 23.19517 19.75393 9.58561 -1.09732 -2.76784 -4.14148 -4.87934 -8.17525 -12.38783 -15.26665 -17.92099 -21.84943 -25.90846 -31.78702 -32.74476 -38.83221 -47.33594 -54.14313 -74.29141 -80.98114 -100.49461 -104.11716 -115.03777 -118.58033 -118.93934 -119.68375 -119.73808 -118.63819 -117.57772 -116.16400 -115.43833 -113.82848 -110.41007 -110.18826 -109.87854 -112.21060 -113.88892 -114.70319 -116.52780 -119.91354 -122.38683 -124.17077 -126.37389 -127.26686 -130.60054 -130.51308 -130.07324 -130.60890 -131.36976 -131.83595 -131.62055 -133.45873 -133.96920 -132.91990 -130.84971 -128.43204 -127.96006 -125.57462 -125.59654 -126.29732 -126.64794 -125.61888 -119.74124 -107.80812 -98.20220 -90.05163 -77.81187 -86.42815 -94.26693 -106.06599 -120.61679 -131.19270 -131.32819
467.56445 424.70499 395.45510 379.00089 372.05803 380.08785 393.70202 387.43745 409.11644 475.39794 599.34341 642.95412 707.69362 733.69999 654.66196 596.52280 563.68246 547.81468 549.82970 565.29651 566.00314 658.20057 717.98074 908.97422 864.47559 953.78655 832.31037 737.48145 607.72676 546.67434 502.19006 431.21405 363.70844 324.69864 298.63660 280.13566 282.70606 250.10514 218.28570 200.78112 165.66880 162.54009 161.89238 159.22403 146.13068 144.44609 143.32908 150.84502 147.06487 139.57374 134.26033 127.31205 115.30298 115.75906 93.23191 83.83342 70.50091 61.41875 51.14254 43.50311 41.46398 38.82254 41.32735 36.80006 27.51613 11.80288 -2.60090 -2.93283 -3.60662 -6.03762 -10.97281 -13.17675 -16.87888 -20.77311 -25.78621 -30.07052 -28.53216 -29.51865 -34.15090 -46.02721 -51.68553 -76.03944 -85.75524 -101.94421 -105.52238 -112.49741 -114.77016 -115.76686 -117.90285 -118.18036 -118.04094 -117.10495 -116.41448 -115.39917 -111.93676 -108.81640 -108.51836 -108.65452 -112.11579 -112.37697 -114.31504 -116.35296 -118.60474 -122.64853 -124.65645 -127.56708 -128.72361 -131.32196 -132.51572 -132.37227 -132.66122 -132.06339 -133.73357 -134.46277 -136.15762 -136.37336 -135.30324 -134.60832 -132.30985 -132.27596 -129.64507 -126.78853 -129.77344 -130.01126 -129.69699 -124.39451 -118.22616 -111.98412 -100.27374 -94.95902 -94.46835 -95.60783 -105.75539 -120.65788 -131.55722 -132.42173
415.77033 381.34554 373.78886 367.40841 362.64205 370.16910 369.56345 379.95691 395.42301 430.67470 603.05781 643.89783 683.74915 709.74767 639.38479 591.17621 534.86518 530.60817 517.64104 535.08350 545.39328 508.45769 627.57698 657.87828 670.46635 703.65354 688.29867 574.19149 568.73707 552.41651 473.30506 429.93707 363.12911 353.92038 334.69205 352.96317 347.01364 306.12045 237.14954 220.87129 175.67820 151.07282 158.56099 150.41256 140.97229 135.59514 136.21838 136.41452 138.44630 134.53646 128.49922 122.55850 115.24353 113.39727 94.36956 90.62529 82.21398 65.90289 56.99815 51.65479 38.69391 43.05544 47.74349 40.23905 32.99912 14.11802 -2.64476 -4.40041 -4.97174 -5.85511 -13.94408 -15.70867 -18.99090 -27.36006 -31.03737 -31.49979 -28.13514 -26.26646 -34.62289 -44.94965 -62.19238 -80.66970 -91.68266 -100.60021 -104.93137 -107.70279 -110.62054 -113.97024 -114.13035 -115.66547 -116.22364 -116.04994 -114.51054 -112.25061 -107.06157 -104.61082 -104.22687 -103.68621 -108.47169 -111.53015 -112.29379 -116.50169 -117.22126 -120.98650 -125.26510 -128.45778 -131.01726 -133.19405 -133.69132 -133.90498 -136.29848 -136.18821 -138.31469 -139.10998 -139.52408 -139.81160 -139.62076 -135.34384 -134.66689 -133.83210 -133.09851 -130.74408 -132.11650 -131.08075 -130.52198 -128.73686 -122.82471 -115.34213 -110.15150 -108.27049 -99.74668 -105.73293 -108.51220 -134.41913 -133.89904 -136.74087
369.98750 346.42074 354.17509 347.19918 343.49760 338.52131 365.27047 389.12421 410.28057 468.37409 536.36207 581.32978 631.66369 681.93192 630.05466 519.40517 512.43128 520.80477 497.66490 486.42910 479.75889 505.42499 536.85162 563.89755 574.53554 558.61329 555.05125 546.45595 512.16613 496.88882 467.62900 417.66609 381.18487 374.69707 388.95643 418.23482 419.38853 391.53154 323.79277 252.79522 222.33111 183.46900 156.20325 150.99273 131.88798 127.58867 119.30774 118.31031 112.98150 118.57229 121.09299 119.01692 114.75230 102.78777 99.03560 95.19608 97.33655 92.41205 77.23648 69.32767 55.54781 47.31289 46.20100 34.78094 29.11132 13.27916 -2.96333 -4.89433 -6.96497 -10.04815 -14.64063 -18.23280 -22.03602 -34.56914 -36.15866 -33.42413 -28.36291 -24.95767 -34.32592 -47.35788 -71.16399 -78.13169 -91.84430 -97.97967 -101.64368 -105.45498 -107.40550 -110.08817 -110.49236 -112.98877 -113.39666 -113.48758 -113.06334 -108.11189 -103.88482 -102.25166 -102.13425 -103.14588 -106.52426 -107.68191 -111.74399 -113.78158 -117.51254 -122.39478 -124.36466 -129.11825 -132.33537 -134.70901 -136.13677 -137.00010 -138.33406 -137.66339 -140.43274 -141.46349 -143.48896 -143.50300 -141.32541 -139.14397 -138.34289 -135.34914 -135.28163 -135.21892 -133.07362 -133.19640 -130.52132 -128.74022 -126.21246 -120.78044 -115.04264 -109.72465 -110.90108 -113.58508 -118.64797 -130.43640 -138.01657 -142.63409
346.06740 322.35399 338.65094 326.28896 319.48531 312.04118 311.69741 311.55370 388.33039 443.32906 478.83595 583.38847 628.00379 613.83342 552.98888 524.88991 501.76753 486.29524 445.82094 426.54674 435.90234 486.35942 523.96988 554.03680 558.77153 567.95405 561.98603 540.20830 516.76760 486.07756 455.44352 417.48689 395.94711 388.26202 423.52894 465.75295 463.58136 462.38049 398.86392 314.10033 245.92967 195.79367 176.73495 164.70794 134.65027 127.20249 116.61984 114.79006 107.02123 107.55148 108.96507 111.71652 94.43780 96.00091 89.31662 99.14964 102.60721 97.40694 90.52892 78.83474 63.52429 58.16558 46.13755 25.18757 14.58022 7.33358 2.34199 -5.23978 -9.67105 -14.07416 -16.27997 -23.07187 -26.26573 -37.71851 -37.97998 -36.20886 -30.47377 -30.27633 -32.55136 -64.12838 -72.89806 -86.65627 -91.38565 -98.10653 -102.60738 -102.32812 -106.53935 -107.01552 -109.55287 -110.59199 -110.06302 -111.84693 -109.17169 -105.01116 -102.10223 -101.84488 -101.26766 -101.38572 -103.85445 -106.94725 -107.94573 -112.69166 -117.61760 -122.34507 -126.07878 -130.71606 -132.63200 -136.55334 -138.23226 -138.81208 -139.33926 -142.03965 -144.11732 -144.79215 -144.25785 -144.77505 -145.98032 -145.23133 -142.43891 -140.58363 -136.51019 -135.37553 -133.61096 -132.71281 -130.38450 -127.12496 -124.46218 -123.23315 -116.75288 -113.78554 -115.13183 -119.45521 -128.06256 -136.99715 -144.02747 -134.01287
273.42715 298.14057 307.39252 316.78986 317.24575 293.99239 284.69894 299.25051 330.15514 393.51280 436.13337 519.34934 542.72187 554.25873 521.49236 471.90756 471.35712 471.44897 426.12539 402.95437 424.25212 456.56038 516.15784 535.31333 584.44445 609.64565 600.09883 557.31884 507.73719 483.33837 492.91793 487.74178 479.22710 506.26457 507.17458 548.53362 541.81026 513.22851 416.79635 352.16391 297.54768 223.55902 192.35708 188.95168 173.30224 149.71647 144.21262 117.78284 110.36050 106.74012 91.95047 84.76558 89.90179 83.66635 87.11288 98.58775 111.33788 108.45813 98.78813 82.89283 75.47890 62.37904 44.69443 20.73032 5.50126 -3.51858 -4.93638 -5.97882 -8.07155 -14.40862 -18.38681 -23.29458 -31.72343 -37.07579 -37.87291 -36.38720 -35.61737 -44.37032 -52.80813 -67.26177 -82.09989 -93.72785 -96.71303 -98.60484 -98.02472 -98.88789 -101.17244 -104.56196 -107.33818 -108.33256 -109.15991 -106.26353 -103.98946 -102.51740 -99.46618 -97.56607 -98.14570 -98.83489 -102.96488 -105.49493 -108.27699 -112.76570 -116.47120 -120.85641 -126.81570 -132.02707 -136.50975 -137.11691 -138.51015 -143.16248 -143.73790 -145.75946 -145.22250 -145.28463 -147.37900 -147.76254 -149.30581 -152.31377 -149.42358 -146.82297 -140.05537 -135.63365 -133.71377 -131.66558 -130.02688 -128.15827 -126.37935 -123.75654 -122.06923 -125.83139 -128.77511 -133.65907 -133.61979 -148.58525 -154.54207 -137.79535
243.48521 271.06289 293.32112 309.70946 311.18260 293.77482 270.20559 275.92826 284.80377 314.66691 407.91290 401.41985 397.30082 420.02459 454.31639 462.43151 453.88343 436.96237 414.77045 416.54988 426.22067 501.91316 529.44748 589.13061 626.94480 674.32061 666.69387 627.06024 602.23630 582.06685 542.97331 532.38817 532.45882 532.22089 563.64361 581.69658 587.15237 527.73584 453.66449 415.00725 421.55836 280.30160 242.81627 207.94751 203.06156 199.77186 175.56345 156.92726 122.63875 108.73168 97.00737 89.14745 81.02347 83.34524 85.24188 89.52920 95.00563 99.26353 98.56358 88.38860 75.42164 71.40080 45.77410 21.63405 3.65767 -5.13331 -6.53922 -7.66178 -11.38901 -17.21942 -18.89253 -25.33081 -32.02514 -36.82315 -39.00329 -38.23319 -39.33674 -48.40828 -53.87590 -70.14924 -84.27550 -95.55272 -99.55978 -95.28785 -94.34091 -95.22573 -97.47585 -98.84748 -102.93536 -106.07201 -105.35066 -103.26589 -102.37632 -101.01272 -96.98817 -96.42288 -94.99267 -96.60143 -99.00706 -103.02362 -107.13015 -115.81174 -117.79001 -121.56954 -126.29032 -132.55132 -137.78404 -139.96909 -141.15558 -146.78761 -148.55071 -147.85818 -148.23077 -148.16724 -148.91782 -152.22088 -154.59079 -155.09664 -153.28859 -147.74177 -144.63151 -136.89768 -133.81373 -131.90816 -130.50403 -128.52093 -127.62219 -127.42334 -125.21493 -129.80699 -137.79235 -141.96547 -142.05659 -166.24573 -171.78880 -145.99047
279.03233 275.29761 295.52315 322.86633 319.95173 275.04551 250.25176 249.65417 262.04405 298.00829 306.25935 346.17231 373.39503 388.97538 456.50936 460.88888 447.21068 420.52783 412.32149 401.50346 481.14891 534.80917 585.61129 622.42835 644.89635 687.93505 699.96269 740.91941 691.95889 648.42286 613.52592 609.06390 600.38287 574.13210 583.96809 615.79810 609.57528 547.51821 477.98540 453.06308 420.29966 351.27287 278.75288 250.87293 227.97025 256.13044 217.90163 173.65816 153.48663 129.83915 103.93069 100.98488 94.90320 85.36342 82.22889 78.59473 77.66074 89.38670 78.92269 88.56402 75.69328 72.65088 43.42843 31.01431 8.36467 -5.45321 -6.77378 -9.29599 -11.72855 -16.52004 -20.45180 -26.37403 -32.75973 -36.69142 -39.14390 -42.31932 -43.63739 -49.12104 -62.47158 -70.45151 -91.67858 -104.31898 -99.59605 -96.39213 -89.43747 -90.77895 -92.40370 -97.51802 -101.11096 -103.65758 -103.55006 -102.15642 -100.11408 -99.45963 -95.76668 -93.62465 -93.54990 -96.50959 -97.17668 -101.52462 -106.50661 -112.04030 -117.82337 -123.03012 -125.63245 -133.27131 -138.58981 -140.78777 -145.73790 -149.96034 -152.44824 -149.75673 -148.49319 -147.26771 -149.00976 -152.19478 -154.37032 -159.33992 -154.38882 -151.36287 -147.87343 -145.26125 -137.68445 -132.25526 -133.24262 -133.28210 -133.72874 -133.93136 -133.67587 -149.00928 -154.05525 -164.73970 -175.03950 -200.80776 -198.08712 -162.99998
421.37566 348.58663 335.63746 338.79173 309.00504 284.04338 245.40961 232.67611 236.50245 233.08734 273.82857 282.50376 326.19614 353.37319 399.39852 407.84347 385.78755 389.39242 396.87543 413.83970 439.18606 535.42739 579.26336 623.76191 631.85761 593.86024 643.75212 672.82784 655.81428 659.74982 637.80146 630.31278 619.43905 604.73575 596.38836 594.93887 588.17241 543.54080 495.58943 480.57274 423.12601 375.41145 330.54646 315.70190 317.84298 282.35175 274.94369 204.49178 170.39045 147.66863 133.42177 123.05440 111.24633 104.19348 96.11549 77.56191 68.86234 68.45956 70.09225 68.67555 70.16926 55.93460 49.12863 31.37203 10.69625 -1.33731 -7.17633 -8.64350 -12.55479 -17.86325 -20.72418 -28.97712 -31.98791 -37.91354 -42.03863 -47.77193 -51.50476 -52.56255 -66.98462 -85.80691 -96.85983 -98.85781 -96.45004 -90.02299 -85.71505 -86.45993 -88.57170 -94.68344 -97.03225 -101.48487 -100.57422 -99.12689 -98.82963 -96.74267 -93.02790 -91.85192 -92.70885 -94.23766 -98.31031 -101.81475 -106.20699 -113.83607 -117.95034 -119.21889 -126.37114 -137.39590 -139.40138 -142.50049 -146.21545 -149.59734 -151.41805 -149.78291 -147.41496 -146.66807 -148.19088 -150.83390 -156.29038 -158.71540 -159.19013 -155.47193 -153.11945 -151.20553 -139.87244 -138.20573 -136.80321 -135.42482 -139.58326 -143.41526 -155.52596 -164.01710 -188.59279 -193.37058 -214.58833 -221.49889 -233.67427 -189.85795
394.88239 458.79209 387.22148 358.47706 354.66130 293.67011 231.41616 227.06288 223.45480 228.26670 232.40455 266.38599 266.93774 261.06300 264.16928 326.77170 345.53035 332.11760 356.95049 382.20808 432.07487 516.57672 566.28083 594.65132 587.77293 511.11027 546.45599 591.02020 631.21669 629.15504 626.26338 666.50009 636.86184 605.16870 573.90132 560.75101 505.95777 504.20292 491.12963 475.66121 426.74560 393.52168 377.66441 350.91393 343.97785 340.62257 309.30240 260.87250 201.98230 171.30590 157.93479 151.60154 145.06880 109.36541 98.31886 85.50415 69.81246 61.30290 50.45911 48.12382 52.25994 52.95040 35.12427 30.59329 14.91507 2.19362 -6.50861 -9.16384 -12.58943 -17.43826 -22.07976 -29.16074 -33.28696 -38.78025 -43.98902 -50.95062 -56.89286 -64.99419 -70.25205 -88.40440 -95.79547 -96.57493 -91.33883 -88.30499 -84.22041 -83.14310 -87.30149 -88.21738 -94.76223 -97.04252 -99.22947 -97.68764 -96.35922 -93.22146 -90.91835 -90.05975 -90.71798 -95.40328 -99.98466 -101.25583 -106.86300 -114.70866 -116.59671 -121.17802 -125.18601 -136.81548 -141.22541 -142.21326 -146.43483 -150.06939 -150.85047 -149.27524 -149.37236 -147.36089 -147.85951 -150.69308 -153.72371 -161.00029 -159.25896 -156.43115 -153.57806 -156.19415 -145.96858 -143.45010 -141.60195 -140.67074 -141.09811 -145.08498 -161.18520 -177.72047 -197.19851 -238.05465 -254.05591 -247.76285 -277.99059 -322.80691
