373.33285 371.72552 370.42770 365.30381 366.59319 360.29949 357.21229 358.25949 361.29756 357.85216 367.58067 369.52456 371.45103 371.92838 384.85888 397.80628 411.10478 418.03793 429.23466 442.66042 446.56559 454.20198 458.78591 462.09354 461.62279 453.12821 438.64899 420.86781 406.17900 398.57778 383.38348 374.86673 366.56459 364.28174 365.79534 367.15821 380.97638 392.41375 410.52176 425.37381 427.25902 433.69266 429.03445 422.47658 420.02525 416.77135 415.26943 418.89979 433.23486 447.90410 469.47461 481.33449 498.26702 516.24359 528.33056 531.90096 539.62649 540.90534 540.05175 538.49884 537.22667 509.99249 503.70787 494.31778 483.28988 471.01142 466.23939 463.26819 453.47268 452.61305 452.11708 438.04595 437.98328 431.61457 415.33710 413.11484 406.05734 401.57596 397.51966 383.16624 375.93881 358.01685 344.46256 340.95460 335.54939 334.19336 326.98296 321.68782 320.43172 312.29280 310.97363 308.39210 298.19133 294.83080 293.75057 288.52398 284.86455 281.99145 273.29796 269.96114 264.54847 262.89624 259.38918 255.65672 254.19036 258.92685 255.85214 250.16185 247.91984 246.39735 243.84130 235.23252 234.13369 231.65564 225.86601 224.38152 226.18585 227.20034 228.02973 229.67044 234.40734 246.20328 248.47555 249.47422 252.13662 255.76215 251.03843 244.76301 243.83474 241.38548 206.96008 189.77690 185.46413 182.72180 145.58733 137.19691 123.80797 110.20500 95.82311 87.73602 79.86935 77.71421 74.15708 73.26267 71.13096 69.06982 68.84918 67.76500 66.95093 63.92272 58.68650 52.45649 50.23479 47.70485 44.40192 40.07983 36.84469 35.28323 37.61879 43.25175 45.66644 58.14605 61.56433 85.70320 92.27657 102.84060 121.35721 130.10315 142.69851 149.07306 151.49530 164.08702 166.15169 165.75495 163.81172 162.13698 147.05014 143.83935 129.34046 112.70823 103.84669 96.59137 76.14248 61.21979 39.21410 31.63827 24.62713 12.38669 7.47135 1.36802 -0.39802 -3.05226 -5.96651 -7.86628 -6.97363 -7.08141 -7.71921 -8.53734 -9.71211 -10.06461 -12.60590 -13.84458 -16.20467 -17.53593 -18.62832 -20.79595 -21.65251 -23.10982 -26.34859 -29.20557 -33.76953 -37.30675 -37.81943 -40.69581 -45.62518 -49.73342 -52.33192 -55.08039 -57.17441 -63.63785 -68.21895 -70.16260 -73.10645 -77.89076 -82.24157 -87.64620 -92.16281 -97.58273 -100.02299 -102.19720 -105.88176 -108.49687 -111.26855 -115.57338 -117.51985 -120.36290 -121.46964 -123.36986 -126.63988 -128.54877 -129.18146 -131.39060 -132.98259 -133.25205 -134.08913 -134.81351 -135.89212 -135.78874 -135.99778 -136.22214 -136.09159 -135.78952 -134.92316 -134.59220 -133.34919 -132.99939 -131.53616 -130.68119 -130.33179 -129.46850 -127.77686 -126.95220 -125.72946 -125.11486 -123.99948 -123.30901 -122.85222 -122.35533 -121.83147 -121.45664 -121.26699 -120.96366 -120.58586 -120.23580 -119.90474 -119.63216 -119.52729 -119.28728 -118.95941 -118.62726 -118.22228 -117.86901
375.54338 376.94234 370.15311 365.92989 364.33383 356.26837 350.70240 348.62392 349.77034 352.08695 349.28874 357.23034 360.99222 370.05735 377.34318 389.21463 409.48165 418.87524 423.97017 434.37952 445.19966 456.30000 459.73938 464.42503 463.25886 461.57223 443.68333 429.75456 408.24378 394.85806 380.50290 377.33136 362.10792 360.76175 361.93674 365.32468 380.60878 390.67747 406.26779 408.01934 415.30044 419.81799 418.50145 415.24179 413.89201 411.29276 411.98011 423.30892 441.65558 449.33255 468.52266 476.36509 499.07244 514.39614 528.84347 532.96047 535.74393 540.05139 538.87321 538.28716 513.60068 507.00092 495.41123 489.75813 474.95576 467.69030 459.62431 449.96748 448.41123 441.24446 436.85140 430.99920 429.09562 413.24535 405.68025 401.97744 398.02811 393.51014 380.43612 378.99671 361.75274 354.54291 340.75426 329.64247 327.91103 323.85157 317.23329 311.72805 307.71485 307.94486 303.83464 300.30727 297.86302 292.30815 289.65245 286.21638 285.92374 283.75342 274.30062 270.73625 266.19474 263.56568 263.70025 258.19861 262.31530 267.61258 274.30444 260.35776 254.52664 248.59962 250.10635 249.69217 242.46591 235.50769 230.61415 232.01102 228.32303 230.82885 236.92816 239.71565 244.63909 247.66173 250.96812 253.42490 257.71382 258.98939 256.46108 253.09360 247.68485 234.62862 209.67931 201.88056 186.47759 178.01430 156.53662 139.99889 120.34675 113.39853 100.20786 90.70678 85.57974 77.97250 77.31333 76.12465 73.14917 72.43230 71.26922 71.35391 68.37752 69.52075 65.40634 54.67426 49.49320 47.40868 43.13142 39.24329 37.98897 36.67032 37.40720 41.07887 49.97503 56.48807 64.97604 78.66159 91.28538 107.24149 122.34093 127.80286 139.72551 141.80270 150.54211 159.62064 163.54680 162.79770 162.18687 158.98416 152.51292 142.28351 128.68928 119.82203 106.11909 94.09601 82.85181 64.15859 45.12320 43.08457 28.61969 16.30505 6.38514 5.03112 0.77574 0.47674 -2.34859 -5.24362 -6.64717 -6.47171 -6.11745 -6.75199 -8.65662 -9.14500 -10.21825 -12.24949 -15.14880 -16.45365 -18.68682 -19.55156 -21.16673 -21.63120 -24.22364 -26.07206 -30.66406 -34.22829 -36.36192 -37.99998 -41.59433 -47.28864 -51.64286 -53.25755 -57.01647 -60.59888 -65.52640 -66.54754 -71.16663 -74.83976 -81.10072 -85.09752 -86.92196 -94.77484 -96.98862 -101.17046 -103.97036 -107.69048 -110.71068 -112.38421 -117.65854 -120.33320 -121.94582 -123.18533 -124.99072 -126.42792 -127.78177 -129.89281 -130.75799 -131.24438 -133.00940 -133.61388 -134.13592 -135.31926 -135.75459 -135.50650 -134.77940 -134.21506 -133.69413 -133.44088 -132.43322 -131.73073 -131.09586 -130.43726 -129.37375 -128.80865 -127.80784 -126.44200 -126.02555 -124.82063 -123.95586 -123.21451 -122.81112 -122.29248 -121.72404 -121.32228 -121.00321 -120.88903 -120.61441 -120.19856 -119.73320 -119.73128 -119.47983 -119.14609 -118.85791 -118.61071 -118.24161 -117.87307
388.66914 382.73456 381.40150 375.57363 366.88531 354.84050 351.86813 347.41945 345.15647 345.95922 346.99876 351.25565 358.60208 366.13360 373.72827 390.82649 398.84205 418.03139 419.64741 424.86355 440.04445 446.27397 458.12918 463.45080 460.87659 459.18898 438.68673 430.19686 410.91282 392.50194 382.08501 373.09116 362.31292 358.97788 358.33834 361.86715 362.15134 378.88261 389.52605 397.55588 399.67339 410.50706 407.23834 408.02616 404.69810 400.75400 400.85052 406.48259 432.78256 451.44075 464.11882 481.65182 504.81056 520.23786 526.37085 533.18859 537.38806 538.04090 537.22115 536.29349 508.72663 504.10202 491.81897 488.17158 475.15978 468.17323 457.41292 445.86064 440.60707 436.04985 423.96544 427.81914 412.41181 402.68543 400.43126 389.20532 385.17456 383.15820 375.11894 367.99696 350.76365 341.50438 339.06199 322.42907 318.77910 314.23676 312.04673 308.22341 301.64242 301.42866 297.48504 297.46655 293.51338 291.81139 290.34747 289.88057 291.87060 287.28317 282.29828 276.01713 275.21200 269.29354 271.96341 273.89975 279.72446 276.35310 278.05279 287.98197 275.38396 265.69529 262.97106 265.56790 248.32499 242.83775 239.74424 236.87804 241.47150 236.70485 239.20298 245.62650 247.93128 254.26467 255.30615 258.84718 264.41409 265.28014 261.81692 258.02734 249.93654 244.99735 225.26818 202.77272 189.42471 183.56822 155.38681 136.63163 128.21607 111.98141 106.68718 91.61844 88.17303 83.03708 81.13176 81.09163 79.01755 79.35338 77.90475 74.13069 73.99280 73.40877 71.00618 63.98704 53.79557 48.96585 43.55811 40.44585 37.41216 38.18266 37.65719 41.64247 50.99797 65.47346 67.34271 74.87040 88.71157 106.66841 114.83685 130.13573 136.32285 144.20938 151.45189 155.92110 159.56210 161.54122 160.32775 154.30076 148.07857 144.49516 131.59464 119.49948 108.89479 97.33055 81.93915 73.08929 52.27117 43.36057 33.48385 21.51174 14.95891 9.61872 4.48961 2.11334 -0.86651 -1.31057 -3.72697 -5.68400 -4.16514 -5.31528 -6.92332 -7.66341 -7.97507 -12.16172 -13.91111 -14.50403 -16.67363 -18.56260 -19.47624 -20.90611 -23.71178 -26.25814 -26.82845 -30.72651 -35.36714 -38.28757 -38.79872 -42.94282 -48.31049 -51.40629 -53.68454 -54.94172 -62.08999 -63.89687 -69.16367 -74.36639 -76.12633 -81.43097 -85.79392 -89.92597 -96.07251 -101.35154 -102.50266 -106.13239 -107.92985 -109.31828 -114.54985 -117.94807 -119.95612 -122.82749 -124.66593 -124.99447 -126.94651 -128.94553 -130.34658 -131.15381 -132.27475 -132.59881 -133.52954 -133.76632 -133.27930 -134.51266 -133.84389 -133.29579 -133.15667 -132.67307 -132.11721 -131.46308 -130.31354 -130.14155 -128.72781 -128.34893 -127.61069 -126.46641 -125.70224 -124.43567 -123.95195 -123.12881 -122.80325 -122.06091 -121.74622 -121.28379 -120.99917 -120.57188 -120.52961 -120.02758 -119.86030 -119.60954 -119.37539 -119.02871 -118.75919 -118.61108 -118.30356 -117.97933
395.55639 390.76859 396.76009 382.37246 376.15502 362.09824 356.13813 353.05834 348.51154 345.05066 343.81143 348.49107 351.17723 360.96204 373.87192 386.22201 400.62972 406.96339 416.68425 421.20439 429.73637 436.02102 451.32356 453.65620 456.71457 443.29593 438.76050 417.98477 405.83232 395.75146 380.03524 371.29398 363.20946 359.27027 357.77797 356.74390 359.73845 365.94271 383.44194 387.75664 391.44316 393.85237 393.69830 397.26876 396.03127 397.98174 397.00097 400.56765 418.93974 439.06827 464.72052 483.30297 502.60036 510.85074 528.89623 534.26463 536.76516 538.14726 536.54190 527.05100 514.40854 503.62732 500.06295 477.90827 474.50183 467.01007 455.46667 444.22465 434.84828 421.00147 419.71262 408.09673 398.89026 388.18064 386.25553 384.09563 380.04586 372.76681 364.54960 358.87715 342.59723 332.16151 327.81119 320.02421 318.91243 312.33846 305.95253 302.50657 300.27324 296.58207 296.17944 293.56310 294.70213 294.38391 292.59196 293.38630 293.71288 295.14589 284.83738 282.72839 280.28574 283.22594 280.09985 289.94996 290.27116 291.73158 294.42844 299.37300 307.70063 301.68756 298.47218 277.30080 282.40437 266.45402 258.55222 244.41117 245.53049 245.42210 248.73024 251.78777 254.23151 257.28545 263.48737 265.41321 267.67793 269.60870 266.33010 263.14058 254.63535 240.69514 224.22768 204.27397 196.38243 177.26653 165.09866 147.58248 126.57705 111.66563 108.99065 97.77098 91.00160 86.46467 83.28446 83.84087 83.29930 85.25587 85.35475 81.02463 80.74676 75.17842 72.57296 64.77053 61.89238 52.26663 44.12094 42.69936 39.92324 38.03361 38.46996 44.27493 55.63473 62.84634 68.57305 76.19301 86.93105 94.76538 116.68775 133.74541 135.85807 144.33114 152.68921 154.58847 158.13317 158.95907 156.15717 153.08910 150.62289 140.75274 127.93040 124.29533 112.73223 92.95409 81.20854 69.60502 55.23874 49.20400 35.58547 21.66306 15.15575 11.97816 6.63284 4.43947 3.06661 2.80648 0.12004 -0.08336 -3.10622 -3.36100 -5.19839 -5.97985 -7.66511 -9.06939 -12.19740 -13.93388 -15.26749 -17.77237 -18.97018 -20.46592 -23.14062 -24.68879 -25.84443 -29.17173 -30.62437 -38.54438 -39.86971 -40.65045 -42.83119 -48.15533 -49.85762 -54.27013 -58.05885 -62.88116 -67.45811 -70.36261 -77.18929 -80.52036 -84.32446 -89.13660 -95.10811 -97.12444 -101.39370 -104.78785 -106.73797 -109.11215 -113.65215 -114.61779 -118.72836 -122.84876 -124.06244 -124.77477 -126.05865 -127.76853 -128.57220 -130.98365 -131.24184 -132.13011 -132.39897 -132.53332 -132.86071 -133.11214 -133.28977 -132.91120 -132.44285 -132.15057 -131.44224 -130.47652 -130.03828 -129.06112 -128.58870 -127.64163 -127.24530 -126.26795 -125.07608 -124.37688 -123.56181 -123.05234 -122.54288 -122.30230 -121.79620 -121.30622 -120.77519 -120.46129 -120.20181 -120.08154 -119.69633 -119.55882 -119.26366 -119.02593 -118.75434 -118.48516 -118.16346 -118.01240
421.54826 412.07737 403.32723 390.68186 381.52638 374.35367 358.54530 354.44068 350.83757 347.31220 346.00399 348.20636 351.66401 361.04901 371.40750 376.34485 388.44988 395.65972 404.55621 416.53641 424.46471 430.31379 433.97097 438.36563 436.93928 435.57249 428.43071 412.50349 402.39403 391.28035 379.69764 369.97393 364.21512 362.31755 358.29791 357.39301 358.37371 362.52254 370.44408 377.20091 384.61587 384.25760 382.84155 383.22260 386.84875 388.73348 390.83222 397.94766 411.34837 432.21408 453.53686 483.70609 487.96996 506.90580 522.48122 531.65393 536.95068 536.70734 535.68256 531.64638 522.02386 509.69930 502.10979 489.89157 475.13328 465.89525 456.97935 445.58839 439.61457 421.84561 414.57504 404.07970 392.44810 386.12556 382.96007 377.97804 369.20168 362.56122 355.08388 351.79384 339.69364 330.99335 321.80976 319.76221 312.19548 306.05701 300.16221 299.22802 296.30768 293.60937 294.30478 293.92674 295.78811 298.25031 297.80619 297.44365 301.74695 303.90390 298.95876 293.94476 293.54742 310.46793 311.64725 303.98552 306.61505 313.37554 316.29258 320.60145 333.54996 323.13433 315.72426 315.40872 314.41888 297.32515 274.78169 264.17706 253.32969 255.13165 259.19999 264.43274 265.96862 266.74376 268.33614 270.21234 272.15807 273.22492 270.31711 263.37476 260.63975 239.30349 225.07180 215.24074 200.07565 171.19458 163.16903 147.91832 118.43499 114.78592 106.14987 101.48434 96.88457 93.14136 90.42641 89.35163 84.41291 93.12413 88.72015 88.39197 83.91660 80.84976 73.78747 70.60035 64.09400 53.94231 50.61358 43.91378 41.76036 38.50501 38.87026 44.31899 51.48550 59.33826 70.53919 75.49002 82.27281 86.53622 103.65857 123.38727 134.34634 136.63085 147.12996 152.84163 154.89709 154.94580 154.01325 152.04107 145.35455 142.54701 134.58903 128.91231 114.52728 107.41498 75.80824 68.95194 61.87624 52.97452 37.36424 26.71305 20.31231 12.36999 8.24762 5.58312 3.74961 3.32087 3.13705 0.48838 -0.62701 -2.48649 -4.04477 -5.41112 -6.91617 -8.45267 -10.17662 -12.27444 -13.88644 -16.03165 -17.11966 -20.28251 -21.09543 -22.08070 -24.21821 -26.30341 -29.94256 -31.91058 -37.79972 -40.42542 -42.18061 -45.35961 -48.47708 -51.80863 -57.31318 -62.03427 -65.03877 -68.17687 -70.76797 -76.36668 -83.11677 -88.46229 -91.73212 -95.56389 -98.54338 -103.02770 -106.07355 -108.31226 -111.76927 -112.48891 -117.37805 -119.35919 -122.28633 -124.37565 -125.62371 -126.39770 -128.40194 -129.48465 -130.21347 -131.02336 -131.72298 -131.94058 -131.95104 -132.32944 -132.20993 -132.13157 -131.74488 -131.42761 -131.08212 -130.29048 -129.73190 -128.58268 -128.07248 -127.28672 -126.70431 -125.64969 -125.03919 -124.14788 -123.23206 -122.66688 -122.50442 -121.95976 -121.65169 -121.28710 -120.82824 -120.47536 -120.23060 -119.92966 -119.68016 -119.56809 -119.27930 -119.01469 -118.93521 -118.57086 -118.19495 -117.95984
430.54055 428.11598 416.80775 417.98783 396.53113 385.83027 372.01951 367.49019 362.63662 354.06146 352.28219 349.23947 354.46346 356.93157 367.53126 372.50116 374.85254 382.61993 398.53889 404.33863 407.37280 425.08505 426.17033 424.71439 428.44708 429.71196 426.38079 409.95848 397.51999 386.66279 378.79112 370.25401 366.91816 360.04898 357.10190 356.22847 358.33098 365.16110 363.82601 366.85822 372.24964 370.68377 371.74968 372.56230 375.10775 384.87830 387.64541 397.49319 416.99752 428.19673 451.20802 477.16666 487.00325 503.11823 518.46980 529.00037 533.65676 537.60984 536.04163 530.38645 522.40079 512.48277 503.36276 492.97521 482.31192 467.59144 461.53658 452.41392 434.52311 423.00282 414.80496 395.98689 391.05571 381.90879 375.83142 369.78114 358.22290 356.15271 355.38703 340.19493 329.63697 326.17727 318.47487 314.31231 308.20748 304.56707 299.75983 295.94461 294.35058 294.14548 294.86014 296.71751 297.99194 300.39374 306.54242 307.08777 313.28177 313.34626 313.11089 310.11070 317.03312 322.31631 333.51747 348.97033 347.53208 344.58856 345.68392 351.70134 344.76010 342.57960 324.45660 333.24434 320.10000 318.30695 292.39934 286.61956 269.84522 273.17365 274.89707 268.90986 272.43551 274.72121 273.55535 271.60680 274.39130 274.03519 273.29373 264.94112 255.98889 237.47183 228.56971 215.90422 202.08384 176.03379 153.01800 146.54471 129.63070 117.00752 113.00463 106.72257 101.01674 99.88297 98.05582 99.24271 99.32139 97.55310 97.13051 90.76398 91.13989 82.47656 75.33065 73.74987 70.35750 60.25516 50.85637 44.62429 42.03376 39.72776 39.39068 41.75808 48.50218 50.85395 58.95368 75.80615 81.66495 84.85246 100.70170 119.11073 125.59794 137.20738 144.06924 148.13191 152.21544 153.16759 152.69280 148.89099 147.52153 142.26357 136.44948 130.48678 128.70103 114.30318 99.65847 83.12675 68.60315 59.25440 37.24634 30.02082 29.01642 20.29262 8.57190 8.03381 5.72158 5.32221 2.84003 1.06427 -0.65941 -1.07769 -2.93927 -5.41838 -6.73225 -7.76918 -9.73356 -10.76611 -13.40017 -14.47617 -17.16964 -18.27791 -20.25028 -21.15986 -22.97609 -25.48516 -27.56995 -30.10403 -33.83487 -36.97328 -39.39666 -43.91553 -46.80594 -48.23948 -55.31086 -59.13290 -64.34413 -68.35629 -70.36660 -75.15389 -78.58526 -86.14723 -92.02011 -93.64604 -97.87916 -99.54199 -104.77007 -107.00612 -111.54499 -112.87145 -113.97722 -118.65330 -121.08506 -123.21735 -124.23838 -125.92065 -127.03054 -128.94526 -129.25025 -130.16541 -131.28319 -131.11758 -131.17176 -131.22777 -131.43773 -131.43203 -131.12784 -130.83613 -130.27813 -129.73253 -129.34142 -128.40936 -127.71051 -127.16663 -126.28019 -125.40245 -124.83716 -123.72719 -123.12179 -122.48892 -122.14961 -122.01174 -121.73446 -121.33577 -120.81350 -120.47430 -120.14414 -119.99869 -119.74251 -119.54473 -119.22442 -119.05055 -118.67464 -118.49156 -118.25066 -117.96236
455.69067 436.96347 429.82364 423.93742 407.37648 387.75193 387.59080 373.90580 367.96935 369.62578 360.22069 357.35132 357.06021 358.68130 361.38026 366.06613 370.80327 372.90449 370.25252 381.67742 396.67962 405.86835 417.44165 411.81574 416.63449 420.23671 417.55732 404.03691 395.64116 385.91982 380.64158 375.43656 370.63993 361.45783 358.26341 355.10977 357.84490 356.83425 357.74466 362.22273 360.38589 359.75291 361.81777 361.90289 370.65201 377.72442 387.49322 403.50202 410.54168 429.52050 447.98539 469.18349 490.42391 503.92966 512.66786 525.85861 530.04282 534.85287 533.56705 529.48070 519.75256 514.26366 504.52801 495.16846 481.86160 477.39302 471.62380 450.30768 435.80921 422.14251 419.58179 400.34761 385.64149 381.40023 370.39459 360.49326 353.03295 347.53117 346.78043 331.79373 326.41689 321.53636 315.27717 311.95637 307.81123 302.56594 298.67970 296.24873 295.47429 295.24364 295.82120 297.96334 302.96902 309.23937 314.81142 316.32319 316.83017 332.66310 334.72771 333.97575 343.37282 353.21179 361.98824 381.03092 382.94835 383.99410 384.27009 382.89287 379.71402 378.21152 362.36626 343.84875 338.02675 331.78758 317.97103 304.85346 295.68448 292.54422 293.00012 282.51082 279.54230 283.49797 286.04267 282.31218 278.37510 277.03513 272.91662 265.29889 250.95247 235.05175 222.02298 213.57043 202.21353 171.72033 161.64317 142.05832 135.12502 118.21046 112.69044 107.79468 105.45146 105.73196 103.44837 103.17205 104.99040 104.77023 104.39897 93.71779 89.13257 87.15136 80.72537 76.84678 74.08198 66.18046 55.53683 44.67114 43.26328 41.65598 40.77563 42.33721 45.34417 51.99125 57.74894 64.51659 75.08016 83.05498 98.26723 107.69722 124.06889 128.64905 136.81378 141.53886 147.21908 150.58076 150.67708 148.42030 145.93525 142.72016 136.39840 133.06489 128.22582 115.71410 110.06601 88.25350 77.65652 72.79391 49.70539 35.25961 37.68696 28.20332 17.59254 11.28251 8.45477 8.41859 6.89535 3.64023 1.66696 -0.60278 -0.80283 -3.84599 -6.89981 -7.89807 -8.64579 -11.11161 -12.90886 -13.44058 -14.40659 -16.71035 -18.62427 -20.26326 -21.58091 -21.71917 -25.32223 -27.52578 -29.16615 -34.34884 -37.02196 -41.22025 -44.73436 -46.87485 -48.66993 -55.30522 -63.25688 -66.20653 -68.66175 -71.18884 -76.65882 -84.39053 -87.93808 -93.82042 -96.50201 -98.48941 -101.26658 -105.12300 -107.50525 -113.11225 -114.30531 -116.07785 -119.63249 -120.62106 -123.18636 -125.53558 -126.48142 -127.43387 -128.70066 -129.42997 -129.90054 -130.40225 -130.94923 -130.76136 -130.23340 -130.49207 -130.39980 -130.01044 -129.70400 -129.45421 -128.75954 -127.88293 -127.53652 -126.72749 -126.03442 -125.32803 -124.25672 -123.35550 -123.04048 -122.46258 -122.05382 -121.79742 -121.63885 -121.21383 -120.86410 -120.49224 -120.20368 -120.08399 -119.77069 -119.51544 -119.20908 -119.04951 -118.75433 -118.48502 -118.25409 -118.17107
487.29979 455.74184 448.57380 437.60512 435.03211 411.65811 408.40339 390.07309 386.07200 373.07285 364.71241 363.51217 359.70348 358.54330 358.89730 356.58800 361.64319 361.13574 362.27699 361.21699 367.01772 394.22575 410.32987 408.01386 407.86217 408.27980 407.85099 400.25464 394.96638 384.56355 380.64404 377.20717 376.85797 363.97137 358.42289 352.47446 351.11528 352.19631 352.13574 353.83467 356.88719 356.23288 356.04242 358.60325 364.29203 370.24458 382.38491 399.24640 417.91629 438.98047 448.92784 468.32157 489.62884 503.29281 515.18124 523.47387 527.77089 533.28791 535.06284 531.36997 518.21459 515.64512 510.16860 504.88087 489.08596 485.74704 476.56863 459.11031 440.51736 430.61497 417.02406 408.64125 388.15931 376.02725 368.44490 358.84422 354.54618 346.27863 337.78531 335.17693 327.25269 321.69655 315.87488 313.11011 308.36396 302.49390 299.14382 296.98650 297.50922 297.46864 299.14446 303.03479 306.18525 312.63210 317.54201 334.54902 337.66440 342.25813 368.61365 370.68619 366.20441 371.30567 383.80220 386.18079 395.35571 394.72815 412.47450 418.91704 399.80426 396.98808 392.64664 374.80109 373.02194 355.97619 335.94694 327.88155 313.04156 312.69807 306.13881 291.70994 283.94262 288.29386 288.48154 286.70884 282.13663 277.27579 272.76801 267.07257 251.14195 232.49472 218.22764 204.40731 199.36956 187.56124 161.63616 141.66198 132.44268 117.07428 111.46353 111.22364 109.53944 111.62279 111.81959 110.97489 110.92191 111.55631 109.42683 104.44389 96.69485 87.10057 82.76141 76.82365 74.23977 69.98748 56.48301 49.77730 44.80011 43.46501 41.39131 43.80781 45.28476 50.27031 57.03620 65.72836 75.32153 78.66804 90.94744 106.72216 110.17299 125.22737 129.19108 140.42108 143.18205 146.34547 148.49341 147.14574 145.88895 145.07171 139.17968 135.46010 128.42666 123.24425 111.86790 98.27327 84.51734 77.02120 56.76600 41.49436 39.37316 33.59948 27.34390 19.31983 14.79702 12.27246 10.74197 7.37713 6.08529 3.00763 1.76414 -2.56495 -5.09620 -7.16029 -8.68927 -10.74759 -11.50132 -13.86428 -14.34450 -15.50281 -16.38982 -18.81140 -19.32480 -21.29651 -24.16583 -26.70243 -29.17552 -32.39458 -36.47868 -40.12288 -42.22351 -46.45126 -47.97639 -53.28649 -60.26417 -65.82045 -69.07397 -71.28934 -73.96808 -81.85588 -85.78507 -92.17110 -93.61571 -98.69907 -100.63245 -104.00711 -108.60246 -113.72413 -114.09499 -115.28725 -118.08379 -119.55102 -121.77661 -123.17192 -125.88880 -126.56182 -127.84067 -129.35823 -129.35990 -129.98363 -130.01200 -129.80903 -130.04512 -129.85865 -129.89842 -129.48561 -129.12519 -128.74634 -128.18170 -127.86511 -126.83594 -126.02385 -125.77665 -125.12732 -124.24481 -123.11782 -122.69220 -122.29229 -122.02975 -121.80357 -121.54930 -121.24508 -120.82907 -120.45039 -120.30888 -120.09983 -119.68322 -119.35277 -119.27122 -119.01486 -118.76396 -118.45428 -118.24988 -117.97614
504.37012 489.94217 468.58724 461.79095 458.46228 444.18253 421.49536 415.24075 395.93316 387.57508 373.73455 370.96481 362.55630 358.76888 355.59581 353.67097 349.63317 345.31237 347.41869 352.22648 348.40475 369.41239 384.36619 392.71142 396.62759 393.33201 394.17329 395.32665 389.03967 384.17828 379.64096 378.95321 376.66405 367.58733 360.39858 357.42009 351.15639 350.25478 349.39778 345.33009 351.51214 349.76793 350.62775 358.84858 360.30133 369.00649 383.00702 402.46246 413.43066 437.01588 453.49015 472.04744 483.28854 499.85521 511.32392 517.29089 524.60651 530.11749 532.60730 530.58174 521.72881 515.47408 512.08564 505.39218 498.78106 486.43783 477.69183 465.64180 448.45575 435.35553 425.20657 412.63099 392.52441 381.33175 369.17098 364.65437 356.96557 343.50673 341.64226 337.92095 327.21529 321.16933 317.39028 315.90002 310.65834 314.30109 306.77955 300.13621 300.42551 301.94928 302.29546 305.01701 316.22183 323.63580 327.87833 346.12838 358.91636 361.86715 381.70797 395.15862 404.94126 414.90681 410.87220 424.97604 449.26651 435.94093 447.69662 433.65958 428.04390 430.00198 414.60165 397.92743 388.39309 380.25131 348.81858 340.75968 334.84532 323.37160 320.20274 310.32493 301.39662 292.98389 293.51368 292.86582 287.24271 280.58719 268.23405 264.06538 247.26863 229.42073 215.33832 200.72444 194.37912 186.24327 163.73002 145.83843 132.93317 126.67560 113.61737 113.33009 112.84651 113.78098 115.47069 116.84549 117.41416 117.04189 112.88489 105.27286 102.44354 93.72530 84.30353 78.53161 72.88235 70.49272 60.45747 50.92465 45.68596 44.00361 43.42370 42.64284 47.37263 50.19570 54.62948 63.60745 69.45358 75.69113 89.90316 97.43503 111.97842 116.73564 128.45249 131.20653 142.36469 143.97674 146.41705 148.23408 147.55047 146.21284 143.09544 136.47481 132.30967 125.71605 115.62296 102.86907 88.49596 75.59697 65.13368 53.54341 45.46932 42.63409 35.41290 23.28782 20.67780 17.92416 13.40934 12.83208 8.31885 6.55597 4.09709 0.29177 -4.28080 -6.82890 -7.48297 -9.45975 -10.70852 -12.99877 -13.98882 -15.02582 -16.16926 -16.80747 -18.39470 -20.03553 -21.42023 -24.43923 -29.05858 -31.99856 -33.72219 -38.09695 -40.20248 -45.92177 -47.80938 -51.07199 -59.81348 -64.81161 -67.15847 -71.75034 -76.19449 -77.87238 -85.02674 -90.10913 -92.80280 -98.42816 -100.17029 -102.07195 -106.22392 -109.38685 -114.11600 -116.25309 -117.61944 -118.94982 -121.08806 -123.05941 -124.18107 -126.08737 -127.11043 -127.51764 -128.51519 -128.30259 -128.81096 -129.43175 -129.63123 -129.73053 -129.60944 -129.13852 -128.82543 -128.52332 -128.07223 -127.30775 -126.67844 -125.91198 -125.11788 -124.82323 -124.06167 -123.16416 -122.57073 -122.39057 -121.99455 -121.76404 -121.51639 -121.18413 -120.98330 -120.50673 -120.28431 -120.01091 -119.76240 -119.46301 -119.15477 -119.02610 -118.78968 -118.55747 -118.27294 -118.00729
529.50251 504.22716 491.57809 479.10196 472.40051 457.97884 447.87065 419.21397 397.88849 391.38397 379.35112 373.50579 364.47104 354.04133 351.11740 344.35044 331.71985 334.89318 343.56963 334.36443 337.94534 325.20602 350.02786 365.79138 376.90050 385.29906 381.30100 383.71568 383.39652 383.50968 380.57611 377.57298 376.94606 367.77993 361.78912 354.13619 347.44091 346.20984 334.10411 340.97752 338.23686 339.02859 340.59342 353.49213 359.53025 371.66376 375.52782 405.00621 421.71383 442.07871 449.48745 462.77783 478.45650 488.78200 504.29744 518.00797 522.75531 527.94119 529.61906 530.92898 526.63567 519.37644 514.95755 509.85404 500.34792 496.88750 484.47854 465.68092 450.41031 444.58304 430.06612 413.66876 401.25181 391.61639 377.33645 365.71706 363.42723 359.48395 349.46076 347.96009 343.42222 340.94180 329.27669 323.89622 328.68619 321.16952 315.87042 311.38189 307.55375 303.37909 309.85311 313.52900 326.44739 331.27084 340.33046 351.95670 372.50350 386.19100 408.01228 413.58067 428.86077 430.25879 451.15014 459.48350 467.91365 478.69252 461.58747 471.26150 457.71392 450.98157 437.48009 418.48009 410.15608 397.69908 370.78246 350.08931 344.53729 340.87903 327.32467 323.99744 317.04004 302.08710 296.47580 293.29540 289.01551 281.66126 265.81535 256.81859 239.54073 227.63213 211.69606 196.96885 184.70730 178.42079 164.75883 149.65136 143.37219 121.86345 119.03285 114.57112 115.16504 117.08881 119.14338 119.63833 118.84159 118.84204 114.36213 110.73760 104.09402 98.16579 86.88939 79.83897 76.32959 68.64370 58.23035 52.73927 46.29875 45.06787 43.33007 43.55493 47.50056 48.99005 52.75189 59.93215 63.78622 68.97143 81.43991 91.00638 104.80060 107.26543 121.22254 124.76871 136.54188 142.47041 145.10143 148.49739 148.06177 148.32348 148.31744 142.74911 135.81310 131.19722 120.29222 109.45661 97.06046 83.33960 67.08003 58.26555 53.81920 44.83326 36.49321 28.64277 26.11094 19.78119 19.29495 17.96986 12.18833 6.88966 5.76939 4.66127 -2.25028 -6.00896 -6.76940 -8.22705 -10.15397 -11.54163 -13.60306 -14.42624 -15.22064 -16.81721 -17.54004 -18.46048 -18.72424 -23.10748 -25.28631 -29.74452 -33.96147 -35.64263 -38.49567 -43.06491 -44.55340 -46.26420 -59.96083 -63.15913 -66.53799 -71.02629 -72.87679 -77.90976 -84.00290 -87.82633 -89.57842 -96.41184 -99.98255 -101.59826 -102.06988 -109.71131 -113.55254 -114.18066 -115.13211 -117.40068 -119.49642 -121.57580 -122.51713 -124.47938 -125.68011 -127.17226 -127.73013 -128.05454 -128.30531 -128.67477 -128.88949 -129.21666 -129.29584 -129.04061 -128.54454 -128.18554 -127.59957 -127.16768 -126.40120 -125.98463 -124.86234 -124.43318 -123.89588 -123.21733 -122.60708 -122.17168 -122.01972 -121.67464 -121.51596 -121.21049 -120.93218 -120.52248 -120.25316 -120.08479 -119.80494 -119.43355 -119.10614 -118.98835 -118.74946 -118.42072 -118.24283 -117.99099
540.80590 508.46336 507.18248 496.42045 480.90413 476.59259 458.42933 449.34752 413.24581 405.64294 385.02539 375.59243 371.79612 356.62968 345.71866 334.14408 325.13233 317.48516 315.44733 318.55629 321.03639 316.05957 330.15195 346.01428 348.03608 366.71689 377.44751 377.41571 379.62184 378.36392 379.67875 378.73615 372.38963 369.78842 353.94233 350.23058 339.73707 334.71400 327.70023 328.76653 327.90154 331.46750 336.43457 350.90656 360.33781 371.76111 381.93690 400.28901 424.52105 438.84709 451.89363 464.10794 472.83937 490.09332 496.19106 509.42978 519.54776 524.71819 528.86872 530.00546 530.30882 524.87627 520.14873 512.91601 508.57229 501.50169 500.50244 471.88174 457.65708 451.31193 432.67013 427.40440 418.35588 394.24630 385.45168 374.00977 370.23546 362.59131 360.32525 358.89372 359.43789 349.18384 346.88477 338.05203 334.53781 330.69575 331.17007 327.92052 323.78174 317.06738 313.61982 328.18931 336.74961 343.56491 355.01538 372.31329 394.45598 402.25645 419.36624 435.76679 444.79669 458.44204 476.96385 481.16390 487.36647 494.07458 496.61062 498.93714 486.09110 475.57555 452.16406 443.46227 427.66809 419.79549 390.13133 369.47499 357.80458 345.77972 341.05593 332.36510 319.15656 311.45284 303.36706 291.67967 284.81035 280.79570 268.04731 248.85126 228.98323 219.95104 205.98233 192.16509 181.91021 167.00030 163.43348 148.45588 139.30023 126.16767 119.94765 116.92289 119.05728 119.95546 121.20435 121.66908 121.10598 120.06186 114.83796 111.79215 105.43491 98.32290 90.50426 86.76835 74.77098 70.61343 59.06516 53.62913 47.17126 44.66681 41.91285 42.65153 43.88985 49.62994 51.85038 55.31367 63.51020 68.02156 74.60186 86.45766 93.97518 106.16317 116.09184 124.85968 129.89535 138.25576 144.97348 149.32016 149.60001 150.01214 148.89705 146.23546 144.21666 135.20334 126.73816 112.00856 101.27412 93.18649 73.74131 63.56174 56.09927 53.34470 43.00407 37.24450 28.11010 26.56375 25.06815 20.66365 15.29658 10.37418 8.32329 8.25087 2.68067 -1.81904 -5.27956 -6.20828 -9.12208 -10.40588 -11.82818 -13.59710 -14.28300 -15.62894 -16.53487 -17.61996 -18.25919 -20.22350 -23.82351 -28.59860 -32.82153 -35.41058 -37.51554 -40.30969 -44.65726 -47.12235 -55.42748 -58.47146 -64.54458 -68.29392 -73.84212 -78.50268 -83.95684 -85.55811 -87.94716 -92.94094 -98.23343 -99.64748 -103.52813 -108.45876 -110.70202 -113.43703 -114.69032 -116.35690 -118.77067 -119.84226 -122.46120 -123.58545 -125.31680 -125.97838 -126.40146 -127.14571 -127.73089 -128.55274 -128.48702 -128.62474 -128.80435 -128.67878 -128.16209 -127.89145 -127.47960 -126.71668 -126.18719 -125.68750 -124.69538 -124.24800 -123.68042 -123.13388 -122.67473 -122.15130 -121.86729 -121.59842 -121.40771 -121.12012 -121.01796 -120.55622 -120.29274 -120.16604 -119.85322 -119.64536 -119.32400 -118.96887 -118.71910 -118.38503 -118.12923 -117.96724
610.32957 564.97338 530.79015 524.57928 500.92822 486.69244 482.62566 464.99422 439.00146 418.34782 399.67867 379.02607 368.27102 354.28778 346.59095 323.61617 316.68160 306.74935 303.45391 303.54013 307.34220 313.07502 313.49291 326.97454 344.96994 358.84708 365.76675 367.89075 370.52885 368.39612 367.51695 371.40582 366.33760 363.41145 352.26852 344.57311 335.53860 327.81577 322.09641 321.38020 322.81530 330.03175 331.65676 344.16579 359.20005 372.58800 379.55105 404.05521 420.52590 445.62254 457.66277 461.93728 477.41496 487.71165 496.67079 507.23141 517.86808 522.09949 525.27439 527.94121 528.73949 528.43086 521.57394 519.38728 511.78070 509.63985 509.60620 492.89515 474.78232 462.07994 460.87421 447.34818 427.16621 417.78437 394.16782 386.68235 377.33503 379.29510 370.30776 366.02636 361.61991 366.14288 360.31111 357.08533 360.11184 360.30260 351.14877 350.73579 343.23872 340.04368 346.56141 344.60713 345.76937 350.95141 369.35247 386.05704 404.63329 424.93570 429.51878 446.78451 464.99524 480.70302 489.21111 491.68429 502.91207 513.32285 521.06602 521.99207 507.59993 500.39297 473.07368 456.11216 435.83913 426.49950 411.50254 388.08576 364.30845 363.43970 347.21197 336.54207 325.33817 312.40638 305.72835 293.73328 284.89841 278.27141 269.53160 248.34190 233.85867 210.01152 200.49253 190.73986 181.97828 162.43432 148.65130 145.77597 131.52593 124.26893 121.62767 116.62772 118.66475 120.12394 121.65187 122.31241 122.17425 118.69504 113.24945 109.28060 105.38371 96.77604 93.32316 83.03067 74.18918 65.32859 56.39703 54.53452 48.48052 44.74019 42.04546 41.87045 42.99291 44.92278 49.15715 54.19124 59.40165 62.66199 76.91860 81.54057 93.71321 104.02081 114.79388 120.45351 129.51299 132.84727 141.40150 148.35608 151.03567 149.98023 151.82686 151.82951 148.90094 144.71390 129.26921 120.63150 104.26597 101.22631 85.47149 71.23201 62.16708 57.68167 49.72162 41.20577 38.45666 30.47777 27.19155 25.37568 24.25585 17.12935 11.55521 8.86523 4.39587 0.03594 -1.49336 -5.31863 -7.74745 -10.45335 -10.99838 -12.46819 -14.04843 -14.81977 -15.57408 -16.55782 -17.84892 -19.92491 -23.72730 -26.96834 -30.80959 -33.40266 -34.70688 -40.66848 -42.56253 -46.75321 -53.96230 -57.58208 -60.20115 -66.29829 -74.33981 -75.67021 -79.31828 -84.02712 -87.41883 -91.01264 -95.91920 -98.79197 -102.59814 -106.23758 -109.86499 -112.33933 -113.13600 -114.89680 -117.11027 -119.20132 -120.97129 -121.90470 -124.15336 -125.45475 -126.01366 -126.66352 -127.41722 -127.86207 -128.17238 -128.45735 -128.34718 -128.22719 -127.86869 -127.70692 -126.94048 -126.68397 -125.97373 -125.16950 -124.69531 -124.05961 -123.30412 -122.77014 -122.56420 -122.21119 -121.85058 -121.55582 -121.41911 -121.13770 -120.84730 -120.60253 -120.39362 -120.03067 -119.83488 -119.72329 -119.25038 -119.02633 -118.88268 -118.44038 -118.05549 -117.89654
627.75952 577.48239 560.36180 537.77686 509.89341 502.75606 485.14058 467.49635 453.10996 432.49390 408.47699 382.27135 371.53141 364.32114 337.66305 328.46869 311.05008 303.95917 295.00839 293.48260 300.15773 303.72125 307.77168 322.93403 330.66592 337.65070 351.36819 356.50973 358.17807 363.78241 362.64943 362.49854 362.62083 353.50190 346.29321 333.19375 330.58431 324.77989 318.89130 318.12833 319.28193 322.15074 331.65972 340.52627 355.09637 368.71207 382.02185 400.87275 416.52630 439.98367 451.02976 465.02928 468.53163 486.81618 491.19164 501.42147 510.47949 518.76053 524.70107 527.05325 528.55382 527.58849 526.01315 520.18073 519.33778 512.67878 515.70217 504.28951 484.30117 475.24958 474.35258 461.11593 448.73472 426.59066 410.34234 409.30695 398.58233 386.90566 392.12751 385.08325 380.11176 375.14060 379.83672 381.38677 373.09712 372.87886 362.37362 367.86142 363.91434 364.65134 362.85049 362.30575 364.22057 366.95891 384.45296 397.84727 417.06693 428.16722 439.52145 457.39559 475.17504 486.98759 494.44494 504.16949 517.46166 525.83532 525.25454 525.04804 524.19726 508.76795 486.64013 477.07235 455.68718 429.62152 415.82728 394.23689 383.25608 366.79438 356.56933 342.65426 327.90075 312.81486 306.50397 293.48746 288.31948 279.49088 265.59652 244.93325 218.10886 202.22986 198.15010 184.87026 170.06851 151.89238 147.17773 137.87546 129.74947 119.81219 115.43445 115.70858 116.33079 118.89860 120.52521 121.52698 119.61930 118.47564 110.24791 106.46898 101.76482 97.83212 92.05047 80.78288 71.51391 65.41760 59.20237 51.49792 48.28333 44.46237 42.33184 40.60392 42.11167 43.09678 47.23454 49.85757 55.06498 64.76473 69.39049 79.72700 91.14058 104.82941 111.19896 120.77953 124.59638 131.14663 142.00605 151.02631 151.92536 155.75851 156.80376 155.55330 153.36363 150.26243 150.35497 128.91009 126.12686 108.46216 91.83902 79.94654 71.99505 65.59274 60.17030 51.24354 45.00355 36.45353 34.99880 31.24689 26.06407 22.59406 16.81461 10.11096 4.83532 3.24088 -1.67974 -4.86775 -6.40632 -8.99837 -10.78486 -11.85379 -13.44838 -13.80511 -15.02059 -16.39555 -17.27845 -20.70319 -22.28074 -25.10888 -27.88485 -31.64509 -34.70922 -37.63626 -40.51002 -48.41865 -51.19530 -55.76406 -57.92192 -62.22281 -69.39049 -73.15350 -77.67086 -82.79880 -85.95210 -88.91305 -90.07623 -94.98455 -99.49280 -105.57540 -108.57723 -110.54694 -112.03399 -114.77352 -116.68046 -118.71532 -119.84902 -121.40168 -122.10721 -123.89825 -125.01509 -125.72459 -126.74540 -127.02977 -128.05988 -128.03268 -128.03955 -127.92469 -127.71101 -127.59823 -126.85793 -126.22509 -125.87495 -125.38323 -124.98494 -123.96909 -123.12271 -122.60579 -122.52568 -122.12239 -121.80501 -121.54303 -121.32927 -121.26831 -120.82233 -120.48900 -120.40927 -120.09968 -119.89175 -119.64082 -119.36140 -119.17481 -118.82745 -118.44854 -118.05942 -117.85474
632.31702 619.61016 579.92635 539.08607 531.26561 503.91682 491.17231 470.66714 454.65243 449.30869 421.45959 393.60564 375.32797 355.02341 337.82244 325.06740 305.27110 295.60016 289.75049 289.91256 291.71077 298.00157 303.34710 319.06312 325.37321 333.57691 334.02897 347.53991 344.03516 352.73458 352.21278 352.81247 348.23938 340.78889 340.12320 332.51002 322.77079 318.09235 313.61460 312.85691 314.51862 318.02119 324.11022 337.66719 357.13666 372.72329 380.66283 400.79384 417.31173 432.39606 443.06728 461.53786 472.21132 482.01794 495.21482 503.45600 511.75202 514.31493 520.53430 525.16533 528.50270 529.67151 527.53828 527.83877 525.26468 521.42772 519.34007 511.37564 504.57229 496.23173 481.16636 477.43444 460.56014 454.55158 432.64676 421.92773 413.80349 408.24946 405.55347 401.24123 386.22955 395.68108 387.81917 386.25361 398.11863 402.10323 390.77272 375.85157 377.00434 371.44418 376.29928 383.50975 383.89658 393.55502 396.68130 405.71567 424.15088 441.80169 459.30643 470.83739 480.25278 487.68038 504.44078 513.38467 524.04183 527.23850 531.04816 530.08219 526.25129 521.59881 492.78829 481.67108 460.13241 435.72584 416.45419 408.46432 390.80076 377.29548 362.00604 342.46077 323.89067 308.66290 306.41573 294.40807 283.92736 274.99354 262.34921 242.71626 221.37829 202.33173 189.45881 181.50574 169.08443 150.85182 139.71176 137.31919 124.58741 115.49632 114.80938 112.09620 115.29011 116.22148 115.90293 116.00808 115.12921 109.80060 105.04631 101.00690 101.06030 88.31760 86.79300 80.79144 72.42556 63.58096 60.13765 53.92610 48.11021 44.07977 41.52281 40.78398 40.44489 41.17162 44.99126 48.16409 49.89713 58.77158 66.54629 75.97902 91.98147 100.81816 111.49869 115.08819 124.53083 131.41511 141.97955 151.25704 152.76027 157.52974 159.51752 160.98477 159.22550 153.51858 150.92910 145.44859 129.16014 120.49144 103.49702 95.01327 82.84746 71.59615 65.83013 56.18184 49.86527 47.01664 39.15848 34.21271 31.80184 25.82882 24.64607 16.24597 9.34411 5.48974 -0.19408 -3.11192 -5.71593 -7.68404 -9.86017 -10.86113 -12.87973 -13.98221 -15.10076 -16.36195 -17.53303 -19.03462 -22.32372 -23.68343 -24.38564 -30.27801 -31.63020 -35.09144 -38.90586 -44.62663 -51.32094 -54.41740 -57.77025 -62.88088 -67.93017 -71.64193 -77.26004 -80.86079 -84.69515 -86.80476 -90.72825 -93.34742 -98.68883 -101.90906 -106.51344 -108.85544 -111.53930 -114.00965 -116.61188 -117.32555 -119.10128 -121.06253 -122.01903 -122.69540 -124.38770 -125.15741 -125.82874 -126.80019 -127.22690 -127.80244 -127.83350 -127.60201 -127.33741 -127.20782 -126.59894 -126.00266 -125.52661 -125.35197 -124.69853 -123.38659 -122.85054 -122.49793 -122.28168 -121.92669 -121.66315 -121.50197 -121.41153 -121.05506 -120.92641 -120.60647 -120.31260 -120.18186 -119.91103 -119.62593 -119.44412 -118.96066 -118.64970 -118.46873 -118.13408 -117.74005
658.70741 641.46673 614.72178 567.72467 552.93937 523.12413 507.44459 476.90216 464.70098 453.45552 434.26409 410.72997 381.51708 353.93981 348.75781 324.33361 306.56004 292.25843 287.46914 286.90939 289.51315 294.11441 297.29514 308.84611 318.31125 327.60209 330.13923 331.45607 338.31766 340.91015 345.43756 340.69235 342.97360 333.86806 329.40368 327.34023 320.93865 312.12970 311.05678 310.47762 310.88292 315.26388 323.66986 334.63624 352.20077 363.77111 383.75835 396.49540 415.24395 428.16628 443.55485 458.93720 469.16108 482.66775 492.00811 498.75695 506.97493 511.87592 517.43031 524.36236 527.26200 528.36145 529.41313 530.59062 531.02542 526.80654 521.56557 525.99026 520.43733 503.48241 498.03278 485.03118 483.31805 472.78585 462.15732 434.77189 442.66366 429.20051 429.33780 433.61545 444.29261 430.13314 415.53431 418.49196 429.04485 416.03243 417.89853 401.45925 398.01147 385.37901 387.35793 391.03960 394.17233 397.13855 417.66822 425.64615 437.65692 448.01674 463.32677 476.11197 478.68159 489.18481 502.07091 512.12594 518.08478 529.25178 530.47934 530.45972 520.71074 506.66042 499.15449 476.35183 453.96208 429.24513 421.60906 401.11750 391.36017 378.37313 362.92726 342.71515 333.48438 314.04700 305.49551 296.52838 287.23770 285.70737 264.95623 235.17606 217.73577 206.75553 190.48344 172.72748 156.29384 151.47983 137.27688 127.40693 116.52267 112.76313 111.67403 108.19277 110.43221 111.11190 110.83851 109.18237 104.68451 100.78923 98.42008 94.55661 89.86889 84.73736 83.94400 79.70374 71.81402 67.01640 57.32435 53.98292 47.66210 44.69424 42.91311 40.23232 40.21587 42.39461 43.24370 46.63980 49.20795 52.09681 61.96660 69.54169 71.61657 98.75802 108.39871 110.07101 119.58233 130.74282 136.25514 150.33516 154.22965 156.91786 159.73589 162.59799 161.76098 157.60101 154.44307 152.66034 138.63256 128.67971 114.50836 92.76744 87.62415 77.92821 72.67086 67.54496 58.25650 53.96961 44.46009 41.43838 33.16637 30.89728 25.02443 19.85768 12.56601 11.47826 6.71901 1.04352 -3.82971 -4.84718 -8.00191 -10.29506 -12.21297 -13.78670 -15.43144 -16.18742 -17.67539 -19.67402 -22.19055 -22.97815 -25.80329 -28.79083 -31.24377 -34.92323 -37.17377 -43.40672 -46.82083 -52.06352 -57.41578 -61.32767 -66.66326 -70.33896 -75.05855 -80.88018 -82.43141 -86.40707 -90.36437 -95.55978 -99.56772 -101.32893 -104.57794 -106.98959 -109.83975 -111.73515 -115.24027 -117.26104 -119.05252 -119.88792 -121.28347 -121.92512 -123.36852 -124.43322 -125.12371 -126.01451 -126.72696 -127.06830 -127.14423 -127.16995 -126.84802 -126.79176 -126.51559 -125.86587 -125.62741 -124.76358 -124.56028 -123.12989 -122.87314 -122.49155 -122.28725 -121.89915 -121.67740 -121.44165 -121.37602 -121.19000 -120.87052 -120.72827 -120.41837 -120.15395 -119.91753 -119.56475 -119.42118 -119.12658 -118.76392 -118.48223 -118.14733 -117.70973
708.66733 661.50063 644.88843 588.40594 562.07331 540.67702 517.57712 486.72894 466.84241 453.04454 448.63542 431.98424 409.03249 370.50737 356.79388 327.39809 308.22378 295.28471 287.26571 285.78632 286.71478 288.95573 295.40319 301.91469 312.19223 316.83735 322.87560 326.63284 321.83754 326.22623 329.58727 325.79463 326.81483 323.80692 322.07684 321.48593 311.62148 307.30640 307.47538 307.89445 310.90698 316.79862 324.06587 331.93415 333.33440 370.78645 376.75446 395.33626 410.36533 427.35120 435.94287 453.81944 466.72035 479.10579 491.04562 497.31723 505.32874 508.18643 514.71556 516.87994 526.33901 527.30106 529.04364 530.58723 530.81139 535.51191 533.64325 536.14502 526.42742 524.17637 509.29212 506.01362 498.17040 480.76729 475.90227 469.90096 464.33585 458.10237 460.24809 467.70118 463.29524 453.63924 451.72860 447.12244 440.11116 448.37948 448.84182 428.23727 416.98032 407.24057 406.59251 408.36396 411.16161 423.63760 422.73520 438.00831 442.39520 456.68732 464.26481 477.56488 485.10437 489.15638 498.16025 507.01553 510.31200 520.53623 527.45275 524.96353 511.49677 505.87525 498.54431 475.82090 454.22766 436.76562 417.80259 398.44535 392.96789 376.24471 365.98458 348.40986 331.49517 318.97155 299.55610 295.39272 286.19602 273.84268 260.34583 241.98105 222.79908 202.54477 192.00727 174.83696 151.90652 142.04126 135.06380 125.81084 115.60270 110.27103 106.35920 106.41781 104.27850 102.54769 105.36313 103.17057 102.63492 96.66160 89.13119 87.73263 86.92594 81.41402 77.58007 75.44288 70.46107 66.88662 56.37220 53.22021 47.36211 45.25288 42.44406 41.13456 39.83669 39.96724 42.61835 46.02776 49.87054 52.20588 59.50743 67.61153 78.07820 93.53253 100.80328 109.74845 113.75449 128.14147 134.20090 145.36623 153.71685 159.92560 162.97214 164.39853 166.29539 162.52307 160.45377 154.45772 143.11319 134.15402 116.91425 111.11213 89.23073 85.82776 76.90362 74.38096 66.65927 58.88031 53.03976 50.91489 42.76041 34.24744 30.15360 22.57251 15.80123 12.08899 8.11114 2.31646 -0.50566 -3.46255 -6.83667 -10.00883 -11.52352 -12.58313 -15.49192 -15.99477 -17.87151 -19.36880 -20.55835 -22.78799 -26.22915 -27.37674 -31.20531 -34.22831 -35.54658 -39.45995 -45.09085 -50.75186 -54.87316 -60.09477 -65.62650 -70.44728 -72.33866 -76.67136 -82.19807 -84.13606 -88.18538 -95.89991 -97.10979 -101.19474 -102.82697 -105.13457 -107.70958 -110.68552 -113.85795 -115.52947 -117.83847 -119.48028 -120.56369 -121.62014 -123.18377 -124.11792 -124.73634 -125.59178 -126.62173 -126.74696 -126.89780 -126.83481 -126.75628 -126.63335 -126.25874 -125.63096 -125.25445 -124.81473 -123.99660 -123.76727 -122.97819 -122.45316 -122.33493 -122.04757 -121.73251 -121.49497 -121.31760 -121.27564 -120.99954 -120.74451 -120.45339 -120.20448 -119.94888 -119.56075 -119.28154 -119.14604 -118.82140 -118.49333 -118.27215 -117.84433
745.77049 698.31334 660.74504 616.67338 578.44657 550.29809 520.72480 496.94715 476.91783 454.34560 451.74554 433.61178 421.07823 387.76322 364.25613 333.95950 316.76596 299.46236 291.74073 284.79011 285.25323 288.16064 290.36186 291.46202 298.92754 302.01755 307.03830 313.01954 314.03342 314.35420 317.61082 320.69878 315.64030 316.10986 308.77185 306.08059 305.20843 306.14425 305.52789 307.41142 313.90890 319.17618 322.88662 331.34198 335.46404 361.38158 375.25225 393.48557 407.77124 425.24079 431.31494 448.96515 468.41131 472.20769 484.84132 492.57811 501.92824 500.49524 509.81041 512.32026 516.36761 520.95956 528.90056 531.48685 536.36859 539.88891 547.38710 547.81411 545.41398 532.36867 527.63925 525.07262 505.67489 500.98925 496.23067 490.58230 480.85408 482.23701 475.35074 489.89583 492.27064 493.11387 485.56137 469.12341 461.39806 462.73863 457.21245 459.64431 455.68525 433.84038 429.62458 430.95807 419.83163 432.44576 437.92664 444.21899 451.28860 454.90716 466.26747 476.50465 485.17597 487.13593 494.87195 494.36677 499.25096 511.92173 516.39950 514.32670 510.65358 494.53670 481.32417 465.68598 443.21489 438.82395 425.26543 403.57234 392.94020 366.60080 358.90096 342.95970 338.03978 326.23006 299.29235 286.36091 280.47703 262.57608 254.04647 237.35091 217.38209 201.98529 194.27783 174.94823 156.36409 135.80207 129.41245 116.07960 108.38830 101.14765 101.19520 97.59962 97.32852 96.10951 96.15803 94.48710 92.81282 91.47726 85.00635 83.93538 80.57868 79.34156 73.97300 70.48206 66.89659 61.27345 53.42025 48.98443 47.39113 45.09144 42.34879 40.40406 39.18682 39.08507 41.68223 43.90521 47.31084 54.91964 57.78223 66.87738 75.64134 86.36237 99.47201 108.73374 112.14784 121.94928 133.29927 143.97887 155.35337 159.26133 165.39308 167.75060 167.93842 166.10170 161.93564 154.74552 148.61543 140.03692 129.18070 117.79163 110.12413 95.81236 85.38536 77.38147 73.49943 62.72195 60.21520 51.61785 50.71968 43.91375 33.80530 30.15187 21.88581 18.37396 9.13510 3.05198 -1.70424 -2.41168 -4.33496 -7.74917 -9.50973 -11.87502 -14.12427 -15.87520 -18.26527 -19.06824 -20.43974 -20.87178 -25.40154 -26.74525 -30.81946 -34.76563 -35.71683 -39.61109 -44.08463 -49.14204 -53.42133 -59.22041 -64.31515 -69.29894 -72.12963 -73.57695 -82.10771 -83.75145 -87.87352 -92.54514 -95.92832 -100.05240 -101.91098 -105.49119 -106.16755 -108.25486 -111.30183 -115.47105 -118.05980 -118.63191 -120.00154 -121.35533 -122.87942 -123.54315 -124.39586 -125.31446 -126.04643 -126.21778 -126.47302 -126.57413 -126.51822 -126.32894 -125.89757 -125.47210 -125.24618 -124.68106 -124.02443 -123.44457 -123.00067 -122.65798 -122.25364 -122.03108 -121.80583 -121.56556 -121.43092 -121.12599 -120.87823 -120.60959 -120.36578 -120.23385 -119.87896 -119.46128 -119.16125 -119.08727 -118.84361 -118.37937 -118.18618 -117.80610
764.19327 727.19680 680.85719 637.60636 602.21097 560.61822 544.19193 519.83351 480.37408 464.87517 458.50970 437.06188 411.38165 400.13745 370.14682 349.55186 324.22495 304.71022 300.64430 291.32156 284.52016 284.27804 287.34911 287.64554 289.08619 294.53898 299.03939 298.19391 302.43794 302.48309 307.06835 307.71799 310.12823 303.13247 300.38794 300.32509 301.62527 301.97140 303.61482 309.69012 314.72814 320.75024 327.56923 330.24828 341.96781 355.65290 366.45933 388.26013 403.34203 417.58327 430.84281 450.32385 457.27120 470.29568 482.94073 489.51776 497.42412 499.13645 500.39806 502.72322 510.77494 516.41892 521.87115 529.57073 536.85532 539.60161 547.19482 549.82582 553.91146 546.85690 541.87025 543.70727 531.94249 530.17602 517.01249 497.63495 496.01258 490.21648 501.64408 497.51636 509.33313 517.11549 511.46769 507.26940 494.86950 489.25317 479.05137 473.81778 469.46694 459.65362 455.54244 460.21076 453.40264 443.90986 446.73765 448.70634 455.06948 457.79877 465.37986 467.97363 474.71414 481.01458 480.69135 480.85702 485.93336 496.27355 513.05105 506.16037 497.22171 489.88828 472.78641 463.65973 446.49321 435.50831 416.35068 398.80564 393.35069 371.65886 353.46733 340.23595 331.14825 315.36555 295.43643 290.06607 273.82493 257.76573 247.13333 238.89438 212.45854 201.41575 181.67698 166.04031 158.18001 136.26564 121.08499 113.44520 103.16621 99.02738 96.90643 93.38294 95.37886 92.46267 86.77944 85.47379 88.27137 82.34915 80.99415 79.98395 77.84957 70.85363 67.35222 66.34713 64.38708 61.07612 51.03004 50.96991 46.90890 45.58647 42.01265 40.47259 39.72923 39.38958 39.71584 42.54059 45.64927 46.59476 58.72226 68.31816 73.60387 86.02289 97.66823 107.27843 115.54560 128.41084 136.01899 140.49978 155.61437 160.04952 165.92974 169.13676 170.93438 169.56437 168.62701 158.92960 151.48176 140.23815 131.12573 126.81424 115.04322 103.00965 99.57051 88.62874 77.96587 72.99934 70.41680 57.37181 53.43470 50.04859 38.50479 32.09669 28.58613 19.59980 17.58467 6.86589 3.43087 -1.14212 -1.90962 -6.82312 -8.93774 -11.12306 -13.82778 -15.24978 -17.30281 -19.23166 -20.08457 -21.95628 -22.26221 -25.24508 -30.84629 -34.28157 -36.14679 -39.65818 -44.61634 -49.35566 -51.64870 -56.82580 -62.10004 -67.75418 -71.76877 -72.66850 -78.67912 -83.71556 -87.26202 -91.61588 -92.87355 -96.67247 -98.71411 -101.73074 -105.38901 -107.47101 -108.26239 -114.27084 -116.43867 -118.47389 -120.29964 -120.82738 -121.82956 -123.61673 -124.34086 -125.07801 -125.80543 -126.07645 -126.35404 -126.43696 -126.38502 -126.20724 -125.84229 -125.53914 -124.95412 -124.71215 -123.91103 -123.23034 -123.13406 -122.57002 -122.13954 -122.00350 -121.80675 -121.57885 -121.34434 -121.14935 -120.88420 -120.56008 -120.44761 -120.12721 -119.82923 -119.58375 -119.21364 -118.93495 -118.59601 -118.44212 -117.98748 -117.76255
781.60195 734.96021 710.99449 658.60443 625.98100 587.98873 561.80712 557.93318 507.91738 473.76338 466.61043 453.04163 441.84912 408.31531 374.65821 365.03286 346.38518 320.58623 304.50096 297.86534 285.89242 283.09963 281.31712 280.52013 283.52722 283.96544 289.00529 292.22543 290.03704 292.75958 292.15148 290.99350 295.24942 294.31231 296.07831 293.71697 295.01395 300.43264 305.60609 308.30232 312.70537 320.37234 325.50822 332.39983 350.01466 353.32595 365.84078 377.99464 393.29473 411.91804 418.85230 435.01625 446.74557 452.06008 475.17066 484.33238 488.08311 493.98846 495.14164 499.84937 500.54947 504.31346 516.84520 527.06546 532.11408 543.03290 549.24830 557.89705 559.14306 561.38621 552.61269 551.53838 552.04310 541.19249 527.95733 532.21417 520.56950 523.80205 526.08966 519.13459 531.17010 529.58993 536.01814 539.23048 528.58780 521.72881 503.22497 496.51382 490.49305 473.57627 470.32920 464.83876 464.16734 459.70480 458.02684 459.78532 456.24505 460.18193 461.02050 465.81027 467.91829 468.47365 469.50310 475.25575 474.36307 476.78151 480.13138 480.58891 479.70228 475.21888 462.16122 452.53161 435.71246 424.08714 407.91784 399.10575 380.35066 358.98895 350.98824 330.25540 321.90563 307.21458 295.46483 285.85921 274.21148 253.41285 239.46974 238.45159 217.86139 199.11966 180.97881 169.80642 148.55385 139.51142 122.98316 106.08331 102.32092 91.65024 89.25068 89.02089 86.88960 79.85028 77.18870 80.06625 76.83774 78.41677 77.18159 73.61123 72.19851 66.97645 64.84194 62.94347 59.15044 57.14129 53.16516 50.80659 49.88029 44.30819 42.03268 39.87804 39.16324 38.98170 40.00782 41.21272 43.94341 50.55315 55.48191 64.18654 70.83941 79.26600 94.04240 99.30019 111.61159 128.52832 129.73103 138.21245 157.42782 162.10365 165.73006 168.89709 171.77140 172.65663 169.22240 163.30617 154.30364 146.39897 138.24465 128.43846 118.99302 115.21784 102.21910 96.28249 84.03322 74.38075 73.97163 65.09036 57.99837 52.79995 45.29161 34.31655 27.58669 25.17802 19.67624 11.01110 6.85322 0.68597 -1.10265 -4.87726 -6.16520 -11.20744 -11.84860 -14.48965 -16.99500 -17.90743 -19.71203 -22.13695 -22.27544 -25.49213 -30.21499 -32.18961 -35.63402 -36.83335 -43.69945 -47.10537 -51.68043 -56.12776 -62.12401 -66.46020 -69.22415 -72.60926 -77.81444 -81.67650 -83.66150 -88.19882 -92.83517 -93.54327 -97.20287 -100.85609 -103.31708 -106.78317 -109.65002 -112.75566 -114.56802 -117.38846 -119.45652 -120.24855 -121.89536 -123.23163 -124.14645 -124.83731 -125.42778 -125.98161 -126.32370 -126.26494 -126.22793 -126.00482 -125.66433 -125.41795 -124.63070 -124.16277 -123.89216 -123.30740 -123.05031 -122.72362 -122.23586 -121.93303 -121.79080 -121.56897 -121.31791 -121.12050 -120.96237 -120.67823 -120.45422 -120.15442 -119.78949 -119.67735 -119.23996 -118.79171 -118.59127 -118.36313 -118.03254 -117.72927
784.23325 744.79682 732.56056 689.62456 635.00204 608.43598 590.49141 560.41791 538.80905 509.10641 493.84693 465.71595 441.70559 429.01372 387.38858 365.42638 348.13590 331.18740 316.74917 296.91626 292.82996 283.86642 279.15088 276.00474 276.63098 274.94639 275.42545 283.33962 287.40429 281.13755 281.71236 276.03215 281.14576 285.67133 294.93441 293.87008 292.48864 297.92916 305.42536 309.44514 311.20033 323.36853 325.83119 332.45987 346.35660 352.43111 361.08936 374.97677 390.54365 404.23872 413.88617 427.85024 428.12830 442.95933 461.24174 473.53194 479.22712 485.31132 487.66024 493.26150 495.12594 500.33848 504.68924 518.93366 525.16877 537.93735 550.36004 557.67055 561.07915 567.88186 567.37749 564.72898 558.55542 556.78248 548.93728 538.64129 534.83018 534.33929 534.42108 534.64330 535.57641 540.78589 539.33962 546.35128 547.50424 542.65519 526.62520 522.17736 513.42807 490.18710 473.21381 474.35401 475.74119 475.15098 467.52761 463.85196 459.60784 458.32519 457.92156 458.20126 460.95488 465.20943 464.28849 466.84251 467.21759 464.09390 463.28882 469.64592 468.96069 458.22732 450.10538 443.03253 431.10524 412.77924 407.52206 387.47182 365.42974 352.92199 334.89725 329.30145 316.25933 303.54703 286.20260 272.79470 254.55469 235.15146 234.91528 223.97086 203.18353 191.19321 180.18063 161.91457 145.74219 142.02644 114.11316 103.95178 90.40677 87.67937 85.09721 80.83864 78.82233 74.89990 74.36724 68.77165 65.23836 63.45623 65.45000 66.94732 60.61886 63.02649 62.36448 58.61507 57.38416 53.55980 53.01314 50.92918 49.72785 44.65508 42.30190 39.55725 39.21559 39.27125 41.23465 43.89644 44.74825 49.07426 52.86823 55.08585 68.37097 78.95921 85.76595 101.45116 112.73608 118.95992 127.38424 147.71548 153.31741 162.02128 164.53824 170.36673 171.73902 172.39230 170.53313 166.27028 159.63471 149.14969 140.11769 131.24124 126.46590 118.87663 109.19650 108.03315 95.39656 83.22016 76.34735 68.48180 61.73345 59.62618 55.65625 38.42418 34.94843 26.99138 21.05483 14.21837 11.50222 4.97268 0.48172 -1.28917 -5.88759 -7.65713 -10.85023 -13.53358 -15.99329 -17.60666 -17.60911 -19.37371 -22.07666 -23.94966 -27.97074 -31.06810 -35.07399 -37.05937 -42.07447 -45.28029 -49.25433 -54.21275 -59.30671 -63.40295 -65.53957 -75.91388 -76.83861 -79.57722 -84.06260 -87.63338 -89.30830 -95.59705 -95.94744 -99.93993 -101.52296 -104.93730 -109.67255 -113.49632 -114.25811 -116.61101 -118.92138 -119.31362 -121.01411 -122.61706 -123.99695 -124.71353 -125.01446 -125.69793 -126.15296 -126.16596 -126.16983 -125.90480 -125.50996 -125.13666 -124.52160 -124.31987 -123.64306 -123.38533 -122.97275 -122.82000 -122.42217 -122.04742 -121.86247 -121.58168 -121.30380 -121.22354 -120.97633 -120.71755 -120.39580 -120.10575 -119.89465 -119.55251 -119.23873 -118.74299 -118.62996 -118.34633 -117.99154 -117.64409
868.18595 794.85749 794.47467 735.19655 666.63599 622.27986 597.89460 552.47374 546.41280 535.94331 536.45289 492.05142 474.81947 456.02932 424.32022 385.18051 356.97246 340.24826 336.83326 310.61758 295.97753 284.90758 273.95309 271.65368 271.68773 269.78131 269.36964 267.17154 268.11935 267.04759 269.88812 272.73750 269.23171 273.36811 280.92221 290.20435 288.31462 296.17034 303.88573 310.73994 317.23257 324.20270 327.15869 334.34123 345.73690 352.58124 359.16982 372.25794 387.52876 399.92917 409.25047 423.03545 428.53000 439.97429 449.09298 462.44615 474.21516 478.93161 479.11362 484.03262 485.89825 489.65203 494.48290 512.61855 524.01524 530.07176 547.41990 553.80601 559.28646 568.89751 572.79593 568.16219 562.82051 558.62060 549.95860 548.30737 541.65621 540.14397 541.13015 537.98837 546.34514 548.53911 553.09665 553.66920 556.56611 548.99537 545.43360 534.70926 520.27506 517.19730 497.14792 488.76400 478.87301 475.57817 470.50707 464.69564 459.78092 454.42460 451.74856 450.39986 453.23666 455.04906 448.99433 451.48788 453.11343 453.17338 451.78239 450.08719 446.29927 451.47248 440.60857 425.02135 415.83419 411.42338 392.51007 381.18261 360.80458 340.28741 329.47267 319.40180 305.52293 291.76594 283.99577 267.11643 245.85308 231.79720 221.89480 219.73004 192.17865 186.69814 175.65909 157.18014 146.55527 136.39740 121.39347 98.98327 93.51340 79.97241 77.84141 73.93579 70.76490 69.42112 66.83313 61.78144 60.89847 60.74023 59.42166 56.29612 52.61601 56.91441 55.81068 54.74877 54.55364 53.08706 50.71152 48.66358 47.27743 44.63025 41.86156 39.27228 38.52326 38.28880 40.63133 42.43376 44.28173 48.85587 51.91927 55.27840 61.12293 74.79360 85.52841 100.70875 105.74777 117.24660 119.35612 138.54073 150.11212 156.23139 158.36847 163.08802 171.70785 171.87221 170.75869 165.87102 162.18450 156.34125 144.82653 137.45201 129.78512 126.15126 114.06938 108.81253 99.32563 89.01873 78.10129 72.00150 68.27305 62.54909 53.89257 45.64033 38.70910 31.07726 22.07129 14.95522 13.43431 7.26356 4.76985 -0.66968 -3.35262 -5.07568 -8.52710 -12.07836 -15.09329 -16.23275 -17.05301 -19.29898 -20.51597 -23.97728 -28.29640 -31.55756 -33.04706 -38.12908 -40.65924 -44.80350 -49.42577 -54.66667 -57.82516 -60.32879 -65.89428 -76.66604 -77.15754 -79.78510 -84.18986 -87.22400 -87.66304 -93.76885 -97.31331 -98.56885 -102.00780 -103.38930 -106.75261 -110.94365 -114.02923 -114.69695 -118.09542 -119.37693 -121.50654 -122.30962 -123.47855 -124.44870 -125.10995 -125.56270 -125.85267 -126.06227 -126.08950 -125.74789 -125.47264 -125.25370 -124.74337 -124.18988 -123.68301 -123.46382 -123.07467 -122.73403 -122.59869 -122.14240 -121.93733 -121.60531 -121.28102 -121.16041 -120.98415 -120.70923 -120.44422 -120.13429 -119.97274 -119.56934 -119.26514 -118.82128 -118.58393 -118.22076 -117.87774 -117.49121
910.87711 846.10227 806.77996 758.46232 739.18121 718.21784 656.50182 626.33420 597.82269 554.37058 557.27044 533.54938 499.68844 478.63867 466.04950 431.21068 379.52221 362.82453 338.39809 311.95212 301.69364 282.12072 274.35497 268.49643 263.23196 262.78737 259.52905 256.67238 256.59075 255.93818 258.69306 265.42299 265.24205 266.71508 274.25926 282.59276 287.26338 292.37599 302.39355 313.81254 319.15122 324.13687 326.46472 334.08519 339.40711 349.85156 357.74088 362.99474 371.26926 391.02811 395.34031 403.59427 417.47551 430.72336 444.88776 452.35485 464.93834 468.08492 474.96352 477.71834 475.88231 476.53992 487.82556 520.53825 522.30008 530.20195 535.59452 548.86703 560.66715 563.13076 564.57943 566.91058 567.50264 557.19006 548.94411 548.22270 543.05434 540.74285 540.92494 544.24896 545.17841 552.54341 557.91400 564.48551 561.14415 559.94462 549.96785 542.71084 530.02283 523.40093 506.18880 494.95315 479.43835 475.99899 470.16913 463.51707 456.34850 452.44085 445.28709 443.02137 438.43550 424.67456 429.40489 424.89976 425.59673 428.71751 428.61406 428.10735 434.50939 434.60363 428.39780 421.36523 409.39990 392.66590 375.13986 362.26994 353.34163 343.76011 324.47627 317.70970 299.96576 285.04242 271.25508 258.00020 246.31823 229.88172 222.20740 204.63961 200.22852 179.48455 163.53989 157.75434 144.05325 135.44989 112.46325 98.21526 86.71570 79.15546 72.85581 68.07461 65.45788 61.85190 59.13373 58.59929 53.82202 53.00835 53.00237 49.73289 50.90840 50.17134 50.97516 52.40542 51.19872 50.46979 49.49187 46.96114 45.00215 43.54120 41.42418 39.14825 38.38670 37.82311 39.59029 40.32653 41.00043 49.42217 51.74614 54.70299 58.80696 67.53919 82.88662 96.02921 104.51256 108.98652 117.43996 129.76245 139.55760 144.72853 150.02449 154.95948 163.57190 164.88531 166.42033 164.48350 160.84422 156.45222 146.78916 137.96872 133.37042 125.76560 116.60586 113.22855 102.89228 89.36945 81.36677 76.58614 68.75522 61.88520 58.78677 47.40436 42.85840 33.81149 29.28741 16.12446 15.39711 14.10130 11.09750 4.29602 1.86193 -3.06124 -3.71667 -7.80536 -11.64060 -14.75209 -17.45376 -17.82141 -18.53609 -22.25814 -25.95953 -30.49133 -34.48295 -38.67849 -41.13231 -45.10859 -48.87008 -53.60335 -57.72585 -60.01499 -65.05734 -69.62373 -78.22788 -81.02509 -82.89642 -86.55767 -90.23496 -92.18641 -95.92232 -98.54726 -101.58270 -103.15977 -105.69435 -110.12897 -112.85879 -115.05625 -117.16774 -117.94871 -120.63547 -122.40746 -123.46826 -124.36357 -124.88796 -125.55768 -125.85180 -126.04394 -126.10912 -125.81200 -125.66395 -125.24684 -124.86728 -124.42887 -123.93944 -123.55569 -123.11533 -122.70665 -122.40091 -122.22470 -121.83069 -121.67237 -121.40714 -121.05242 -120.79692 -120.70371 -120.50693 -120.10942 -119.97899 -119.55801 -119.24707 -118.96393 -118.60688 -118.19421 -117.95394 -117.53805
969.78253 957.65969 887.21626 830.96899 776.61250 742.94831 770.86805 692.18752 653.74289 602.63534 563.68055 553.13860 520.29678 500.56031 484.78154 451.01236 407.13830 367.51925 360.64781 329.65686 305.33255 288.78880 274.72621 267.95318 259.85615 257.27621 253.31486 250.50649 249.46401 252.28973 251.97154 248.02052 257.51885 259.77591 270.78259 279.05441 282.73205 289.63822 299.56746 310.43664 319.33939 322.36634 328.80052 335.06047 337.21420 349.79685 359.49975 361.06106 368.30295 376.76878 392.88812 402.69867 411.28084 426.23989 436.91421 448.30866 454.27642 462.61545 466.17180 464.19556 461.32541 468.87583 467.17867 503.57718 520.35944 521.08849 532.82632 545.64227 550.37897 553.70741 559.89254 555.77405 550.54872 545.57709 545.99313 544.77251 540.84773 537.53944 539.84866 542.01664 546.77576 552.09567 556.52182 558.19890 559.43867 559.37693 552.20641 542.96025 533.26899 521.58595 503.57024 499.32499 484.79559 474.82393 467.01281 462.69850 453.39151 445.87337 436.87590 430.67861 427.29720 422.58940 414.23933 414.56272 408.02786 410.89631 409.08043 415.23084 414.56928 413.60008 406.80155 403.08633 383.25275 380.54222 372.41845 351.74071 341.11568 330.74733 312.33727 301.89826 287.98100 271.66502 266.25134 255.49141 251.95566 228.67687 212.24120 209.58266 198.68724 179.03602 155.41647 150.50554 134.50656 116.26296 114.20615 90.53688 87.11265 78.11516 69.19176 62.75980 59.66326 54.13382 52.72561 52.58667 51.07616 46.15428 46.74508 46.69536 46.78493 45.75946 45.69922 47.05726 46.98467 46.99903 46.50847 45.45548 44.28639 42.15718 39.58428 38.64012 37.66835 36.90331 37.23129 38.95126 39.67456 43.07851 49.36086 50.86478 54.42175 63.45526 73.73047 82.09028 95.81833 103.62009 111.09106 122.85637 130.00792 136.28940 146.99974 151.61375 156.78225 160.69911 163.06116 161.71581 160.84319 159.27163 146.32564 143.32821 136.40423 125.49430 115.94239 111.72120 108.09323 96.83808 87.53288 76.70024 69.31321 61.77192 57.06284 53.02331 44.93648 41.87579 35.94557 24.42128 18.12987 17.07548 18.53927 12.84134 6.84845 2.57517 2.76785 -1.73360 -6.53801 -11.33540 -15.74968 -17.40884 -18.62972 -21.22397 -23.76664 -31.87322 -32.82649 -37.71811 -41.54972 -44.91693 -48.63790 -52.54214 -57.08967 -60.79994 -60.85769 -67.80606 -75.92223 -76.60482 -82.13454 -85.31211 -87.87597 -92.44757 -95.27181 -98.33913 -100.62838 -102.37663 -107.61370 -109.02081 -111.67040 -114.87271 -115.76952 -117.06102 -119.66852 -123.08158 -123.33135 -124.33061 -125.27842 -125.64387 -125.90623 -126.16942 -126.16652 -125.97162 -125.69151 -125.16355 -124.86314 -124.48466 -123.86498 -123.46579 -123.16880 -122.69230 -122.42757 -122.07803 -121.76741 -121.63267 -121.40761 -121.10330 -120.88862 -120.60559 -120.50436 -120.18205 -119.78463 -119.51940 -119.27780 -118.93971 -118.60263 -118.16093 -117.90336 -117.44200
1022.86118 987.02304 932.70391 900.61060 848.89896 805.63012 782.38441 755.43774 686.85142 653.71816 611.06391 581.28021 544.45500 533.63605 503.11333 465.78729 413.18007 385.01847 368.71746 343.31015 324.71890 306.93822 287.27542 272.70196 259.56101 253.76882 251.26595 247.36122 246.19445 245.23196 241.69548 245.82967 248.13891 250.55434 259.59256 271.46587 282.93478 289.85425 295.98178 306.22717 312.62822 321.94900 328.32998 330.95177 337.34276 341.44604 351.76108 358.30292 361.88214 372.65376 377.62392 394.43824 406.00948 416.96075 422.90908 437.67588 448.25266 452.39034 452.10833 452.26428 457.67391 458.48805 457.05171 477.03056 499.42777 518.08496 517.76683 530.12725 531.44357 548.79404 548.49131 540.76543 534.83701 531.41536 531.23460 531.91368 530.20134 524.89996 526.60088 524.40009 532.01017 542.06133 549.39357 547.13863 552.99605 553.12576 533.98823 533.85918 530.02347 520.83954 510.44946 491.88648 481.57599 469.22344 466.20258 457.64812 446.88037 435.06166 432.19588 425.06630 415.62390 415.30412 413.09368 407.79889 405.84648 401.50032 405.05257 401.82385 400.06090 403.28307 397.09100 391.04841 379.37295 369.73314 360.72692 340.52149 335.98709 317.10123 309.07676 295.81281 282.98489 267.80238 257.28143 243.60265 236.89279 222.28657 204.79126 200.65909 191.20649 149.09629 146.21272 138.61416 132.23309 116.39538 105.73018 98.32152 87.39329 79.97678 69.36184 61.26466 60.42589 52.54195 50.84367 45.86009 44.68871 43.37810 42.13807 42.15854 43.43825 43.17217 44.30988 44.50946 42.22844 43.38306 42.91583 42.64258 41.89067 41.23945 39.13673 37.53003 36.28154 35.96667 36.32764 37.15073 37.40349 41.03840 46.71112 51.56311 52.96979 58.76255 71.09215 79.26371 81.93136 94.32828 104.63667 120.97487 126.37533 130.66539 140.15449 143.54558 150.18848 155.51043 157.59442 157.62338 159.11117 156.11265 149.83718 143.17795 136.41238 126.31190 115.20639 113.97349 109.42510 97.57777 89.34324 83.03722 75.00668 66.40793 61.50865 56.52814 49.17428 48.57918 39.81723 28.39817 18.80207 18.84070 19.00157 17.55080 9.68481 6.12344 3.58125 1.26644 -4.09553 -9.39586 -12.31163 -16.13336 -16.98878 -20.10184 -23.09815 -28.42105 -33.48176 -37.86348 -39.84745 -44.65048 -47.21799 -52.93584 -55.57460 -60.08979 -60.54791 -64.17662 -69.22172 -74.98884 -79.43301 -84.08429 -86.18364 -89.06379 -93.60932 -96.82459 -100.06967 -100.77645 -105.48620 -108.81964 -110.73189 -113.79302 -116.38691 -116.73331 -119.39780 -121.94455 -123.28710 -124.51264 -125.68245 -125.97711 -126.06571 -126.23185 -126.19963 -126.03479 -125.83238 -125.09540 -124.93850 -124.52387 -123.85118 -123.31064 -122.96771 -122.73424 -122.31487 -121.98292 -121.66535 -121.41927 -121.36300 -121.13797 -120.88979 -120.62665 -120.49865 -120.26742 -119.82460 -119.44154 -119.25443 -118.84117 -118.67756 -118.24758 -117.86817 -117.41448
1059.82895 1034.74741 998.21190 939.83151 897.88507 835.39962 835.95037 772.40253 761.63218 705.08032 683.07506 644.64981 601.35464 556.83930 517.94295 496.29486 435.29652 403.33844 383.06644 350.21700 333.14009 324.41946 308.15640 280.20866 262.38420 260.62929 249.32002 246.88861 245.30047 240.04937 239.52961 240.05537 240.55323 247.33965 255.02326 265.94936 281.22966 283.91983 295.68661 304.83318 312.95942 316.76116 324.93115 327.74054 332.66551 339.73985 343.38480 358.43062 360.98616 363.02822 372.10798 377.86871 397.33821 410.41655 414.26956 420.85211 436.12017 443.69797 444.60280 447.70290 446.94467 454.29197 452.08198 453.53819 467.54395 495.88929 505.63520 511.66721 508.61297 515.55815 527.71001 523.10157 516.11484 516.96476 525.41567 523.02298 505.59777 504.90636 499.84534 500.18098 506.44917 532.40535 544.16033 542.35651 539.44691 536.53491 519.49819 513.91993 511.06549 495.81110 487.56238 483.13833 477.89354 468.39034 461.08828 452.92105 442.15120 431.81648 427.50248 417.15463 412.24679 403.28716 409.61822 400.23749 399.79005 395.86800 393.52124 386.65476 384.90349 384.20555 380.05073 379.39035 368.05446 362.24550 348.36588 337.49647 325.28418 316.39233 299.49604 282.75946 273.77439 263.39490 245.99479 234.08710 225.82513 205.56210 195.88568 185.60061 160.90562 145.66184 139.24389 129.73813 125.23988 111.74274 105.14494 95.40787 91.89763 83.77221 70.55469 61.42626 57.41722 51.44838 44.58040 43.94635 40.46994 40.05127 40.49728 40.53568 40.46524 40.29664 38.60993 36.89812 39.93845 39.94125 41.76702 40.76174 38.91790 38.12499 37.28926 36.73353 36.16553 34.63330 34.79800 36.62492 36.22302 39.24122 45.63095 48.30540 49.80440 58.92072 62.92028 69.33888 75.91780 82.97817 94.53058 101.86438 115.95595 127.08861 129.28911 134.00183 141.53382 146.89899 147.97209 154.81953 151.56034 151.05923 149.55145 147.68147 138.33220 131.48273 122.52413 115.09799 110.32325 104.03757 88.21004 83.61579 75.71058 67.54139 62.74736 62.60293 57.54412 49.80126 49.97960 41.37905 28.47477 21.31405 21.81881 21.54808 16.38719 10.32875 3.20030 1.18647 -1.98414 -5.32582 -10.71972 -12.07258 -17.71014 -19.67654 -22.98839 -28.02132 -31.11114 -35.52871 -40.29100 -43.48101 -48.29932 -50.27874 -55.11883 -59.06144 -61.60544 -64.10382 -69.04146 -71.90276 -74.70031 -80.82320 -85.06052 -87.88715 -90.71634 -95.62611 -97.69248 -101.97292 -104.43979 -109.42647 -110.28431 -113.24736 -115.71693 -117.27839 -119.74248 -121.21019 -123.34800 -124.93328 -125.75041 -126.35416 -126.51888 -126.49654 -126.31811 -125.94173 -125.76364 -125.33238 -124.83268 -124.63983 -124.04612 -123.39652 -122.95779 -122.73190 -122.37234 -121.89216 -121.59252 -121.46402 -121.29187 -121.12514 -120.86437 -120.68832 -120.54478 -120.31368 -119.79914 -119.31244 -118.96360 -118.85765 -118.55474 -118.10007 -117.92417 -117.50439
1114.75978 1064.15513 1022.47395 1005.93788 978.54236 931.45934 906.55077 841.34263 800.95690 775.84025 730.62891 694.87756 644.36644 607.15786 571.65403 508.97105 454.90072 418.26889 388.10447 356.31796 333.27908 324.24596 305.93887 281.46503 268.24729 259.37443 252.47460 246.76445 239.03381 236.89381 234.35817 235.24203 238.00322 241.01831 250.99727 256.99236 270.28833 280.16504 294.39875 300.89098 307.62071 312.09463 324.03485 324.30983 330.48826 334.34351 341.31246 344.89873 354.69707 359.72633 363.93686 375.51735 385.90875 399.05105 400.30765 405.67983 418.12168 426.06482 433.85389 440.66755 441.19718 442.01610 440.87817 444.60191 461.48897 477.46646 486.45804 500.80919 496.31508 493.78950 492.60195 501.22796 499.38690 481.51024 503.67727 481.51699 491.62634 486.61807 485.36239 487.30063 497.34850 497.15104 521.48984 526.52680 532.83305 527.48100 514.45695 502.63606 504.31597 488.35151 484.03432 476.82176 463.82752 461.15190 449.65247 437.96954 435.91898 424.85733 418.25387 405.58656 400.61535 394.89751 390.28765 388.86806 389.60169 384.60332 383.51918 377.29603 379.09829 374.69092 370.96005 366.45943 362.23335 354.11931 346.83292 331.52157 325.77739 296.94800 278.47350 276.51104 261.98752 251.47302 237.07215 220.49054 212.95772 195.96132 187.23930 180.30514 162.39826 148.83706 139.03726 126.73695 125.92858 113.04063 102.58619 98.29676 92.15702 82.60453 74.38083 63.74982 60.67605 52.43434 46.18456 40.23161 38.82829 37.04348 36.86594 37.64887 37.68959 36.02009 36.23535 33.65909 34.76635 35.55000 35.95474 35.85829 37.27983 36.26754 36.00099 34.18105 34.46293 34.04237 33.70375 33.87321 35.17405 35.31481 37.40506 43.27108 45.98395 52.33327 55.05688 61.64457 70.87394 76.74130 80.54385 96.14085 109.79904 119.18341 122.20454 128.31536 132.72728 137.02158 145.93427 141.86742 146.38310 149.25469 149.95430 147.14611 142.47080 133.14983 122.80281 121.13688 112.71681 104.69041 92.66049 83.36160 80.05748 71.38576 64.52396 63.97361 60.39400 56.57008 51.42298 43.46794 37.73884 32.06590 27.32718 26.02868 20.04994 17.31811 10.49040 5.40350 -0.83915 -4.23185 -7.02622 -12.42957 -16.59338 -18.66352 -23.57660 -28.72031 -29.83867 -35.19974 -39.19355 -42.21627 -46.97652 -50.90555 -54.51401 -58.53124 -60.33554 -63.71558 -65.89536 -69.02622 -74.45122 -79.40141 -82.16737 -86.30297 -89.19668 -94.83394 -98.00689 -102.07192 -103.33516 -106.55872 -110.00939 -111.50148 -115.19355 -117.72224 -118.85465 -120.88908 -123.19407 -125.17728 -125.79784 -126.25649 -126.62710 -126.82106 -126.58674 -126.24961 -126.04040 -125.51872 -124.93880 -124.45231 -123.83955 -123.42464 -122.90966 -122.79797 -122.37728 -121.84147 -121.48840 -121.44168 -121.25841 -121.09619 -120.90981 -120.72477 -120.53019 -120.15631 -119.68631 -119.49703 -119.08892 -118.90805 -118.48015 -118.02072 -117.67342 -117.53699
1158.57409 1131.74229 1055.72528 1045.42510 1044.16706 982.23857 935.04815 901.87519 819.37497 785.12093 732.25630 715.50457 683.33230 630.62336 588.15290 555.22697 486.14480 454.98257 403.67364 365.15428 357.11112 335.57886 321.12867 297.52297 261.64472 257.69019 249.51477 247.20603 240.89867 234.08423 231.63621 231.04281 233.18610 236.11038 242.34627 252.40735 262.66540 275.45117 285.61971 296.29351 298.93456 312.86639 316.93077 322.75820 325.50726 327.51827 327.12482 336.08868 346.98068 353.11380 357.68431 367.48199 381.10453 391.36554 394.49752 401.76302 412.52664 413.01410 414.85761 424.27549 429.76919 426.27611 433.22093 438.19933 444.47507 455.07044 453.66169 471.65197 471.44960 476.05752 468.29952 468.54631 464.80456 443.91720 445.67592 453.54525 467.48646 468.04150 467.02744 477.72646 467.89102 480.11442 486.67687 490.73971 503.34741 492.56697 501.11803 490.64767 481.48227 482.22100 471.29058 458.97050 454.15015 448.25613 444.72653 433.14082 425.56406 420.98008 406.28454 401.80413 391.11081 389.81980 382.58248 379.39496 379.45044 373.25671 371.40051 371.87707 365.35732 363.68980 361.23941 354.48809 350.99155 340.91838 332.70701 324.36711 307.37702 287.78726 277.24230 273.05625 253.35746 239.24938 229.21561 218.79755 204.67778 191.48000 178.57862 176.46775 159.81930 143.55078 137.61706 127.38826 118.28281 109.48638 101.37380 100.26854 92.29861 84.97896 76.85508 65.54962 60.12381 53.17112 48.64302 41.20149 37.73682 36.01786 36.61133 34.34069 33.32418 31.98847 33.09641 32.81337 31.70344 31.24987 30.88378 33.85496 33.26463 33.11971 33.01741 32.64687 32.13415 32.49630 33.30487 33.75631 34.70391 34.90311 36.43461 41.26130 43.32815 45.44142 50.75329 53.83641 59.59612 67.03111 72.47233 83.13084 104.07097 112.71350 118.34429 123.38191 124.72761 131.92760 134.50306 140.49085 145.04080 146.01392 148.40349 148.21339 144.69090 135.64537 128.58106 117.47366 112.23703 102.24601 91.00116 84.93933 78.18716 75.90273 66.91462 65.05888 62.25152 58.71180 52.27905 49.52733 40.84328 37.04612 31.45434 31.16966 30.55292 25.89755 16.42390 11.53689 4.83391 1.83050 -5.81338 -11.51269 -12.94907 -18.50044 -22.69618 -26.09283 -30.87483 -36.00604 -40.33151 -42.24902 -44.74802 -50.27383 -52.39931 -57.40258 -61.07721 -62.60966 -64.47889 -69.05912 -72.81823 -77.83214 -80.79297 -85.36728 -87.56260 -90.91972 -98.97825 -100.46566 -103.01963 -106.59853 -108.81688 -111.62943 -112.79075 -117.71271 -118.97297 -121.26966 -123.19328 -123.91670 -125.48994 -126.40100 -126.77292 -126.86465 -126.68439 -126.44954 -126.16265 -125.68331 -124.97975 -124.67473 -124.10749 -123.43228 -122.98236 -122.89765 -122.40807 -121.90457 -121.60101 -121.35398 -121.25638 -121.10893 -120.92073 -120.73935 -120.63912 -120.28072 -119.76099 -119.47849 -119.34346 -118.64868 -118.15350 -117.83710 -117.56382 -117.31511
1176.65893 1171.55738 1150.38556 1082.64822 1057.15108 1043.91531 999.93723 968.26915 891.67481 828.15288 792.01863 725.13435 689.49325 665.62954 627.33152 557.10235 499.13472 460.60772 423.55348 383.71467 372.32944 344.97156 332.08482 295.78622 281.29488 254.66733 249.61746 247.58957 241.49956 234.30001 229.80740 229.53466 230.47076 230.92560 236.90945 248.73345 258.63091 267.12650 278.43367 291.61728 299.04209 305.88585 309.90796 317.71332 324.26165 324.21495 325.18587 329.20837 338.56600 343.12698 352.90279 362.04463 367.46245 374.71163 389.49417 395.09752 395.22747 400.24697 399.87437 407.84749 414.13693 419.50736 421.60269 423.84602 427.20193 419.38165 415.89059 427.21060 454.74404 450.76918 440.46263 441.33903 432.35465 426.74027 431.61549 435.30963 446.35731 444.05521 450.42213 449.32452 448.52397 456.81977 461.39155 453.03887 440.34862 461.57737 465.14902 460.14215 457.57261 460.33874 457.86125 452.01644 447.28181 441.32458 432.69694 430.24119 420.22705 408.37483 399.40042 392.67323 387.62404 379.19670 374.04054 371.67167 371.92040 369.49138 361.07370 361.70541 359.40719 353.27560 350.65652 343.34415 335.99403 332.20644 319.88358 315.09494 296.01467 283.97757 264.11539 250.39841 239.93974 225.11485 223.31860 208.50292 194.73167 188.06162 175.93982 171.41066 150.10320 139.75617 130.02342 125.77418 116.28170 108.88660 104.17630 101.07702 95.90976 87.79949 82.21116 79.98570 64.16471 52.96584 49.92220 41.21951 38.08590 37.09608 34.16707 31.96235 30.66821 30.78541 31.34784 29.95042 30.89240 29.97480 30.19491 29.71532 30.81853 31.50419 31.37528 30.71422 30.62217 30.85823 30.77876 31.28232 33.08148 33.45004 34.10094 36.04875 38.84297 42.48608 43.49325 51.15970 53.44357 55.18029 64.00721 78.96853 95.93405 102.55313 101.86170 111.76128 120.16924 123.47519 129.54960 133.03865 141.05132 145.01181 146.31704 147.39895 144.44202 135.64962 125.36607 122.31096 111.95227 100.88087 93.13111 84.36972 77.89435 72.81105 69.62535 65.63122 63.25877 60.96183 55.59743 50.35576 48.07577 43.45112 40.49325 34.26266 29.96187 26.38182 19.10659 13.95392 9.63352 3.44930 0.85886 -8.20301 -12.29396 -15.60069 -19.73858 -25.34651 -30.74072 -33.32219 -39.49900 -42.06506 -43.88954 -48.09645 -54.00607 -56.96359 -58.78633 -62.46294 -63.73413 -67.35965 -70.89890 -75.66378 -78.47608 -84.51889 -86.85027 -90.86028 -95.03954 -99.92651 -101.83273 -106.77441 -107.46831 -110.55450 -113.59487 -116.06333 -118.74220 -121.72063 -122.77596 -125.02538 -125.64089 -126.93742 -127.03785 -127.11964 -127.05698 -126.60155 -126.37317 -125.94562 -125.32874 -124.65000 -124.13800 -123.47384 -123.15074 -123.01817 -122.50204 -122.00849 -121.71774 -121.36734 -121.30494 -121.06076 -120.95620 -120.70535 -120.57482 -120.32931 -119.87519 -119.71216 -119.43850 -118.84141 -118.00092 -117.89466 -117.68026 -117.31464
1239.60892 1210.50962 1166.95459 1142.43483 1094.86830 1086.32091 1053.39349 1038.75073 983.03608 932.42502 872.42483 769.52514 686.99651 677.30634 638.21372 572.03928 492.88086 462.70704 449.70257 413.74815 407.79700 365.99591 340.39790 313.00837 296.96266 271.09244 266.17818 251.85840 247.21571 236.65368 230.99002 226.43100 226.75749 228.13649 234.80042 240.98751 253.11658 264.82509 276.44165 287.99509 294.88999 299.20383 306.22263 308.53110 316.04439 317.98752 319.96884 321.72987 329.16550 332.82722 345.50843 359.45825 363.51973 369.76039 372.36107 387.37982 390.19385 393.08781 389.66275 395.67857 409.09532 405.80591 407.65060 406.15645 398.77421 393.53438 392.33149 401.78663 391.27390 391.56751 403.23244 406.51143 400.56420 403.38859 411.10680 409.41437 411.79868 415.50134 439.90741 437.42414 437.49053 443.39496 435.71777 435.85036 433.97635 425.69578 451.04591 452.04017 442.94227 443.52863 442.69568 437.40845 436.65052 433.01692 426.04361 414.18956 409.07083 392.00958 387.27884 382.68812 370.99790 371.85388 365.60323 368.91659 361.54339 356.22946 354.16392 350.54424 348.44546 348.96578 335.65221 335.47952 323.96461 316.15800 313.73935 298.89102 293.72885 280.73973 259.14899 243.59352 228.32695 219.16638 207.82299 195.22066 189.88806 185.00147 169.37643 158.24819 143.80633 140.04379 129.04891 122.48099 113.90726 111.40315 106.75436 103.94736 95.86753 92.38128 86.33994 80.05842 68.94926 58.86603 51.42106 44.97008 37.97917 34.66477 33.28381 29.07250 28.64974 27.44429 27.79614 26.85264 26.53897 27.05956 25.93399 27.20538 27.49474 28.22269 28.77985 28.79406 29.13875 29.97254 29.86751 30.67528 31.86261 31.79985 32.06242 33.04276 32.02868 38.23851 41.37590 41.61417 45.07492 50.29788 51.24188 59.92573 82.42596 95.39712 98.76922 103.39789 115.63712 121.26399 124.78022 130.15353 139.33086 145.15325 146.85195 147.00365 146.51210 136.63017 130.93893 117.49782 108.37500 98.01933 92.66988 84.85973 74.91270 72.29683 68.63473 66.01553 65.04343 61.56196 59.55887 55.85681 50.94340 49.10896 42.87914 39.95412 35.38268 27.18298 19.23629 17.98558 13.07273 6.31913 2.49030 -4.34972 -11.88286 -14.53913 -19.56334 -22.45164 -28.47584 -34.23274 -36.87914 -42.19595 -45.31223 -49.29900 -54.44961 -55.49005 -59.66615 -61.49771 -63.64808 -66.53847 -70.27552 -74.70913 -79.37094 -85.24581 -86.75826 -89.38367 -93.51064 -96.41394 -99.59239 -106.90765 -109.02790 -111.87433 -113.09498 -116.36890 -119.34625 -121.28815 -122.83954 -125.23160 -125.92379 -126.90282 -127.30150 -127.45767 -127.26914 -127.07043 -126.54876 -126.10476 -125.33287 -124.69886 -124.02581 -123.81014 -123.26783 -122.73111 -122.56766 -122.05886 -121.68627 -121.51067 -121.25407 -121.17093 -120.87765 -120.76102 -120.58534 -120.39583 -120.01834 -119.64667 -119.50990 -118.87012 -118.16416 -117.67641 -117.48376 -117.25286
1285.28410 1227.26459 1210.49164 1170.95191 1158.47127 1115.20119 1065.67972 1036.46748 1019.93057 992.81259 983.54705 850.41341 808.34760 707.55542 664.70451 600.92955 561.17142 475.80424 462.21437 444.57219 421.11365 387.07233 341.76728 337.21816 323.87483 286.23712 269.84635 255.14554 248.28856 242.64491 232.50566 225.72554 224.68493 225.19712 228.75699 243.78680 247.33246 261.05933 270.08961 286.15545 289.72932 293.76622 299.82798 300.55241 308.94479 312.47496 316.48294 317.99333 320.24282 327.15281 339.25057 346.24224 356.12222 362.62704 366.30413 376.17411 377.37199 378.42123 382.96611 387.69775 382.83741 390.70639 390.60582 391.03863 382.48921 378.49044 383.76040 386.51373 377.31659 381.01214 366.00636 374.05260 375.24447 364.22783 375.85233 380.54490 383.51084 385.30116 382.80287 402.40299 407.08321 415.28524 405.80079 416.73470 414.58863 412.71207 420.67373 413.51157 437.12284 434.52108 426.56453 426.78726 423.10445 421.31844 415.69692 398.67753 390.40266 379.86933 369.73924 360.91204 356.06007 354.39838 351.90343 354.00111 349.05006 340.95787 344.11561 335.89637 335.48401 327.40251 320.38207 315.67759 318.64312 303.38639 299.43329 284.32821 279.88444 269.13677 248.53899 238.23947 226.21010 211.40310 206.41762 193.55872 185.59593 165.54101 158.73197 147.00131 140.13396 135.45417 127.47040 119.24202 114.81176 111.81624 108.33164 103.62636 100.71415 95.22500 90.67458 82.13929 72.85382 61.96832 55.52858 41.36779 39.50391 36.24162 31.34721 29.08926 27.48543 25.94135 26.10649 26.11235 23.42122 23.66876 22.92715 24.17715 25.24858 26.26345 26.77595 27.44988 27.17613 27.50199 28.58567 28.83345 29.46501 29.55221 29.83481 29.07822 30.28771 29.19495 34.08450 35.68166 43.34130 44.38341 46.00671 47.12482 60.95762 77.15745 88.34410 99.92029 108.56824 111.25493 118.95696 128.54128 132.32481 142.94955 146.16187 146.04609 143.38506 136.00538 131.77098 119.02667 106.97674 96.82821 93.67889 86.01330 76.28087 69.99854 68.23981 65.59951 64.76515 64.20147 61.92191 57.91099 55.87661 52.94647 48.20264 45.79438 41.30679 32.32292 25.08155 18.79297 16.11948 10.43771 4.37229 -0.53493 -9.31266 -14.45761 -18.70834 -21.30071 -24.90641 -31.14074 -36.97955 -40.49368 -44.39131 -49.23702 -52.97536 -54.97753 -59.40639 -61.75465 -62.99505 -66.32886 -69.36671 -71.21470 -78.99438 -83.10076 -86.43230 -88.80084 -92.88113 -96.22052 -97.77446 -104.24114 -107.96870 -110.19740 -114.09174 -117.85870 -119.50649 -121.27105 -122.82002 -124.84215 -126.89046 -127.08975 -127.59852 -127.53976 -127.55706 -127.11201 -126.52596 -126.19106 -125.67283 -124.87618 -124.45494 -123.57387 -123.20132 -122.83457 -122.43085 -122.26391 -121.77411 -121.49583 -121.33384 -121.10713 -120.93653 -120.70072 -120.49254 -120.37856 -119.90854 -119.69220 -119.32997 -119.20792 -118.37632 -117.82817 -117.39533 -117.01498
1315.43928 1268.88973 1225.69067 1208.72176 1176.63699 1151.74117 1102.57761 1067.60363 1022.09180 998.58622 946.73684 929.92529 821.18925 774.80541 688.08637 622.32587 566.89408 524.51272 486.05914 454.01265 442.47329 428.11086 385.47529 352.04208 338.33347 291.36476 282.93445 265.12686 258.38997 242.49238 233.01793 226.42912 224.76315 223.84857 227.37588 236.48467 246.43376 249.32958 265.38801 278.82080 281.79769 291.41653 293.69468 299.24687 302.03322 303.82619 307.74068 316.41042 319.57254 318.20994 328.24477 330.59947 345.05188 348.58288 348.83047 362.33213 363.52073 368.02981 368.51158 366.00306 377.09436 377.22146 373.72794 375.18490 373.34208 359.60866 362.37353 363.22545 358.16007 354.04417 346.61269 345.59827 354.92501 336.79270 348.85638 362.47346 362.50018 356.33858 365.90435 349.14444 372.57602 377.57309 396.39564 392.30701 394.15477 395.45599 373.60307 384.23729 405.21516 417.03073 410.21233 409.47621 407.80169 402.33845 392.38247 375.96869 363.59671 364.03793 362.02394 349.77477 348.17508 346.92062 342.54175 336.39147 333.99939 333.79280 325.76740 329.94784 317.59456 316.71275 315.45223 306.03995 300.92287 288.77323 285.89376 279.16437 262.65595 251.39616 243.44865 225.52973 220.22543 208.56860 196.55815 183.66589 157.51785 154.65521 151.75681 143.01367 130.57114 125.82540 121.38760 115.54607 115.15123 112.86778 110.74719 106.57357 103.88276 95.17336 92.57873 85.84860 72.06165 64.69207 56.37961 46.46101 40.87585 39.50566 30.71054 27.68889 26.54254 23.85999 23.68585 21.88442 22.31717 21.50374 21.87522 22.62232 23.20382 23.61865 24.12039 25.83943 26.30447 26.56396 26.74508 27.92935 27.83911 28.51811 27.37938 27.09876 25.26562 26.29066 25.09729 32.06576 35.20788 36.82502 39.20397 41.16994 50.33683 63.75222 67.31991 89.67887 98.13769 110.60525 117.46208 126.27327 131.19359 135.59804 143.77017 144.22896 143.68513 136.27475 127.88221 119.12578 109.02152 97.62739 86.46889 86.36327 74.05991 71.50090 67.64533 66.13212 65.47886 65.04105 64.44920 61.58638 59.13184 55.16638 53.81673 47.11111 42.92078 37.46381 28.99534 24.17300 17.58348 10.56652 7.55105 1.97738 -5.65805 -11.66024 -14.21090 -22.27327 -24.68578 -29.32770 -35.97109 -38.76949 -44.33507 -48.11420 -51.08297 -55.64633 -59.65187 -61.22965 -63.32281 -65.49273 -68.71222 -70.70415 -75.99088 -86.13460 -86.23542 -89.03903 -92.96849 -96.35066 -99.48598 -102.80892 -106.92169 -111.39665 -115.59093 -117.03875 -120.21445 -121.48223 -123.52495 -124.93612 -126.33878 -127.20284 -127.53531 -127.77826 -127.45397 -127.21850 -126.68465 -126.19133 -125.84408 -125.06438 -124.60666 -123.56974 -123.20818 -122.71577 -122.57045 -122.09324 -121.73204 -121.58120 -121.33781 -121.11237 -120.91426 -120.68674 -120.48895 -120.37349 -120.00413 -119.65383 -119.35373 -119.01994 -118.92345 -118.10573 -117.24595 -117.04781
1320.69795 1298.99324 1253.07320 1222.01673 1209.30534 1162.58154 1104.83717 1067.42660 1055.74193 1009.88575 942.37920 892.35530 854.14422 791.15414 733.15567 650.12708 588.74368 563.98244 502.73223 468.16151 460.75226 432.16058 409.64113 368.98010 354.10964 322.16321 311.51595 278.56075 265.31703 243.82903 240.57523 231.25340 224.91266 223.64545 226.48589 228.92805 241.14620 249.70185 262.66048 267.32426 279.31492 286.24692 289.87290 293.35436 296.03165 300.73986 300.06322 299.81315 308.09157 307.51773 314.78568 322.73310 332.02906 337.80461 345.36659 350.37158 352.56122 355.04861 356.01384 355.31697 356.89256 353.73870 355.45456 353.94580 352.26573 350.41745 348.29023 336.21283 330.86636 326.94056 323.90984 333.21262 326.99627 330.92821 337.66677 355.65892 346.64749 346.42325 339.15834 345.17054 361.74799 356.73074 363.73604 361.50180 366.69118 370.02254 366.03199 361.72816 376.28765 385.27044 400.39882 387.40950 384.45993 380.39134 357.87610 347.62596 341.94369 345.42774 343.21592 332.68856 337.15584 333.71834 329.42395 318.69851 315.30497 315.54242 317.75170 313.27431 311.89095 305.09822 302.59925 300.04257 291.00007 285.78192 269.90810 263.13061 258.26863 241.75516 228.63084 222.10784 208.74220 194.36531 189.46057 172.90642 153.49494 142.22562 141.93787 133.73938 128.99832 122.96786 120.21034 115.35620 113.98497 112.94451 111.45731 111.02778 103.47465 101.28516 93.17226 86.39544 75.71146 64.71659 54.60411 50.25950 44.20736 37.21984 31.40168 27.17777 24.49182 22.85220 21.10201 20.81151 19.15869 18.73790 19.07646 19.97220 20.21324 20.66769 22.40522 22.68701 24.67713 24.71402 25.33167 25.39690 25.07191 26.10325 24.50159 23.04737 22.20540 22.03603 20.97053 24.22295 25.92548 27.96662 34.24005 37.93989 39.63098 50.93962 61.19497 75.22405 93.76132 109.56946 112.86717 123.06297 129.57094 134.46061 139.60621 140.41513 138.83255 130.95787 128.82408 120.03214 109.41539 99.26672 89.07428 82.55050 77.44391 68.03049 67.54180 65.98216 65.64709 65.74027 65.75228 64.18034 60.99696 57.59044 53.91140 48.52404 46.01351 42.70876 31.16157 26.92680 19.77180 13.31314 7.64725 2.57763 -4.68449 -11.28029 -15.20274 -19.37252 -26.66550 -31.47454 -34.51029 -37.89591 -43.81958 -47.31369 -50.98581 -52.63336 -58.81554 -60.47634 -63.32281 -64.82890 -67.75433 -69.99387 -72.33115 -83.46200 -84.87835 -88.94243 -91.90095 -95.93687 -99.99517 -102.16977 -104.78590 -115.26728 -115.71890 -117.14555 -119.39557 -121.94951 -123.11272 -124.17339 -126.10737 -127.30727 -127.56237 -127.94814 -127.78766 -127.21758 -126.76408 -126.31573 -125.90242 -125.40051 -124.78369 -123.81164 -123.16492 -123.02252 -122.54920 -121.92530 -121.81618 -121.52534 -121.27330 -121.15895 -120.94080 -120.61166 -120.39046 -120.26546 -119.94605 -119.62965 -119.30381 -119.00323 -118.68933 -118.53925 -117.41605 -117.09403
