25.24900 25.24900 25.25483 25.26455 25.27178 25.28144 25.29125 25.30506 25.31657 25.32638 25.35364 25.39765 25.46944 25.60797 25.69764 25.98074 26.01833 26.01786 25.92110 25.84489 26.01897 27.03819 27.46152 27.75252 27.99227 27.87214 26.79042 26.96139 27.60792 28.50129 29.97970 32.34751 36.93313 39.97298 43.13121 46.29270 50.08568 51.96703 50.36760 48.93180 44.54739 41.99743 49.26248 54.08358 61.91890 71.90806 74.18217 71.39428 66.94446 65.86661 55.29406 55.97818 61.08284 67.07143 76.74413 84.52636 82.15041 78.61755 84.48598 85.61917 86.77218 92.80883 94.10356 89.60905 91.05710 88.79925 90.14954 87.59628 87.65349 90.56571 84.97223 79.75970 77.42600 73.16837 69.49016 66.33999 69.57258 71.47948 72.53926 64.67103 55.93514 48.94861 44.39885 42.99122 37.63954 39.34110 41.08759 45.40376 49.88252 52.13998 52.41335 49.05711 43.87929 38.90188 35.75170 34.63221 35.29209 34.05035 31.99222 31.96807 30.36094 29.48982 28.28365 28.22884 27.86470 27.45483 26.80604 26.21331 25.74190 25.53519 25.41504 25.40560 25.44358 25.44330 25.41547 25.37352 25.33880 25.31833 25.30798 25.29883 25.29428 25.28894 25.28200
25.24900 25.24935 25.25431 25.26356 25.27093 25.28182 25.29056 25.30216 25.31411 25.33280 25.36324 25.42712 25.53657 25.66569 25.83583 26.11309 26.36615 26.35153 26.28543 26.20757 25.88932 26.81899 27.43900 28.07517 28.64664 28.77351 29.21299 28.55491 28.60649 29.22456 29.25393 30.32810 33.92581 37.72954 42.91825 46.94227 50.98562 54.70136 56.40312 54.44376 51.49529 48.69600 47.82866 53.08613 63.49378 68.81180 75.08047 78.63929 74.74683 71.51802 62.15908 60.97891 67.92492 72.52889 78.44698 87.79900 91.90830 88.68796 90.59844 94.49928 97.74962 97.86075 98.56086 96.88222 96.70299 98.81916 99.26783 96.25395 97.29699 94.85688 88.23090 86.56629 84.21719 78.38358 77.36227 72.25357 76.85434 78.89576 75.07129 63.72802 54.19201 49.15601 48.01202 45.36011 39.18099 43.92501 48.10669 52.21877 56.40539 56.68189 53.67021 48.15108 42.39072 42.75091 39.69428 37.96891 37.74199 38.17921 35.49194 32.84601 31.53794 31.10700 29.70831 28.71432 28.30777 27.65118 26.75790 25.94042 25.54729 25.42174 25.43883 25.47710 25.54374 25.48894 25.42286 25.39982 25.34568 25.31930 25.30935 25.29975 25.29378 25.28395 25.28000
25.25000 25.25035 25.25597 25.26141 25.27090 25.28402 25.28961 25.30137 25.31319 25.32708 25.36937 25.41513 25.48024 25.73064 26.00729 26.25204 26.67385 27.00666 27.03630 27.01269 26.83941 26.47553 26.76725 27.64315 28.64390 29.79001 30.48369 31.13481 31.89014 31.56704 33.56113 33.11208 31.97759 35.28411 40.22141 46.86554 51.36799 57.93131 61.23736 62.46170 58.32975 54.75069 52.00072 52.12092 60.14010 66.80184 74.95060 80.95456 81.41377 76.83943 75.46801 69.14503 76.07314 79.67162 86.42303 90.83255 95.65929 95.03848 97.18400 99.19147 103.47952 103.91276 103.91813 104.72718 103.69030 102.95421 104.21811 103.32270 102.25964 99.79566 98.43659 93.05624 92.56513 88.20078 86.99055 85.08287 82.45372 80.62229 75.36070 64.15955 57.77883 55.97968 54.73558 44.92844 41.04168 47.97907 53.24326 58.90617 60.54204 59.19097 54.53062 49.89144 47.04706 45.84792 44.47204 40.50855 40.49078 39.46154 36.44528 34.67309 32.70046 31.16222 30.12916 28.86867 28.38760 27.02342 26.36575 25.71115 25.59642 25.66291 25.69165 25.77799 25.67384 25.56607 25.46134 25.38790 25.34648 25.32955 25.31260 25.30104 25.29385 25.28300 25.28300
25.25100 25.25100 25.25715 25.26253 25.27291 25.28712 25.29736 25.30175 25.31581 25.32277 25.34702 25.38701 25.49566 25.64044 25.86438 26.19519 26.63672 27.04507 27.59009 28.00862 27.86038 28.14820 27.87006 27.86696 27.89574 29.33251 31.13751 33.18139 33.65212 35.68166 36.63070 35.86003 35.03842 33.84431 36.57878 41.51533 48.12498 56.62684 61.29274 66.02647 69.18904 65.10601 63.53777 58.46677 57.66225 63.86265 73.16950 82.78459 85.89256 84.80795 83.29575 79.33403 84.79699 84.85181 95.15844 99.53522 99.94577 100.36380 103.62993 104.28454 107.17454 108.31693 108.74017 108.25158 109.14001 108.52284 108.01192 107.31072 105.89180 104.31581 103.24654 99.95207 99.21060 96.13290 95.70559 88.92418 89.35763 86.17292 78.78258 68.28776 66.39500 61.90935 56.54243 46.59504 47.90309 54.51440 66.04954 65.49211 66.95862 61.84951 57.65882 54.85611 52.54660 51.40591 49.03928 44.53334 42.79054 40.23337 36.13711 33.19191 32.25110 30.18218 28.54526 27.76240 27.08126 26.52343 26.03930 25.56362 25.78059 25.95022 26.01362 25.89908 25.67886 25.52413 25.43873 25.38832 25.34831 25.32658 25.31647 25.30577 25.29688 25.29192 25.28200
25.25000 25.25000 25.25837 25.26687 25.27462 25.28568 25.29708 25.30932 25.31820 25.32708 25.33938 25.37025 25.46411 25.60345 25.75568 26.01446 26.29535 27.01916 28.11541 28.63544 29.47921 29.23582 29.86396 29.52811 29.81372 29.12869 30.60164 34.06572 36.73959 37.89623 39.76605 40.23831 40.30042 37.93230 36.44632 38.52449 46.26102 54.45145 60.78002 68.88091 72.54556 74.66554 71.50291 67.43061 63.28609 64.06403 73.73256 82.44157 88.76893 90.03061 85.93483 87.01464 91.98242 95.64921 97.99276 103.87103 105.47866 106.84130 107.28784 108.59031 108.94974 109.09538 109.42513 109.22046 109.54164 109.58009 109.39736 109.53925 109.29550 108.65431 106.79127 105.87140 105.15219 101.99614 103.08770 100.55830 93.44921 88.28960 82.25201 77.17849 73.56996 64.00512 55.00216 51.52661 55.03377 65.73042 70.75988 72.50530 70.13479 64.59482 60.45327 57.74996 55.95011 53.64042 49.26994 46.29533 42.46265 38.47996 35.41048 32.54541 30.22195 28.06449 26.77227 26.80132 26.40303 25.85929 25.79531 25.81830 26.17170 26.17930 26.04949 25.87918 25.62425 25.47017 25.42211 25.36081 25.34251 25.32777 25.31426 25.30400 25.29761 25.29028 25.28200
25.24900 25.25882 25.26099 25.26771 25.27483 25.28476 25.29433 25.30837 25.32183 25.34100 25.36453 25.37625 25.42222 25.51492 25.70680 25.85873 26.13272 26.80092 28.28954 29.25177 30.46060 31.66362 32.07857 32.84778 32.27812 31.39957 30.87946 32.85249 35.75581 39.95553 42.65846 44.49481 44.32927 42.83162 40.73806 38.81187 44.07091 51.04964 59.93386 67.08278 74.68501 77.49592 76.73153 74.67815 72.99640 74.18445 74.09670 81.66649 90.58590 92.56181 94.34179 96.65943 99.75319 101.60904 104.59656 106.30608 107.68106 108.15440 108.08151 108.34999 107.85957 108.10676 108.15374 107.80517 108.26476 108.42739 108.14530 108.58829 108.90616 109.07896 108.77733 108.73256 108.02575 108.13408 106.74516 102.75957 100.09894 92.68806 90.11844 81.79754 76.71046 65.04179 62.77066 62.61642 63.88452 69.03642 76.58055 76.43017 72.03071 66.24094 59.46940 56.77249 54.15453 49.97327 45.93405 43.25751 39.70901 37.11244 33.69307 30.20725 27.67154 26.97640 26.83257 26.91651 26.74361 26.02436 26.42009 26.64193 26.52885 26.29228 25.98254 25.70039 25.62273 25.53599 25.47943 25.39344 25.36730 25.33542 25.32132 25.30421 25.29799 25.29105 25.28200
25.24900 25.24918 25.25756 25.26702 25.27596 25.28609 25.30163 25.31804 25.33360 25.36748 25.41520 25.47619 25.51965 25.58448 25.90144 25.98088 26.69452 27.19726 27.79052 29.52650 30.58928 32.88063 34.57449 34.86388 34.62403 34.34106 33.48212 33.89273 34.57024 37.71404 41.73196 46.21197 49.27045 49.17217 47.95801 44.61717 44.13345 50.33247 58.63654 62.90064 72.03967 81.31543 83.08979 84.63106 80.07692 80.26726 81.94383 84.36615 92.43868 99.14122 101.45545 102.78960 104.00934 105.85648 107.16754 107.80921 107.85679 107.11787 106.72509 106.68593 106.70904 106.02739 106.19289 106.48932 106.84339 106.60419 105.86183 106.60339 107.31473 107.94970 108.19749 108.59455 109.00616 108.76456 108.41408 106.95905 105.09798 98.72912 94.18184 87.45244 75.63951 68.90414 73.53458 74.97732 74.74566 79.04113 79.99282 78.92011 71.25989 65.38620 58.16392 55.45498 48.51774 44.39785 40.26278 38.42839 36.86233 33.72138 30.46985 28.94137 28.33103 28.94855 29.43624 28.54959 27.66407 27.21081 26.75355 26.92627 26.57304 26.44181 25.91790 25.79025 25.76087 25.68481 25.61082 25.47819 25.41476 25.35850 25.32804 25.30990 25.29718 25.28830 25.28200
25.25100 25.25100 25.25772 25.26925 25.27737 25.28638 25.29823 25.31853 25.34546 25.39661 25.47427 25.55867 25.67668 25.81665 26.12961 26.55214 27.15548 27.73051 28.46796 29.14816 31.35487 33.73037 36.04902 38.99918 39.89424 39.07712 38.34287 38.18283 37.96337 37.71027 41.23175 46.44925 51.87927 55.02557 53.39883 50.20710 49.06533 48.62113 52.66135 59.75767 69.94141 79.90241 85.77789 86.71747 89.55151 87.42143 89.00818 95.87076 98.54732 102.66465 103.85909 107.35446 107.31800 107.33113 106.84169 106.55823 106.02189 105.49932 105.38900 105.17517 104.45334 104.22349 105.27820 104.78161 104.45978 105.41653 104.11518 104.63151 105.82871 106.28941 106.72060 106.92170 107.50791 108.16519 108.71386 108.48930 106.61773 103.69002 98.43239 90.26351 80.46579 78.17854 81.74942 83.84907 83.92657 84.12888 82.34540 75.78865 70.34094 65.67250 57.70510 52.71779 45.70101 42.19403 37.27895 34.51705 34.21032 32.40406 29.57816 28.31607 29.59736 30.75591 30.69292 31.17129 28.79789 27.59799 27.32814 27.09708 26.58840 26.75040 26.32601 26.24242 26.10234 25.97356 25.73998 25.55696 25.44726 25.37049 25.32878 25.31186 25.29752 25.28970 25.28200
25.25000 25.25041 25.25950 25.26944 25.27683 25.28971 25.30144 25.31818 25.33851 25.37387 25.44412 25.54316 25.71818 25.92663 26.23524 26.44216 27.50309 28.11057 28.86447 30.36118 31.95631 33.89761 37.01310 40.20367 42.38531 41.79719 43.33288 45.22184 44.82477 44.63576 44.77230 45.95941 51.95548 58.59563 61.01513 60.76040 57.32846 57.16079 56.14951 56.49423 65.26198 79.89870 86.68876 92.36784 96.74415 96.88552 98.54933 100.59500 103.34427 106.61956 107.51129 107.77157 107.16884 106.78448 106.00606 105.35703 104.49780 103.56716 103.49233 103.30297 102.63941 102.91268 102.26581 102.73712 103.24967 103.44747 103.20294 103.66788 103.34300 104.27944 104.61792 104.67080 105.94179 106.00692 107.57741 108.07970 107.84899 106.57926 100.22079 95.84063 91.17145 89.37961 91.77854 93.53903 91.96077 89.54189 82.10861 74.23155 68.10100 61.93749 56.54624 53.06755 47.72884 41.36021 38.17946 33.13121 30.97682 31.49324 29.58345 30.29903 32.58693 34.19169 33.73064 32.10405 30.11420 28.31526 28.31210 27.58721 28.27891 27.56271 27.36076 27.00881 26.25748 26.16437 25.73520 25.62719 25.46879 25.38014 25.34238 25.30644 25.29820 25.28993 25.28300
25.25000 25.25196 25.26261 25.26965 25.27986 25.29118 25.30136 25.31206 25.32766 25.34985 25.38416 25.47265 25.63959 25.67134 25.99905 26.21766 27.22000 27.78397 28.79374 30.49464 31.89913 34.51314 37.18827 40.59606 43.00800 45.21769 48.01077 48.39982 49.43082 48.45989 51.04718 51.20326 52.66938 60.14315 63.86458 66.03217 64.18903 62.83384 61.87188 59.94263 63.32819 75.99733 85.81543 93.63496 99.45786 101.90416 105.07289 105.97065 107.97377 108.06562 107.81480 107.00058 106.12325 105.41604 104.55821 103.30081 102.84068 101.79830 102.39776 102.13737 101.74566 101.50601 101.41918 101.67544 101.62459 101.24096 101.13036 101.34304 101.92704 102.49624 103.42567 103.74584 104.01583 105.23664 106.01258 106.98331 107.73465 107.31937 106.00333 101.28777 99.50654 96.74004 99.10979 98.86700 96.66628 90.45539 84.13285 75.16151 68.44063 62.21794 54.03431 52.66762 48.56308 40.16793 36.27439 34.04347 31.83556 33.86408 33.98895 33.24043 34.47702 36.17709 34.28937 32.61138 30.52638 29.83202 29.56522 29.17045 29.40772 29.03442 28.05131 27.40280 26.60403 26.15199 25.68647 25.54599 25.42153 25.36023 25.32490 25.30953 25.29856 25.29109 25.28300
25.25000 25.25979 25.26554 25.27069 25.28060 25.29310 25.30171 25.31727 25.32994 25.34034 25.35097 25.38819 25.42576 25.55269 25.56462 25.65725 26.52425 27.40791 28.69633 29.72495 31.35311 33.60890 34.97338 37.51841 40.16186 43.00904 47.26862 50.20419 53.53355 55.56676 56.32968 57.09361 57.85356 63.44371 67.78438 71.30453 74.45797 71.66595 72.98686 72.47729 69.76261 73.38495 83.10889 94.51228 101.02936 105.36179 107.80348 108.70535 108.76033 108.00190 106.73801 105.62094 104.01444 103.60142 103.03572 102.43059 101.78411 100.78190 100.65950 101.09282 100.43870 99.97955 99.90101 100.26325 100.53506 99.97592 100.29683 100.45656 101.22164 101.56672 101.92060 101.99726 102.32586 103.36655 104.36221 105.40756 106.78296 107.37547 107.33887 106.37676 104.42357 103.23815 104.00869 101.96903 96.22941 91.35956 82.93426 76.34405 66.87768 60.61216 50.19796 45.36311 44.37239 40.42925 36.91180 40.64167 39.06062 41.62829 38.74541 39.11942 38.00533 37.29912 35.43285 32.85322 33.67154 33.79826 32.94216 32.59837 30.56422 29.44831 28.36207 27.36712 26.63776 25.94621 25.55450 25.41251 25.35700 25.35350 25.32529 25.30965 25.30153 25.29230 25.28300
25.24900 25.25873 25.26207 25.26981 25.27778 25.29344 25.30510 25.32901 25.34451 25.38118 25.37931 25.39169 25.39047 25.42366 25.59027 25.77407 25.91753 26.11528 27.64473 27.95108 29.63111 30.23856 32.72707 33.87798 36.97482 38.91464 44.49503 48.75640 52.33952 55.06836 58.78569 62.14927 64.20267 66.25862 71.90234 75.00625 80.38020 80.65517 81.84216 77.73124 77.61070 77.55446 82.97070 92.88784 101.74259 106.47587 108.59438 108.60743 107.44605 106.10306 105.05305 103.77697 102.90879 102.39219 101.17484 101.22118 100.35118 99.55581 99.63049 99.91904 99.58245 99.11996 98.77898 98.87754 99.23618 98.91778 99.28947 99.25509 99.76237 99.91966 100.23872 101.06637 101.26046 101.95695 103.20538 103.76252 105.06306 105.82267 107.31060 107.93800 107.86160 107.71285 105.17585 102.16519 94.71283 86.72826 77.30272 72.20902 61.93814 54.25434 50.49091 42.50369 40.21716 40.54311 40.83076 44.30389 42.89908 49.31145 47.93387 43.70877 41.47157 39.01752 38.25805 36.05395 36.01810 36.77838 35.00477 32.95731 30.34394 28.78825 27.39105 26.62483 26.13222 25.70222 25.43165 25.41673 25.39146 25.38983 25.35871 25.32490 25.30906 25.29630 25.28700
25.24900 25.24939 25.25945 25.26870 25.28037 25.28982 25.30808 25.32960 25.36995 25.41674 25.45094 25.55721 25.50835 25.57786 25.80406 26.04384 26.14375 26.03899 26.17991 26.73749 27.46439 28.64650 29.35934 31.07693 33.87315 35.06734 39.42063 42.82531 48.67818 52.19756 54.64915 60.73405 65.60041 69.52566 74.01724 79.96099 83.78819 86.81409 87.12703 87.37400 88.83661 86.41598 93.81867 97.17290 101.27547 106.75248 107.44002 107.16735 106.08253 104.47049 103.56081 102.16659 101.88538 101.22656 100.33200 100.02497 99.62437 98.85163 98.47222 98.76934 98.63804 98.27987 98.14174 98.36084 98.56242 98.38451 98.60520 98.74608 98.86164 99.13207 99.26162 99.76824 100.07624 100.85565 101.57477 102.44158 104.13346 105.20814 105.68120 107.82078 108.47647 108.44408 106.82697 102.61917 89.43116 83.16174 77.47019 67.11167 58.46309 56.45814 53.22859 48.36682 44.80048 44.68916 49.79215 54.04108 54.60607 54.34317 52.61059 49.08809 44.57151 42.52908 41.67076 41.53307 40.87913 37.34497 35.55668 32.18332 29.54729 27.96279 26.86126 26.25804 25.68813 25.53447 25.47643 25.60473 25.58344 25.47940 25.40220 25.34393 25.32830 25.29695 25.30400
25.25000 25.25000 25.26122 25.27412 25.28070 25.29339 25.30237 25.32593 25.35589 25.42728 25.56731 25.62783 25.73608 25.95762 26.21619 26.79628 27.07040 27.00463 26.61969 26.38493 26.79065 27.27453 27.50181 28.81686 30.32771 32.49133 36.02592 38.81525 41.99745 45.76692 49.94934 55.53810 62.71700 63.99086 70.56752 77.00176 83.05115 87.60097 93.13549 93.86055 95.09411 95.94298 100.90701 103.60197 105.67849 107.52681 106.37375 105.57072 104.60710 103.58127 102.52730 101.20375 100.38646 99.95811 99.91704 98.91303 98.69823 98.24091 98.14850 98.06347 98.10361 97.95847 97.63597 97.73871 97.91847 97.96326 97.96489 97.79140 98.16090 98.53016 98.29857 98.34821 99.76318 100.26256 100.35793 101.23577 101.89451 103.44181 104.74398 106.12941 107.29585 108.51576 107.46021 101.32540 95.75704 79.73432 73.35817 66.32834 63.58223 63.51198 61.26478 55.77982 50.09032 52.84077 55.99047 58.83962 60.53060 61.13029 57.01205 52.03575 47.56794 45.58245 46.54878 44.59269 41.68067 38.01544 34.14415 30.80133 28.54636 26.98709 26.37159 25.77144 25.61970 25.86525 25.81914 25.93681 25.78839 25.59606 25.45617 25.37950 25.35673 25.30655 25.32900
25.24900 25.25871 25.26443 25.27402 25.28513 25.30135 25.31824 25.35206 25.40583 25.45077 25.62109 25.78805 25.94029 26.07466 26.41456 27.03610 27.93922 28.09437 27.90835 27.63177 27.20476 27.90531 28.49968 28.22798 28.91787 30.74543 33.90794 36.90020 36.13231 40.18897 41.56050 49.31998 52.07911 58.00414 63.38665 73.05887 73.25123 84.21725 89.70390 96.74262 101.03811 102.92815 105.97482 106.92170 107.70623 107.10212 105.79306 104.56015 103.01744 102.06508 100.54389 99.85241 99.45558 99.14746 98.87400 98.42811 97.98590 97.76857 97.82808 97.61148 97.61116 97.62208 97.43881 97.41163 97.55126 97.52831 97.54725 97.56929 97.75282 97.78206 97.98622 98.08234 98.69004 99.25951 99.59224 100.42037 101.08414 102.06611 103.54542 104.93541 106.08187 107.80599 107.52619 102.43269 97.11602 84.35391 79.07222 72.74773 73.24021 72.09254 65.74828 61.23302 56.78371 60.90525 63.47967 66.73910 66.12730 63.55197 60.35815 56.92396 53.37922 50.72432 47.03538 45.50417 40.15129 35.80150 32.76444 30.52498 27.44428 26.54585 26.23216 26.22468 26.39770 26.42951 26.32172 26.22856 25.92826 25.79111 25.56287 25.45440 25.36186 25.31890 25.34500
25.25000 25.25000 25.26306 25.27252 25.28723 25.31808 25.33712 25.39619 25.45575 25.57079 25.81838 26.16837 26.37907 26.77815 27.09573 27.89107 28.88858 29.33692 29.13067 29.80549 30.50823 31.10790 30.63555 29.77506 30.16950 29.87132 31.39477 32.13876 34.36205 36.62579 40.69013 40.68666 45.31252 50.36464 54.41723 58.04496 68.71262 74.29888 87.32325 93.84586 100.79733 106.48250 108.34588 108.49971 107.46130 106.22646 104.68431 103.55971 102.55360 101.05025 100.18343 99.26761 98.54633 98.23104 98.22751 98.12185 97.78852 97.60229 97.49411 97.29577 97.35427 97.36468 97.28442 97.23862 97.26539 97.32682 97.30559 97.33400 97.54763 97.45658 97.54736 97.85236 98.11258 98.46346 98.54403 99.41336 100.11353 101.26152 102.16854 103.64032 105.63546 106.81016 106.89292 105.13417 99.14325 90.56427 86.75992 86.56025 84.70378 81.13078 72.02681 66.71022 64.87883 70.27914 70.09218 70.68423 69.47571 65.31324 62.47503 58.32891 54.77715 50.45378 45.39420 38.08222 37.94695 33.71411 30.65104 28.88641 27.13731 26.22767 26.46578 27.04077 27.29869 27.02768 26.97027 26.66032 26.30225 25.84833 25.57169 25.45614 25.36087 25.33143 25.33000
25.24900 25.25270 25.26200 25.27382 25.28384 25.32822 25.37863 25.49003 25.62964 25.78258 26.19853 26.53658 27.14247 27.83149 28.61902 29.39147 30.81891 30.97045 32.20546 33.36725 33.27680 33.19352 33.49956 32.15106 32.01182 32.88559 32.17650 31.35905 32.43060 34.22612 36.29831 37.62767 39.76969 42.33829 44.47178 50.79673 60.48469 66.45132 75.03433 88.46159 99.54558 105.07023 108.32204 108.17745 106.90199 104.72193 103.66248 101.86275 101.77761 100.86946 99.90530 99.26095 98.58003 97.83377 97.70298 97.53234 97.44997 97.36555 97.29288 97.20998 97.20780 97.21474 97.17230 97.12130 97.14753 97.17115 97.23099 97.22386 97.24722 97.23120 97.46185 97.65280 97.65801 97.98050 98.21338 98.30768 99.16003 100.05583 101.49687 102.62144 104.54550 105.85123 106.79390 106.48378 103.75895 100.99471 92.89113 92.05320 90.62978 82.59138 79.42736 73.51504 76.68755 74.55002 73.04881 69.99718 65.39390 62.30101 60.56609 55.94394 50.21219 47.02342 40.55931 37.96028 32.77352 30.96528 29.43068 27.17961 26.94047 27.18615 27.69441 28.62603 28.17230 27.62675 27.49384 26.79172 26.28784 25.76043 25.54468 25.44806 25.35467 25.32143 25.31300
25.25100 25.25433 25.26224 25.27449 25.28755 25.33868 25.39747 25.56461 25.66948 25.94090 26.35277 26.76718 27.54553 28.85556 29.58109 30.43612 31.93388 32.76975 34.33385 36.23578 36.52788 37.17476 36.63440 37.68348 37.25457 35.94611 35.33784 36.24609 34.35005 35.17524 39.09227 41.87813 43.04396 46.60177 50.18565 53.96365 56.28449 67.57295 73.95291 87.56658 97.88617 104.91354 107.76356 107.68294 106.05020 104.19357 102.78455 101.51907 100.78049 100.14415 99.61271 98.36065 97.78380 97.65788 97.47384 97.28340 97.23090 97.23765 97.19747 97.13316 97.11459 97.12583 97.12690 97.09774 97.09174 97.09657 97.10973 97.13040 97.12309 97.17325 97.30032 97.39997 97.36703 97.51635 97.63484 97.84713 98.82984 99.60684 100.62836 101.76734 103.42846 104.62207 106.50245 107.14926 106.23613 104.63280 104.17234 98.82533 96.73707 90.59449 82.78689 80.37190 78.94144 76.10916 69.62733 64.38253 60.68244 54.34757 53.27889 49.50924 47.39782 42.31970 38.04450 34.08137 30.26340 28.98119 27.78806 27.51696 27.35470 27.94474 29.11797 29.22332 29.46024 28.78397 27.35103 26.75349 26.11923 25.71096 25.57625 25.40622 25.35286 25.32287 25.32500
25.25000 25.25223 25.26151 25.27004 25.29680 25.33890 25.42315 25.46674 25.70139 26.02311 26.55283 27.00017 27.59058 29.00650 30.00196 31.13306 32.19920 33.52526 34.13210 36.33479 38.92726 39.03434 40.02621 40.71954 41.12692 42.62425 41.37708 39.56635 40.46333 38.35340 40.15503 45.40136 50.78948 55.16696 55.50417 62.28250 65.39904 67.46741 74.60412 87.83626 97.51855 104.14669 106.91930 107.00327 105.44174 103.88876 102.06802 101.15525 99.46598 99.21267 98.53912 98.16142 97.65084 97.57347 97.39317 97.22550 97.18190 97.13261 97.11452 97.10639 97.09443 97.08409 97.09214 97.07815 97.07661 97.08547 97.08653 97.08506 97.07728 97.10278 97.15736 97.17063 97.23631 97.34121 97.48314 98.03214 98.60553 99.13795 100.13844 101.16490 102.92705 104.29816 105.71474 106.97823 107.86937 107.98613 106.93142 104.64254 99.58214 94.73937 89.13806 84.85874 79.28754 72.03711 65.66714 59.13165 53.87550 47.70050 44.78405 43.71934 42.31741 38.23327 33.25383 30.49003 28.84679 28.45555 29.72639 29.91447 29.64762 29.77957 31.07003 30.75328 29.86974 29.12126 27.78320 26.77218 26.19087 25.83897 25.61132 25.47008 25.38856 25.33275 25.34900
25.24900 25.25123 25.26193 25.27086 25.29510 25.32466 25.37885 25.50380 25.60414 25.85165 26.12200 26.80307 27.28627 27.75343 29.14665 29.74640 30.46425 30.60101 31.64560 34.36973 37.10710 39.22183 41.48186 43.61359 44.09350 47.21997 46.87647 46.33556 45.81511 42.80271 44.80639 48.15612 56.14784 58.76320 66.75140 69.10784 72.76661 78.43222 84.48174 89.38416 98.79256 104.30901 106.60676 105.77827 104.36853 102.56670 101.70035 100.85414 99.70706 98.71314 97.99476 97.61807 97.38405 97.31962 97.25422 97.19700 97.14282 97.12742 97.10794 97.09413 97.09118 97.07991 97.07428 97.06481 97.06938 97.07107 97.07401 97.06048 97.05824 97.03847 97.06367 97.07908 97.12455 97.17172 97.42483 97.70451 98.23925 98.71432 99.53999 101.01098 101.69039 103.56740 103.86708 106.12243 107.82600 108.69939 108.43803 105.32177 100.19333 93.41039 85.76070 82.90814 73.35019 63.44268 57.34270 52.54839 47.45869 44.41783 42.00333 38.29613 36.69563 35.58373 32.11512 31.29238 31.37028 30.67667 31.55676 31.66805 32.32729 31.80375 31.65105 30.94955 29.64176 28.48140 28.05545 27.11793 26.58690 26.08491 25.76500 25.52467 25.44451 25.34296 25.36000
25.25000 25.25223 25.26202 25.27068 25.28919 25.31939 25.34399 25.40490 25.48261 25.60961 25.85204 26.13072 26.58831 26.90843 27.49984 28.60940 28.88330 28.70825 30.00810 31.64859 35.08980 37.05616 39.95533 41.78861 45.63594 49.27257 52.59588 52.79139 53.46470 51.97485 52.23709 52.08257 56.87454 67.63763 74.01089 77.62279 81.43235 82.83484 89.55306 99.32524 103.46895 105.98050 106.17022 105.61794 103.72903 102.17163 100.78248 99.61031 99.31939 98.57525 97.81696 97.65570 97.24493 97.21386 97.18082 97.14279 97.11697 97.11071 97.11022 97.09699 97.08612 97.07760 97.06680 97.06001 97.06520 97.04880 97.06426 97.05375 97.01981 96.94385 97.00822 97.03948 97.06473 97.09761 97.31997 97.42385 97.85482 98.51105 99.24575 100.27108 101.00774 102.20905 103.18164 105.21132 107.41341 108.32672 107.80786 104.63553 99.32234 91.79207 85.00527 76.19727 67.64217 61.86109 58.53726 58.73383 53.87956 49.19693 46.77523 42.20758 36.76356 34.18385 33.20054 34.20299 34.00646 34.21059 33.76907 33.46641 33.36971 32.43524 31.40030 29.99323 29.25943 28.07336 27.68039 27.22953 26.50901 26.01931 25.77365 25.54919 25.46468 25.35806 25.40900
25.25100 25.25100 25.26107 25.27365 25.28128 25.30188 25.31862 25.33925 25.36695 25.45414 25.46773 25.62937 25.87448 26.17661 26.57858 26.99196 27.30757 28.29520 29.03825 30.69681 31.84788 34.01494 37.90850 41.53722 47.67559 53.31816 56.00500 58.90095 59.32166 60.20633 58.54856 60.03778 61.70910 69.87977 78.48153 84.50417 89.00501 91.58999 97.00900 102.55603 107.01529 107.10977 105.75001 104.48265 102.90066 101.79132 100.32186 99.11761 98.71200 98.11861 97.80515 97.52083 97.27886 97.16508 97.12521 97.10743 97.10199 97.10561 97.10591 97.09879 97.08295 97.06610 97.04808 97.03749 97.05197 97.02434 97.04418 97.04814 97.03866 96.87730 96.89673 96.92036 97.05202 97.10429 97.15963 97.39173 97.83162 98.18825 98.88630 99.18120 99.79943 101.01514 102.29329 104.71183 106.32098 107.61096 107.22072 105.77376 99.86847 92.09047 86.44034 77.58079 68.96197 69.61217 67.81089 65.22923 58.32389 55.54301 48.87712 43.42495 39.42154 37.00728 38.49344 38.70368 37.14591 36.13882 35.14974 33.97898 32.42967 31.12620 29.49271 28.73088 27.77517 27.75826 26.85158 26.68835 26.17700 25.91671 25.69510 25.52864 25.44862 25.38764 25.41400
25.25000 25.25880 25.26348 25.27048 25.28201 25.29077 25.30023 25.31526 25.32392 25.37189 25.49184 25.67815 25.73321 25.84886 26.18779 26.60189 27.59350 28.56752 31.22497 32.89689 33.79192 34.60435 39.94434 44.62362 48.52815 54.29874 58.49089 61.58167 64.62451 66.39212 65.93326 67.31076 71.19750 72.22182 79.55686 88.69749 93.43764 98.89696 101.74807 105.19844 107.21587 107.34287 105.58604 103.93604 102.48678 101.29823 100.08473 98.93512 98.34648 97.87322 97.62345 97.32624 97.24915 97.15270 97.11449 97.09527 97.08932 97.09751 97.09950 97.09608 97.08321 97.07251 97.04429 96.99613 97.00869 96.94035 96.95711 97.03797 97.00077 96.78403 96.40480 96.72261 96.96301 96.99250 97.10837 97.30441 97.72826 97.84211 98.08926 98.54257 99.24002 100.91518 102.27900 103.62768 105.95877 107.24708 107.61647 106.21555 102.20803 93.52644 88.53502 80.99922 80.73183 79.47121 76.34070 70.59360 63.71823 55.61555 48.43726 45.82000 45.41890 45.66747 42.54943 41.54733 39.89101 37.49269 35.55598 33.61053 30.90888 29.37205 28.14686 27.47402 26.94927 26.49168 26.40996 26.20528 25.98765 25.63528 25.50930 25.41652 25.40552 25.37975 25.38400
25.24900 25.25878 25.26454 25.27421 25.28448 25.29041 25.31816 25.34117 25.37584 25.51789 25.77080 26.14729 26.47291 26.59033 26.89167 28.06452 28.75929 29.51244 32.11371 34.92273 36.42108 37.62246 43.12722 46.01534 49.31024 56.63138 59.08902 62.09040 64.24546 66.55599 67.63526 71.72625 74.65279 78.63052 83.00731 87.54851 96.43292 102.86382 105.52694 107.82264 108.42039 107.30801 105.62348 103.84275 102.09199 100.70923 99.55654 98.66311 98.29522 97.77242 97.51919 97.31788 97.17649 97.13239 97.11295 97.10095 97.08144 97.08078 97.09002 97.08889 97.08474 97.07669 97.05643 96.96535 96.83931 96.75735 96.69186 96.93930 96.91278 96.32905 95.90991 96.79740 96.68764 96.69540 97.00793 97.11629 97.39819 97.55577 97.98838 98.40386 99.47964 100.87423 102.20129 103.15394 105.25770 107.09445 107.66707 107.59978 103.46636 98.46529 93.49229 88.55967 87.14222 82.42583 77.83793 71.25285 63.28420 56.67437 52.78946 51.06194 50.66330 48.03337 45.27643 43.33213 40.14393 36.90302 33.97811 32.82346 30.70055 29.32676 28.01803 27.72734 26.82882 26.50851 26.15856 25.81557 25.66000 25.56113 25.48254 25.45307 25.40384 25.37767 25.37000
25.24900 25.25176 25.26099 25.27978 25.29241 25.31773 25.34180 25.37829 25.47563 25.57463 25.87330 26.17810 26.62639 27.55535 28.25879 29.31917 30.40854 31.42289 33.01568 37.27907 38.46301 41.63430 44.50836 47.29638 51.18846 54.10272 55.66914 56.48809 58.41204 59.60354 62.69862 67.90728 70.90385 74.56666 78.72874 86.21396 93.77239 101.45606 106.45488 108.33077 108.30821 106.73508 104.78294 102.64182 101.97988 100.28497 99.11870 98.15025 97.82450 97.51459 97.36514 97.22884 97.17389 97.11164 97.10387 97.09084 97.08195 97.06762 97.07490 97.07517 97.07231 97.06828 97.05955 97.03820 96.92165 96.56708 96.29939 96.70502 96.71397 95.89079 95.81066 96.51238 96.12637 96.00665 96.61134 96.99244 97.32565 97.55709 98.12939 98.66255 99.48493 100.34275 101.43480 103.17922 105.21000 106.81445 108.09936 107.74587 106.03327 102.78450 99.01967 94.62771 89.75729 81.63703 76.38321 70.08296 64.86182 61.11015 57.48457 54.58891 51.35792 47.51277 45.21700 42.52675 39.22801 36.39059 34.52071 33.58874 31.81113 30.70708 29.34164 28.39369 27.19595 26.83709 26.33741 25.93807 25.88732 25.80078 25.64216 25.52192 25.44268 25.37973 25.40300
25.24900 25.25041 25.26177 25.27716 25.29923 25.33126 25.38387 25.45166 25.52840 25.65839 25.93857 26.29928 27.18602 28.01155 29.25685 30.31039 31.89469 33.74795 36.35717 39.28019 41.71854 44.55507 45.70994 47.34244 47.74556 48.10709 48.06442 48.18882 49.07628 52.62358 53.35119 58.24879 60.64113 67.14348 74.97686 83.90133 91.91964 98.24295 105.04202 108.36105 108.28294 106.62055 104.72573 102.68605 100.99042 100.00784 98.91394 98.06365 97.89564 97.39324 97.26750 97.16877 97.13586 97.11099 97.10284 97.09808 97.09049 97.07878 97.04277 97.02127 97.01313 97.04756 97.04940 97.02937 96.98989 96.65112 95.61408 96.04688 95.43742 94.32585 94.75428 95.16724 94.44972 94.59742 96.35111 97.04507 97.29837 97.48793 98.22707 98.41445 98.77845 99.94299 101.19627 102.27030 103.63394 106.10990 107.80763 109.07403 107.29796 105.35624 98.48872 92.53947 85.74061 79.26492 73.64681 66.80808 62.96197 58.55439 54.24520 50.52013 47.66791 43.67901 40.16899 38.07419 37.42768 35.43253 34.73385 33.17661 31.70515 30.80644 29.33076 28.46184 27.51222 26.84519 26.56817 26.21813 26.16632 25.92097 25.75416 25.54714 25.46911 25.39138 25.44300
25.25000 25.25141 25.26477 25.27470 25.30666 25.35781 25.45240 25.60354 25.71990 25.98271 26.10398 26.74639 27.28691 28.49278 29.56844 31.79614 33.31630 35.50269 36.99141 39.28535 40.67116 44.13662 43.91467 42.90295 42.49785 41.97452 40.35687 39.04180 41.96471 44.29146 47.41632 51.15352 57.80493 62.72455 75.03513 82.59689 91.38608 99.39045 104.59413 107.90548 107.97632 106.41959 104.83375 102.88539 101.41572 100.35674 99.24565 98.54493 97.91640 97.54648 97.29582 97.16900 97.12936 97.11604 97.11081 97.10444 97.09184 97.07971 97.05944 97.02470 96.92837 96.87014 96.96171 96.82519 96.77858 96.59122 95.87979 94.01366 93.14741 94.42850 91.30866 93.04638 91.57138 94.79885 95.82292 96.86151 97.10189 97.37378 97.70473 98.12954 98.53433 99.30241 100.49939 102.42436 103.98311 106.24909 107.65800 109.03212 107.85875 104.51623 99.55949 93.29413 85.24947 77.59721 73.13578 64.05376 58.82471 55.95569 51.12269 47.11848 43.39207 38.91896 35.74147 35.47067 33.30879 32.73722 31.54467 31.12210 30.57014 29.27740 28.55429 27.65160 26.91225 26.57169 26.41433 26.25622 26.20523 25.99945 25.71212 25.58279 25.45277 25.40155 25.44700
25.25000 25.25807 25.26707 25.27704 25.31207 25.38168 25.47386 25.66388 25.81719 26.19985 26.68874 27.13702 27.82214 28.69724 30.21164 30.96247 32.19371 33.56684 35.30633 36.61818 37.52678 38.72074 38.52838 38.02044 35.67174 35.50926 36.42945 38.57400 42.04320 46.49808 51.25722 54.52814 61.08248 65.24629 74.81371 83.68842 92.22007 101.06745 105.67178 108.37836 107.83171 106.44811 104.71074 102.18152 100.95967 100.03995 99.06139 98.17617 97.80770 97.65939 97.30713 97.20636 97.14638 97.12313 97.11119 97.09868 97.09358 97.08657 97.07516 97.05527 96.96361 96.69979 96.42483 95.99876 96.01033 95.03730 95.64355 94.89022 91.59617 91.17171 86.64206 86.03419 85.47521 92.15790 94.89364 96.28085 96.80528 97.03476 97.39261 97.90295 98.60868 99.77929 100.83089 102.47285 103.79154 105.69578 107.69808 108.83653 107.92120 103.49234 99.25161 93.11202 85.80247 76.86042 70.62146 66.76730 58.49350 50.81798 48.69843 44.87282 40.66810 36.21094 34.50123 31.92404 30.43001 29.88394 29.57366 29.21485 28.15727 27.91319 27.06614 26.71470 26.10210 25.77897 25.76279 25.80931 25.91437 25.73157 25.68290 25.53818 25.43028 25.36487 25.39800
25.25000 25.25761 25.26452 25.28383 25.32273 25.35984 25.45949 25.60451 25.81668 26.29321 26.77126 27.30109 28.00705 28.66978 29.49615 30.12342 31.35147 31.70812 32.42062 33.74000 33.93153 35.06984 34.82396 32.67303 33.92406 36.16796 38.31784 41.87158 42.56678 46.38611 52.47237 57.50546 63.57773 73.42986 79.39643 83.88534 93.36593 100.57965 106.52776 108.41972 107.87718 106.40152 104.22346 102.71613 101.22582 100.02821 98.93927 98.14052 97.65773 97.40514 97.24566 97.16107 97.13262 97.12123 97.11397 97.10462 97.09191 97.07784 97.07348 97.06035 97.00556 96.90388 96.59731 96.48459 96.21130 94.55316 92.79731 95.17697 94.07513 91.41230 82.23440 78.92615 82.89472 90.84942 93.65566 95.14704 95.06748 96.22223 97.20267 97.81398 98.32502 99.64090 100.48047 102.23890 104.49077 105.65349 107.83746 108.74670 107.55031 103.02486 96.58053 89.38928 81.13867 70.90642 64.08631 63.74752 57.01711 50.09315 47.34800 44.34521 39.63463 36.33577 33.67827 30.76558 29.07229 28.36346 28.14838 27.61494 27.00429 26.55886 26.30433 25.98645 25.80218 25.85832 25.67913 25.55259 25.55914 25.59180 25.55070 25.47712 25.40119 25.35461 25.36200
25.25000 25.25000 25.26225 25.27726 25.30516 25.34653 25.39036 25.53134 25.66322 25.84320 26.01341 26.68267 27.21521 27.82202 28.07022 28.03847 28.59339 29.38337 29.71556 29.08185 30.87165 30.94955 29.70680 32.15204 35.24693 39.20090 43.24035 46.47003 49.25075 51.90811 56.22536 63.60629 68.70509 76.33182 83.28785 87.04548 93.77731 98.67694 106.57019 108.06368 107.73469 106.37898 104.61169 102.96226 101.31315 99.64583 98.90681 98.19533 97.80590 97.54316 97.31214 97.20103 97.15143 97.12599 97.11620 97.10228 97.08949 97.07365 97.05764 97.04076 97.03027 96.95145 96.91633 96.80163 96.35351 96.00923 91.89419 89.59714 87.21202 83.78916 85.79180 80.57455 80.35436 83.11949 88.34849 90.08525 94.56294 96.51541 97.40836 98.19546 99.10840 99.79385 100.64548 102.42603 103.54292 105.70193 108.02850 109.05417 108.07810 103.52149 98.14001 87.79272 79.23565 70.43851 61.06364 54.64366 53.47175 45.22820 41.57907 39.77577 35.12841 33.16595 31.52671 30.51436 30.57479 29.29909 29.28460 28.20979 28.05115 28.14201 26.96392 26.98935 26.62072 26.36879 25.96874 25.78061 25.60779 25.44215 25.41832 25.38448 25.35965 25.34254 25.33500
25.24900 25.25842 25.26447 25.28302 25.29688 25.30856 25.32255 25.37786 25.46321 25.56496 25.76711 26.02648 26.54611 26.58747 26.89503 26.87733 26.63739 27.18208 27.21614 27.71536 28.20335 28.68096 29.99455 32.53319 36.31943 40.07212 46.04831 51.41123 55.26959 59.36120 62.53006 67.28750 70.26739 77.90010 84.17992 88.83475 93.52866 98.76111 105.37285 107.53498 107.76157 105.99753 104.93826 102.42241 101.17007 99.69317 98.59312 97.89196 97.62988 97.49207 97.28471 97.19456 97.14330 97.12220 97.11229 97.09928 97.09803 97.08977 97.08715 97.07229 97.06291 97.04689 97.03543 97.02251 96.90205 96.44894 95.91966 93.16629 90.39487 83.53557 77.17198 74.34229 72.02891 74.35858 84.97975 91.80591 95.27460 96.92778 97.55459 98.16293 98.89050 100.40702 100.56122 103.00694 104.13061 106.33694 107.49411 109.14919 108.51141 104.64038 97.21102 94.55377 79.05346 73.48475 68.63041 59.84234 48.18572 45.78386 40.09914 39.53460 36.67190 36.01246 34.97090 35.43281 34.61096 33.39565 31.97618 29.66959 29.17505 29.85033 29.72897 28.11017 27.67796 27.40760 26.80837 26.03266 25.81632 25.56882 25.42368 25.42171 25.37736 25.34499 25.35300
25.24900 25.25813 25.26536 25.27577 25.28406 25.30542 25.31943 25.31835 25.35969 25.40552 25.54913 25.63971 25.78828 25.91393 26.08378 26.47553 26.68049 27.21155 28.08258 28.84621 29.75235 31.10463 32.76673 35.30713 39.37242 43.39653 47.41769 52.32518 57.67646 61.95603 65.32637 69.70758 74.05657 75.80972 80.32954 82.81513 87.76937 95.51004 101.08197 106.04262 107.11578 106.41253 104.73762 103.16047 101.11908 99.78802 98.68554 98.33433 97.73351 97.57140 97.34538 97.23127 97.17008 97.12599 97.11251 97.10672 97.10371 97.09684 97.08799 97.08021 97.07271 97.06523 97.04709 97.02019 96.83715 96.30674 96.25872 95.76817 94.23828 89.39408 86.56641 81.50325 73.39841 70.64123 84.77985 87.31889 92.99149 95.13205 96.07043 95.89041 97.51339 99.74250 100.66409 102.34534 104.00929 105.98490 108.02898 108.75602 108.02752 105.79775 100.86893 94.06933 88.16256 77.72718 75.24479 67.56709 60.72695 51.03626 47.32840 45.02840 43.89949 41.03524 40.86555 40.50350 39.85145 36.17634 35.92437 33.26647 32.23849 31.29160 30.69965 30.05482 29.29497 28.20238 27.43531 26.77006 26.35961 25.79146 25.55176 25.50670 25.43278 25.35487 25.39100
25.24900 25.25151 25.26244 25.27731 25.28861 25.31068 25.35861 25.44432 25.43929 25.66875 25.68132 25.72397 25.97286 26.13058 26.31425 26.66206 28.05552 29.00781 29.63868 31.01375 32.62312 33.15877 35.91078 38.81185 40.59878 44.33640 47.95743 50.81840 53.26696 59.41532 62.51093 64.92638 67.03451 70.55779 69.21637 75.68580 82.00292 90.48321 97.63523 102.52672 106.62634 106.51956 105.34017 103.46091 101.95305 100.57937 99.34486 98.71892 98.21037 97.66805 97.39038 97.23823 97.16688 97.12457 97.11359 97.10943 97.10544 97.09743 97.08358 97.07508 97.06530 97.05736 97.01494 96.97719 96.77864 96.46962 94.36687 93.22653 93.97775 93.05051 90.49108 81.02231 77.77500 63.16249 66.88545 79.60900 85.91386 88.97094 90.92654 91.31039 93.71860 94.37464 100.43733 102.46370 104.16505 107.00517 108.23391 108.24956 106.24964 104.78810 100.43113 95.85842 90.19000 83.20883 78.37340 71.23418 65.63650 60.93026 55.38795 52.22116 50.30483 45.36405 44.09730 43.74250 40.26137 38.89818 36.48510 34.33114 33.31336 32.14805 31.26070 30.45771 29.77955 29.09372 27.82535 27.35259 26.70052 26.19515 25.95678 25.67480 25.47014 25.37329 25.44800
25.24900 25.25254 25.26275 25.27233 25.29731 25.32471 25.44944 25.53840 25.61996 25.94265 26.02202 26.40779 26.78382 27.10331 27.23885 27.94128 29.09433 30.47698 31.23411 33.01776 34.40611 35.81275 36.68242 38.26895 39.10965 40.47792 43.14973 46.07477 46.59057 52.34884 55.16276 58.02924 57.70373 57.64617 63.08400 71.91308 78.61343 86.10156 96.08055 100.86911 106.54734 106.65008 105.80429 103.37622 102.07706 100.68192 99.93571 99.27139 98.29546 97.75488 97.33477 97.24214 97.22036 97.14319 97.12035 97.10868 97.09625 97.09209 97.08243 97.07028 97.05960 97.05527 97.04284 97.00544 96.91867 96.65089 95.83136 93.53042 88.53697 84.98051 81.14465 77.69131 71.85116 71.04080 71.83447 60.57470 75.44357 82.95268 82.34751 76.57596 85.60797 94.93816 99.19354 102.11365 104.16244 106.43278 107.23258 105.18667 103.15787 97.88736 95.27864 90.03531 86.66168 81.50119 78.16905 72.77741 68.92517 64.47404 60.28340 57.43260 53.08986 50.59508 47.17404 44.24018 40.14711 37.80026 35.41732 33.56360 31.21517 30.78298 30.17423 29.58953 29.47577 28.87563 28.24149 27.66502 27.09959 26.41442 26.04631 25.81207 25.53767 25.41416 25.42600
25.25100 25.25100 25.26279 25.27851 25.30560 25.35091 25.46299 25.51893 25.75920 26.18394 26.43820 27.06035 27.52797 27.94785 28.59066 29.35254 30.12830 31.42494 32.14963 33.28024 33.25513 34.18257 34.96808 35.02635 35.77068 36.37101 39.36889 41.55479 40.59832 43.34482 47.89212 47.45801 49.98229 55.53649 62.54048 69.04635 77.06208 86.76930 93.74586 99.69030 104.76495 106.91528 105.75055 103.39711 102.28860 101.17039 100.04939 99.13008 98.31336 97.75294 97.48375 97.40418 97.28390 97.17011 97.12860 97.11590 97.10121 97.09260 97.08615 97.07707 97.06751 97.05786 97.04335 97.00906 96.93206 96.85691 96.03584 94.75343 87.64428 81.46160 87.40292 87.58630 83.69241 89.83999 84.64690 66.79271 68.15733 69.95090 63.92767 65.94770 83.58245 91.38395 93.71528 99.63285 103.16181 104.47472 104.15176 102.04332 100.08297 91.58020 86.12140 82.55660 78.47851 72.60303 69.94352 70.41770 65.51501 63.50385 58.72226 57.19214 54.59830 51.38729 46.78986 42.68969 38.72013 36.04856 34.51121 31.88020 29.75480 28.94663 28.17815 27.77136 28.06616 28.05375 27.43423 27.08097 26.75821 26.35620 25.93731 25.69437 25.50765 25.38248 25.43700
25.24900 25.25438 25.26352 25.27249 25.29799 25.36279 25.43948 25.56202 25.68923 26.04498 26.64005 27.36056 27.80386 28.23080 28.78578 29.24704 30.11812 30.55763 30.68980 32.34675 32.06763 32.65213 31.38897 31.24915 31.95309 32.62661 34.69708 35.62968 37.38419 41.97585 46.61516 48.51838 54.42570 56.43484 62.75276 71.15581 79.69712 87.27522 95.57723 103.71555 106.12926 107.15968 105.83224 104.64021 102.59292 101.24593 100.43023 99.23787 98.35200 98.04186 97.80056 97.54246 97.26800 97.17342 97.15787 97.11027 97.09596 97.07692 97.07546 97.07195 97.05650 97.02720 96.97595 96.95045 96.79529 96.45746 95.74419 92.38423 85.89273 88.33517 93.45988 93.28131 91.39163 92.26457 79.98055 72.02598 61.32077 63.30044 58.33831 62.53571 77.34689 80.47622 84.01787 90.59186 92.46724 97.81415 93.14610 92.91745 89.73904 88.98496 80.37529 74.50551 67.50539 62.77715 62.03916 61.98164 62.84279 59.09728 54.89201 50.19026 51.62705 49.76475 47.82339 44.81016 40.59600 37.16793 34.79260 31.67376 30.55437 29.06024 28.36216 27.08815 26.73369 26.71916 26.70490 26.38283 26.32620 26.13682 25.75400 25.57312 25.44283 25.34330 25.40100
25.24900 25.25387 25.26448 25.27210 25.29249 25.31624 25.40349 25.50538 25.57664 26.31205 26.44981 26.73458 27.25561 27.20051 27.43886 28.51938 28.50602 29.16314 28.65938 29.27533 29.37434 29.11562 29.46578 30.24537 33.88792 35.68208 37.63880 41.62815 41.34862 46.92903 50.95525 54.68001 61.51108 67.58230 72.84652 79.00890 84.79953 91.14877 98.83396 101.32755 105.61049 107.39183 106.70109 104.98425 103.67624 101.91885 100.79070 99.88051 99.10326 98.58417 97.90760 97.51517 97.30830 97.26755 97.17844 97.13943 97.08622 97.07635 97.06036 97.03621 97.00804 96.98066 96.78174 96.38404 95.60129 95.65710 91.55697 90.05708 90.67662 92.01368 94.21512 95.85849 94.72140 90.15954 85.87032 81.32919 77.34412 73.96441 60.19308 55.44890 62.55005 56.93943 68.01645 70.39609 77.67662 78.86383 75.08971 72.27819 77.28554 76.66045 79.37767 74.13807 65.04258 58.08842 52.94145 53.31629 51.88885 51.37129 51.08400 46.51886 45.56099 47.88831 47.24686 44.90775 43.12587 39.21543 36.79813 34.66186 32.38259 30.63144 28.53665 27.10492 26.42186 26.23752 25.83204 25.79488 25.87340 25.72692 25.64842 25.55470 25.38962 25.32583 25.37000
25.24900 25.25402 25.26436 25.27193 25.28904 25.31560 25.34335 25.43765 25.59840 25.90316 26.18489 26.41299 26.45140 26.45597 26.15703 26.82158 27.00281 27.14862 26.72245 27.46029 28.20857 29.69896 31.06669 34.55653 36.46190 42.23369 43.71594 46.63643 45.83835 51.11810 57.56675 60.95095 68.19736 72.52154 75.64656 80.92780 85.47247 90.34124 93.92118 100.68575 104.29948 106.60314 106.94103 106.04213 104.68573 103.65597 101.56103 100.62108 99.27404 98.66459 97.85792 97.58493 97.58173 97.48610 97.29788 97.18016 97.10040 97.09848 97.06774 97.03988 96.97549 96.85633 96.69861 95.90979 95.13960 94.70995 93.24170 93.92970 95.14082 94.56549 95.92610 96.74401 96.31663 94.93730 95.10726 92.25616 89.81173 77.57599 71.97892 62.02316 52.05436 45.62526 48.62119 55.26888 60.24673 59.36298 59.09646 51.63409 61.31335 59.83973 67.02012 70.05920 65.09652 60.22439 54.01028 46.64121 45.70588 43.81913 43.44807 40.58126 39.83615 41.41365 43.40159 41.67120 42.77338 41.71328 40.09187 36.49866 33.83421 31.83546 29.10000 28.22143 26.84662 26.30006 25.67777 25.54374 25.62273 25.58987 25.55050 25.44503 25.34812 25.31536 25.35400
25.24900 25.24926 25.26325 25.27247 25.28472 25.30035 25.32754 25.38196 25.51996 25.65689 25.81160 25.85536 25.84822 25.83588 25.83509 25.93276 26.18639 26.32666 27.00863 28.52702 29.27283 31.33398 35.14061 38.62113 41.60894 46.26589 48.77606 53.15837 54.78224 56.02804 60.35091 68.09010 71.15218 73.57002 74.75540 77.11324 79.85138 81.50087 89.79748 94.64441 101.17981 106.29996 107.34107 106.94740 105.58156 104.32237 102.68230 101.26591 100.01264 98.90667 98.55707 98.04308 97.75239 97.61538 97.44312 97.18769 97.17312 97.14326 97.10338 97.08105 97.04754 96.98909 96.80722 96.80758 96.35167 96.11415 95.64741 95.50225 96.70858 96.60434 96.58107 96.88892 96.75668 96.66248 96.88584 96.97985 95.50501 91.43400 88.14950 76.60834 61.39653 58.84489 56.70559 52.37537 44.69247 39.90750 43.14184 36.47084 33.32030 37.86359 53.04668 59.72651 59.37661 58.37645 54.25482 48.53127 41.62937 37.16861 36.70882 35.28228 33.19468 35.37107 39.62693 39.53925 41.03123 41.80324 40.93839 37.53849 34.77215 31.91101 30.25387 28.34470 27.71930 26.60730 26.02339 25.74718 25.49946 25.39128 25.39639 25.37553 25.32985 25.30556 25.31300
25.24900 25.25872 25.26505 25.27403 25.28541 25.29548 25.30777 25.34128 25.38546 25.45824 25.50961 25.60512 25.53732 25.88628 26.34029 26.44041 26.71307 27.09644 28.59629 29.09941 31.36982 34.30563 36.11861 39.29854 44.58382 48.23955 53.03167 57.11407 59.76357 61.46371 65.11587 68.21944 69.86858 70.24619 66.37324 69.00000 70.64684 76.33406 85.62966 94.52164 99.50404 105.75020 107.73418 107.56786 106.32003 104.92343 102.92281 102.19344 100.96363 99.62907 99.14568 98.93429 98.11609 97.85228 97.54872 97.21670 97.25985 97.26151 97.13867 97.07823 97.02935 97.00715 97.03037 96.96603 96.84893 96.71483 96.34724 96.53108 96.96049 97.04720 97.19666 97.20428 97.31702 97.32832 97.78458 98.26436 97.76209 97.07567 93.22147 84.48978 80.82156 82.34696 78.13137 73.63313 71.63464 69.37013 61.77298 51.26148 46.66285 35.93931 36.68231 48.20871 49.82367 47.82381 48.20992 49.00347 44.87340 39.37648 36.30410 31.38580 31.61259 33.10159 32.55836 34.56570 36.05867 37.95311 39.02521 37.26037 35.92383 31.60916 30.46512 28.39155 27.60601 26.52852 25.98790 25.79708 25.62994 25.48726 25.36228 25.32613 25.32061 25.30468 25.29600
25.25000 25.25972 25.26639 25.27434 25.28448 25.29014 25.30069 25.31753 25.32919 25.36376 25.37743 25.50450 25.88706 26.13984 26.61225 27.09566 27.67980 28.78566 29.67680 30.93995 33.22745 34.86028 37.39809 39.55200 42.97587 47.34412 52.98686 57.58636 59.55139 60.13641 64.20813 62.78947 62.61743 62.97844 61.36590 61.01923 66.34176 72.89402 76.04522 91.55155 97.30463 102.88083 106.14277 108.12803 106.93519 105.76532 104.42358 102.37014 101.45840 100.36832 99.85828 99.22957 98.65369 97.90430 97.56906 97.55666 97.53982 97.36102 97.24880 97.11438 97.13705 97.13580 97.12825 97.09047 97.09575 97.05429 96.94942 96.90563 97.11570 97.35011 97.55028 97.52782 97.67411 97.85318 97.96177 98.42667 99.51921 100.11970 97.46993 94.62601 92.37812 95.47838 92.08321 90.12126 90.87161 81.32794 79.57103 66.04533 60.00206 45.82358 33.31763 32.39681 35.04611 37.22287 41.84049 42.88146 42.25375 39.62526 36.69472 31.10208 29.17512 28.72289 28.31337 30.08529 31.90001 33.47547 35.54761 36.46145 35.04088 32.76969 30.83112 28.68049 27.50728 26.63335 26.14323 25.79227 25.56362 25.46824 25.41976 25.33781 25.31320 25.30521 25.30000
25.25100 25.26072 25.26717 25.27608 25.28207 25.28886 25.30024 25.32865 25.37481 25.42981 25.55609 25.82744 26.25869 26.60260 27.46998 28.37299 29.01867 29.82678 30.91574 31.38092 32.99587 33.29235 35.08710 38.72047 40.63602 46.10018 52.01489 54.81489 55.95295 54.71927 55.69874 55.47038 55.85900 53.92987 53.54610 55.75944 61.24419 69.29737 75.69016 84.99398 94.18154 101.53695 106.57241 108.28623 107.78802 106.15531 105.13931 103.33016 102.37658 101.24300 100.96818 99.76060 98.93475 98.62479 98.06429 97.89751 97.74399 97.49132 97.31085 97.20923 97.20388 97.26959 97.32608 97.24636 97.21389 97.11938 97.10243 97.25798 97.23047 97.44858 97.72283 98.03707 98.32681 98.61315 99.13971 99.03379 99.70658 100.83607 101.69157 98.96531 100.77910 102.32643 103.37650 102.78894 99.95532 96.62772 89.46565 77.96709 72.20861 53.25403 44.90494 37.13541 31.83327 32.24138 31.74743 33.51230 34.92186 33.85313 33.41985 31.75674 27.79037 27.23331 26.21791 26.91633 28.50010 31.24936 32.92022 34.02636 32.61493 31.66307 30.32740 29.52844 28.18783 27.18805 26.50348 25.88202 25.64903 25.53587 25.38804 25.34236 25.31298 25.30850 25.30400
25.25000 25.25964 25.26621 25.27523 25.28205 25.29428 25.31840 25.35323 25.42665 25.54703 25.69655 26.02995 26.59102 27.08200 27.99674 28.89575 29.43549 29.70940 30.62422 30.93393 31.26710 32.02467 34.79523 38.34967 41.55478 46.42338 50.45742 51.76718 49.17869 48.85356 47.92216 50.36789 46.44191 46.73832 50.64107 58.50554 65.81641 74.46351 79.44371 88.82336 96.38600 99.80675 104.20349 107.51309 108.40965 107.81453 106.32511 105.17113 103.32986 102.70628 101.93322 100.50358 99.42823 99.15761 98.76552 98.47156 98.28890 97.93862 97.57194 97.74831 97.39736 97.48652 97.53283 97.49547 97.42260 97.40462 97.36796 97.43903 97.54999 97.64621 98.08720 98.47621 98.58966 99.12336 99.74001 100.50043 100.95991 101.03385 103.19698 103.46822 104.34430 106.21342 107.17746 106.33644 103.77085 100.79990 93.44202 83.74788 74.52790 71.73281 56.57472 49.54868 46.15546 41.80308 35.73795 32.53254 29.48207 29.43419 31.54564 27.92541 27.13592 27.36626 27.45213 26.31633 27.09129 28.09948 29.35709 30.32985 30.28952 29.84524 29.29484 28.51187 28.17394 27.19389 26.83237 26.32950 25.85268 25.50727 25.39969 25.34270 25.31135 25.29830 25.29200
25.25000 25.25971 25.26551 25.27456 25.28214 25.29917 25.31665 25.36930 25.47619 25.65083 25.77167 26.05729 26.58999 27.24462 27.74862 28.30266 28.37430 28.49005 28.94104 29.40763 29.87297 33.00787 34.46483 38.12220 41.25134 47.11117 47.05311 45.61455 40.69392 42.32360 43.13355 41.64278 44.12321 53.11762 56.75268 63.45316 68.88417 76.92560 83.23126 85.52620 91.58716 95.44432 101.89470 106.30065 108.22552 108.51350 107.22354 106.08573 104.40796 104.22980 102.21277 101.17780 100.89885 100.06576 99.36181 98.96565 98.74257 98.11064 98.02316 98.11125 97.79792 97.82663 97.96172 97.83075 97.76162 97.84589 97.65113 97.69059 97.81067 98.20063 98.42672 98.79823 99.22523 99.60128 100.71954 100.90743 101.90870 102.99588 104.25312 105.87015 107.08347 108.04760 108.08507 105.98141 102.10998 97.29644 93.35692 86.83445 82.00170 73.47998 69.66888 59.58114 57.86454 51.56112 44.67578 40.54681 33.72309 29.10891 27.78792 29.10206 28.88270 29.17990 28.72266 26.91996 26.12895 26.93417 27.55783 29.01720 28.11067 27.89381 27.48019 27.46413 27.22253 26.99622 26.62013 26.29127 25.89358 25.60017 25.46268 25.37478 25.31130 25.29800 25.28900
25.25100 25.25100 25.26306 25.27050 25.28115 25.30148 25.32348 25.36586 25.48004 25.66847 25.80808 26.04798 26.16990 26.61404 26.81584 27.25164 27.12249 27.29356 28.20690 29.36496 30.99985 33.94864 37.48682 40.44313 41.97143 44.43241 44.48678 41.22051 38.11486 36.50116 40.56557 43.12299 48.93384 55.21228 63.73679 68.84014 72.38456 76.32183 79.65709 81.46616 85.51137 90.38400 97.33288 103.40826 107.44403 108.93262 108.52341 107.93521 106.68938 105.56411 103.38444 102.91382 102.19817 101.18931 100.01912 99.86673 99.19572 99.24403 98.80758 98.69676 98.12695 98.46131 98.51202 98.61232 98.33392 98.07625 98.06653 98.09890 98.15884 98.47372 99.31094 99.32474 100.02385 101.71884 101.89576 102.85383 103.45007 104.86098 105.36812 107.29438 108.21567 108.28177 107.79070 104.61241 97.25027 89.31970 85.65641 81.78713 78.56520 74.86905 70.90708 68.00335 63.33962 60.12840 51.77343 41.57764 37.69074 33.25135 31.62703 32.83620 31.56911 31.55574 31.06274 27.93780 26.66272 25.84849 26.39103 26.96375 26.88385 26.35588 26.34473 25.98384 26.22027 26.26729 26.34564 26.14015 25.90740 25.65461 25.46493 25.40263 25.32097 25.29791 25.28900
25.25000 25.25113 25.26251 25.27018 25.28056 25.29426 25.32118 25.33460 25.44153 25.50375 25.64590 25.59830 25.85311 26.01194 26.21722 26.17100 26.40838 26.90905 28.60662 29.95677 32.36598 35.17572 37.74516 39.40373 40.65701 39.78499 38.28502 36.70454 34.57659 37.67179 42.91136 46.71484 51.47100 57.80618 64.47343 66.17090 67.65114 69.94570 70.72558 76.04105 81.48107 88.93769 95.88528 102.28905 106.67494 108.78792 109.03871 108.78801 107.81059 106.67843 105.71089 103.95098 103.42713 101.58485 100.92514 101.04775 100.53748 99.72900 99.62089 99.84522 99.02261 99.34149 99.42297 99.17420 98.78754 98.59320 99.33342 99.36099 99.18080 99.13996 99.76830 100.66368 101.32922 101.94804 103.37585 104.16292 104.90222 106.10121 107.11456 108.04051 107.45408 106.70500 105.10222 100.01988 94.15580 85.47537 78.79741 74.48747 70.41125 69.45529 64.61082 65.90312 64.83624 61.30161 53.96250 47.89313 41.70336 39.40975 38.97210 36.91475 36.14517 34.86946 32.28409 30.50475 27.76188 26.38147 25.88647 25.82257 25.74220 25.57024 25.51464 25.41606 25.55432 25.62944 25.70302 25.80923 25.76098 25.57925 25.49682 25.37509 25.32591 25.30191 25.29300
25.25000 25.25000 25.26123 25.27178 25.28154 25.28959 25.31193 25.33397 25.38589 25.42266 25.43376 25.50648 25.50340 25.65867 25.76934 25.96791 26.35300 26.92440 28.83994 30.25220 32.46908 35.04003 35.09369 36.50458 35.99208 36.02268 34.04987 33.31318 34.08661 37.91679 43.62718 49.71667 53.09618 57.67758 59.48425 60.00355 59.08768 64.15386 68.94081 74.55559 82.24412 89.08541 96.00975 98.57532 102.22961 107.13712 107.90093 108.59372 108.41476 107.42569 106.80485 106.01908 104.69662 102.86497 102.21596 101.35826 101.54933 101.17879 100.69488 100.65727 99.52707 99.94296 100.51670 100.33718 99.66278 99.58305 100.01713 100.33849 100.14373 100.08368 100.44035 101.95471 102.79642 103.41496 104.59809 105.16894 106.78939 107.35864 107.79153 106.07748 105.38156 101.31724 101.05325 98.04626 93.72732 85.92703 74.70074 65.74099 61.38287 60.29798 58.25125 58.46865 58.98115 57.52882 56.91112 52.32389 48.25202 46.84032 45.94394 42.38433 40.62498 36.70224 36.46883 34.48586 30.19606 29.01060 27.69685 26.10454 26.14549 26.06013 25.94053 25.77113 25.50910 25.40877 25.48979 25.47493 25.49350 25.53395 25.44852 25.36051 25.32289 25.30274 25.29500
25.24900 25.25884 25.26476 25.27276 25.27788 25.28997 25.30002 25.30763 25.32948 25.34951 25.37359 25.42980 25.55721 25.79901 25.91697 26.36177 26.82690 27.32077 28.85096 30.00959 32.24963 33.24726 33.22974 32.82829 31.40279 31.62399 31.89998 34.01345 36.42472 40.62656 44.30804 48.13349 49.87239 52.57614 53.51372 52.33374 56.89014 65.98463 70.54308 75.65309 82.28784 87.39856 90.42629 94.54906 98.85754 103.68357 103.36459 105.47525 105.50537 107.19364 107.56617 107.05794 105.67576 105.17228 104.06417 103.55699 102.66449 102.55971 102.24901 101.90323 100.95405 100.93375 102.02041 101.56789 101.43305 101.17781 101.11700 101.64436 101.53509 102.33385 102.31073 102.78360 103.96697 104.99567 105.35749 107.28940 108.11869 108.41468 107.55963 105.35855 100.13352 98.39980 93.00303 92.00077 86.71000 79.81011 70.95670 63.61157 56.54655 51.76708 50.73882 50.72591 50.47926 53.50658 54.59292 54.82084 53.13744 52.39281 49.31527 45.62645 43.93661 41.29334 39.13932 35.03697 33.88606 31.01729 29.32184 28.06635 27.12123 27.05627 26.53838 26.10953 25.83700 25.76444 25.43484 25.41912 25.39770 25.38604 25.38383 25.34736 25.31691 25.29967 25.29000
25.25000 25.25984 25.26645 25.27459 25.27994 25.28805 25.29448 25.30222 25.31127 25.34626 25.39544 25.53577 25.68378 25.95950 26.22087 26.41925 26.83929 27.24400 28.38828 29.38638 30.24928 31.12118 31.13795 29.33887 29.13269 30.04107 32.13868 35.02432 37.77553 38.89002 42.11146 44.26135 43.39628 45.22140 47.72783 52.71911 63.49918 67.88775 73.17710 77.26978 77.14093 79.89119 83.46082 89.48323 94.87114 94.89435 97.36017 97.70851 101.84304 105.05976 107.47166 107.47848 107.30499 106.66148 106.08407 105.51363 104.68802 103.60788 103.25401 103.36777 102.20189 102.28933 103.44842 103.42273 102.96134 102.18962 102.84854 102.96806 103.15889 103.06967 103.77220 103.68637 106.11442 106.49393 108.40987 108.63535 108.60834 108.44148 106.09213 100.39877 95.63547 88.98335 86.25545 85.19969 83.45584 75.67024 66.83295 57.31957 51.69038 47.28747 44.42647 43.79133 43.01237 43.56488 48.46125 49.61007 52.23927 53.09953 52.26498 48.41662 45.13973 41.38415 38.16383 36.40411 34.08166 32.26466 30.68401 29.36557 28.27178 28.20061 27.31204 26.84304 26.33446 26.00936 25.66763 25.49957 25.34747 25.34467 25.32046 25.31846 25.30543 25.29767 25.28800
25.25000 25.25855 25.26612 25.27147 25.27992 25.28546 25.29247 25.30090 25.32213 25.37844 25.43189 25.58004 25.71616 25.90353 26.14273 26.30601 26.53394 26.73834 27.10959 28.01666 28.65236 28.39644 28.57916 28.07619 28.60355 30.88563 33.11715 35.12453 36.10030 36.19780 38.47297 38.58701 43.36739 46.74712 50.87030 57.79623 64.24024 69.31446 70.91039 72.43232 71.81533 75.79682 80.77971 85.04050 89.11899 87.94250 87.37495 87.64243 94.93430 99.26141 103.94672 106.48796 108.51174 108.20074 107.61556 106.92543 106.36021 105.85879 105.09050 104.37891 104.24449 104.19298 104.95322 105.46016 104.28964 103.89534 104.62239 104.38502 104.65110 105.51057 105.99901 106.06621 106.48035 107.60305 108.61128 108.92450 108.69865 107.20576 103.13553 99.67930 92.40157 84.73097 80.00642 77.92567 75.81428 74.09607 65.68217 59.16184 53.45198 46.16569 43.65443 39.71829 39.00012 39.41752 41.40297 45.50433 46.83150 49.40455 49.47629 46.60937 42.01432 38.72924 36.35119 34.60962 33.48613 32.01584 31.10477 29.64939 28.94492 28.43557 27.74705 27.08852 26.57763 26.24195 25.82437 25.62860 25.42556 25.36385 25.32899 25.31116 25.30396 25.29467 25.28500
25.25000 25.25916 25.26277 25.26777 25.27831 25.28419 25.29645 25.31263 25.32850 25.38677 25.45667 25.52719 25.63974 25.76595 25.76458 25.80890 25.81025 25.94405 26.00591 26.69635 27.01560 26.78301 27.33712 28.13334 29.80149 31.82048 33.18999 33.84464 32.86246 32.71475 36.79652 39.15982 45.33052 47.98302 56.44139 61.54476 64.79401 67.38413 67.13976 65.48563 66.29362 71.33937 77.21096 82.91795 83.14539 77.58429 76.28358 79.11919 84.91714 92.21561 99.58655 103.83466 107.92543 109.00497 109.06842 108.68457 108.27304 107.75575 107.29464 106.71424 106.15274 106.17584 106.26775 107.05133 107.15723 106.29808 106.73303 106.62373 106.90288 107.22199 107.24341 107.51012 107.73486 107.73158 107.66866 107.94432 105.94858 103.60186 97.99324 95.29335 90.47242 80.38964 72.00873 70.43093 73.18484 72.39170 67.75546 64.79209 55.75111 52.55849 47.57682 42.67512 36.56380 35.04028 37.23473 39.72713 42.67779 45.83327 46.84099 44.46330 40.25182 35.96977 33.00436 32.00902 31.12167 29.96266 29.65786 28.97872 28.05284 27.90518 27.36218 27.14876 26.55960 26.17258 25.88103 25.65842 25.45094 25.36584 25.34276 25.31218 25.30477 25.29567 25.28600
25.25000 25.25070 25.25955 25.26908 25.27825 25.28578 25.29783 25.31673 25.33530 25.35862 25.42775 25.49039 25.54143 25.54582 25.60308 25.65824 25.64814 25.70680 25.88757 26.06353 26.34126 26.60816 27.91716 28.93098 29.46028 30.46748 30.83613 31.60942 31.03997 33.06300 37.70023 42.03635 46.64009 51.34645 56.86963 62.29664 62.62121 62.48688 58.88703 59.77082 64.23250 71.14756 75.61017 76.42455 75.31162 68.41868 67.14066 68.62405 77.99704 84.83434 96.82706 101.77137 105.17099 107.54920 108.45567 109.45802 109.46880 109.27811 108.73836 108.38248 107.97171 107.87318 108.12780 108.12980 108.18762 108.28121 107.76120 107.51037 107.44998 107.35123 106.56867 106.51565 106.40348 105.51312 103.45814 104.20638 104.62224 100.81867 95.84745 88.87566 84.32098 80.48047 65.68904 67.10165 65.17691 67.03031 67.41161 64.47705 59.07666 55.86589 47.82079 42.95313 37.88301 33.69856 32.99999 34.61370 38.20274 40.34517 43.35401 42.60092 40.11373 36.20515 32.83832 30.84380 29.71777 28.93197 28.47127 27.78944 27.16603 26.77100 26.59469 26.47263 26.18989 25.94830 25.81371 25.54726 25.43608 25.36656 25.33590 25.31538 25.30127 25.29112 25.28700
25.25100 25.25170 25.25988 25.26985 25.27527 25.28486 25.30155 25.31269 25.33151 25.35689 25.38721 25.41818 25.40640 25.40186 25.47546 25.51407 25.89370 26.17624 26.35408 26.50161 26.81133 27.33389 28.04715 28.53726 28.69920 28.84427 28.78250 29.55106 31.29525 34.79996 39.22605 42.76737 48.59215 54.09147 57.17408 57.18502 55.33394 54.72950 52.49014 58.40946 63.84498 71.29199 72.63266 70.60688 67.14670 61.81455 59.02061 64.39417 73.40118 86.98570 91.22828 98.03226 100.82434 103.08840 104.73815 107.81906 108.73924 109.20585 109.14950 109.02027 108.40892 108.24701 107.91063 107.49659 107.17433 108.20354 107.38136 106.58126 105.31258 105.65808 102.20325 101.02888 100.59050 101.85765 98.79046 96.44028 97.40561 95.21347 91.52903 84.44824 79.74553 76.12659 64.88629 58.27840 61.16549 62.72794 63.47531 61.49891 59.34630 56.04073 46.24316 44.48244 38.60876 34.09317 31.31347 32.50197 36.09195 36.34227 39.55527 40.39482 39.73315 37.18005 33.34642 31.22133 29.41240 27.86257 27.39934 26.81820 26.66647 26.14627 26.06922 25.88629 25.84208 25.81047 25.65521 25.47794 25.44173 25.35990 25.33136 25.31166 25.29825 25.28958 25.28500
25.25100 25.25235 25.25935 25.26543 25.27880 25.28731 25.29722 25.31342 25.32700 25.34272 25.35830 25.35065 25.37166 25.43068 25.55179 25.74562 26.23263 26.50866 26.84448 27.18412 27.41358 27.48594 27.45383 27.15281 27.58476 28.20221 29.46069 30.50966 33.42577 35.70908 41.53564 44.86826 50.08335 53.12184 53.55496 51.05389 49.99255 49.52439 49.73597 56.06441 63.10143 67.71054 65.03070 60.50740 58.14258 56.14254 54.98971 66.43286 76.20851 82.43210 91.43052 95.70002 96.57885 98.23502 100.47003 104.09072 106.50356 106.60073 106.66503 105.85016 107.11849 105.45510 103.10004 103.34412 103.00655 105.55220 104.93369 102.52660 99.03852 97.78816 97.72756 95.16352 91.88115 91.92898 90.64837 90.23950 91.85145 91.77584 90.67703 81.02882 75.96314 69.49143 66.20209 56.97275 52.72840 53.53969 53.36690 52.91900 53.67803 53.50724 49.80390 46.32766 40.56588 35.40754 32.41330 30.76180 30.27021 32.32914 34.46185 36.19150 37.69295 37.42610 35.28120 33.30194 31.50502 29.00653 27.87022 26.65440 26.28952 25.95902 25.71226 25.60213 25.58122 25.52354 25.51338 25.44879 25.38552 25.33938 25.32067 25.30929 25.29290 25.28429 25.28200
25.25100 25.25100 25.25713 25.26354 25.27680 25.28701 25.29604 25.30969 25.31933 25.32879 25.33321 25.34114 25.37345 25.43073 25.54620 25.83054 26.17840 26.57050 26.86556 27.11653 27.22625 26.93699 26.82167 26.77682 27.68210 29.91687 30.38702 33.75822 34.63418 38.46392 41.33938 45.19890 47.12644 49.08804 47.40604 43.80310 42.80356 43.74946 50.87537 56.27551 60.02362 61.73531 60.57973 56.79484 51.96014 47.14725 51.99631 64.89792 74.33438 80.59722 86.67435 87.43108 91.66688 91.28590 93.63737 97.69813 100.82263 100.48342 100.98923 103.64441 101.67706 98.38285 97.35195 95.67354 97.46497 98.18981 100.74045 95.46394 94.11801 89.64102 87.29905 82.99669 84.43502 82.69132 85.24076 80.62837 81.32413 84.86970 84.46133 79.07621 73.56317 67.07916 61.51172 57.39093 52.27356 48.67781 46.11411 44.46918 45.02080 47.40872 47.42948 45.49020 41.42849 38.01503 33.23907 29.39680 29.20494 30.07013 32.22517 33.87804 34.96178 35.49497 34.94353 33.75051 32.31254 29.58171 28.39545 27.44332 26.80073 26.16136 25.92015 25.67452 25.50571 25.43517 25.40713 25.38421 25.34043 25.32096 25.30963 25.30432 25.29166 25.28158 25.27700
25.25000 25.25107 25.25740 25.26378 25.27515 25.28687 25.29406 25.30817 25.31470 25.32107 25.33375 25.35567 25.38876 25.45709 25.60895 25.87941 26.04056 26.28849 26.42268 26.38434 26.50525 26.18520 26.27094 27.11646 28.67643 30.68469 32.52484 34.73587 36.68892 39.73439 41.63349 42.07464 43.35829 42.60569 41.04778 38.96625 39.77617 44.16744 50.03529 54.54407 55.87966 55.43882 51.78494 50.18000 45.76256 44.65836 53.35064 60.37651 71.36443 76.81569 81.24032 81.10533 80.40413 82.89648 88.78805 93.13876 95.26372 94.93663 96.16849 99.21520 98.92180 92.45116 87.82229 86.87754 95.06283 91.96565 90.93875 87.66099 86.70152 83.33545 76.47786 73.20965 72.37409 70.29945 74.38598 73.12960 73.68114 77.46666 80.35172 76.83793 74.31645 62.84146 57.89042 58.30909 55.34396 51.44417 47.28958 43.15985 39.54053 40.76331 42.43579 43.20091 40.86281 38.03227 34.53229 31.05509 28.51937 28.73457 30.31187 30.78495 32.26134 33.50691 32.93458 31.98510 31.79745 29.82813 28.43093 27.21936 26.74877 26.42840 26.04650 25.73724 25.51004 25.40855 25.35121 25.33672 25.32744 25.31593 25.30679 25.30156 25.29314 25.28676 25.27700
25.25000 25.25000 25.25963 25.26611 25.27707 25.28369 25.29139 25.30491 25.31047 25.32198 25.33167 25.35969 25.39819 25.50861 25.60621 25.79797 26.00569 26.07702 25.99024 25.92707 25.84404 25.85023 26.48484 27.91386 28.95106 31.07588 32.64417 34.37526 36.20642 38.44718 39.06069 38.08594 38.06390 35.43525 36.19582 35.88790 40.36024 46.55064 50.03965 52.38296 50.62616 46.78163 45.47532 46.82696 43.40330 48.41523 54.12757 60.92007 67.67548 76.29257 78.23603 74.14327 75.13738 75.99280 86.49425 87.87602 88.73936 86.17916 85.78605 86.98779 93.46134 88.17667 81.78115 77.77684 77.67027 86.69584 86.95393 77.15953 73.11234 70.98411 66.75342 63.44826 62.27987 63.69496 65.42369 65.07045 65.29559 69.98073 75.85216 75.59578 71.00948 61.34197 56.02776 54.05921 52.88738 51.21497 49.92138 45.39076 40.25031 36.54274 37.73532 37.84905 38.71134 37.49100 36.01914 32.24094 30.20542 27.50458 27.67568 28.33715 30.02806 29.81364 30.70627 30.76186 30.51984 29.52455 28.16895 27.07232 26.45183 26.11937 25.81983 25.70307 25.53536 25.44664 25.37380 25.33021 25.32104 25.31609 25.30899 25.30127 25.29318 25.28678 25.27800
25.25100 25.25100 25.26133 25.26761 25.27615 25.28419 25.29137 25.30209 25.31343 25.32395 25.33394 25.35877 25.40784 25.47722 25.56730 25.69379 25.74338 25.78768 25.66769 25.58493 25.66882 26.06092 26.81086 28.25664 29.56966 30.57650 31.81542 32.65675 34.17646 35.62063 36.74231 35.17987 33.32136 32.22578 33.74051 35.50637 42.00700 47.70777 48.99519 47.58011 44.11274 40.40547 41.57908 38.63272 44.31410 49.37644 56.44153 61.96924 67.44239 70.71186 70.61641 68.37968 66.36332 71.66842 78.80814 80.07079 82.67608 79.68722 80.20009 84.77020 86.67343 83.43274 77.58633 71.39754 69.45044 78.45586 81.55752 77.13042 64.69227 62.78969 57.35617 52.92818 52.58965 52.80576 57.27792 59.59840 58.88777 63.24142 69.12943 73.27756 67.96161 62.21808 55.58807 47.81965 46.61747 49.07053 47.72454 46.81897 41.13097 36.87097 33.27860 33.79306 35.06353 33.93336 34.61692 32.93498 30.95286 28.75838 27.67069 27.07831 27.39040 28.24013 28.34532 29.02928 28.94529 28.62646 28.00188 27.05249 26.26207 25.86502 25.65727 25.50844 25.46230 25.41398 25.37404 25.34073 25.32321 25.31599 25.30673 25.30185 25.29095 25.28000 25.28000
25.24900 25.25885 25.26451 25.26908 25.27718 25.28563 25.29153 25.30175 25.31298 25.32328 25.33100 25.34928 25.37987 25.41920 25.51099 25.60209 25.55761 25.53632 25.51530 25.56032 25.89812 26.39139 27.08444 28.11476 29.08981 29.49975 30.20615 30.53890 33.57951 34.40361 33.95732 32.69148 30.16064 31.14639 32.96174 38.75607 44.02240 47.05555 45.91618 42.54620 40.29066 36.65273 35.90641 37.69277 45.61788 52.78015 59.02421 61.66834 63.21915 63.23305 62.54155 63.60632 62.29604 68.25293 74.08530 74.78875 73.13878 71.47431 72.79641 80.42180 81.49823 76.94910 72.42807 66.91030 62.22293 73.02539 78.12875 73.77044 65.93583 58.87162 47.59396 45.02382 46.08487 48.32264 50.37728 49.29175 53.09632 58.74578 64.99300 69.95149 69.32108 62.54111 56.64244 48.52621 41.21498 41.01412 44.90690 45.53064 41.62994 38.94195 34.98377 31.43698 30.38891 31.58125 32.49431 32.37343 31.30991 29.46261 28.52036 26.79805 26.40420 26.30370 26.63167 27.80712 27.23696 27.99708 27.66539 26.94810 26.28521 25.74430 25.58985 25.42643 25.38639 25.36667 25.35152 25.33605 25.32074 25.31572 25.30585 25.30087 25.29100 25.28200 25.28200
25.25000 25.25000 25.25877 25.26953 25.27844 25.28320 25.29185 25.30119 25.30854 25.31881 25.33061 25.34344 25.36477 25.41172 25.43698 25.46280 25.46295 25.41325 25.44309 25.61752 26.00456 26.45587 27.02269 27.72324 28.17239 28.26585 28.88125 29.93893 32.23066 32.50153 32.20475 30.21045 29.41266 31.06727 34.78156 37.76365 42.94521 44.57753 42.44008 38.53476 35.65467 33.17845 36.10480 43.02471 47.55985 55.88967 58.22461 56.20544 55.12454 56.13145 57.79377 54.60208 55.91119 61.85466 68.03077 70.29713 68.27283 64.95636 64.55708 71.20861 72.83594 70.49458 61.26540 58.28476 58.43728 62.22413 70.60490 71.67182 63.86463 54.31269 46.74230 41.93808 39.50747 42.12002 44.05016 43.82194 47.94239 55.52153 60.23431 66.60906 68.28254 62.84668 53.62563 48.83513 42.23613 38.55783 42.60461 43.44282 42.85109 39.43731 36.98775 32.45825 30.61283 28.91373 29.97311 30.77565 31.00799 30.27182 28.95963 27.65509 26.96887 26.37614 25.83050 26.09924 26.54268 26.87076 26.82009 26.50993 26.08138 25.82413 25.62632 25.44807 25.38876 25.34980 25.34060 25.33132 25.32232 25.31522 25.30783 25.30029 25.29062 25.28000 25.28000
25.24900 25.24966 25.25579 25.26503 25.27441 25.28310 25.29002 25.29898 25.30642 25.31661 25.32549 25.34177 25.35983 25.37419 25.39523 25.41539 25.40609 25.44197 25.51398 25.72292 25.96232 26.34552 26.67898 26.68562 27.10525 27.12499 28.11141 30.14264 31.02787 31.01089 30.41445 28.72775 29.56969 31.36799 34.03976 38.00112 40.25690 40.35455 38.01632 33.29287 32.75035 32.66058 36.53508 44.17405 50.35428 53.80138 52.25991 48.51395 48.25384 47.89771 47.69231 52.51966 54.00414 59.57088 65.89632 67.11501 61.47487 60.73474 62.63883 67.71682 69.22189 65.80170 61.04206 50.11670 51.42623 56.54326 65.89399 68.40179 64.58879 56.69432 47.95475 42.81783 38.27161 37.30825 39.52767 39.86410 43.74455 50.39998 58.24865 64.89364 66.50795 64.69879 54.84845 47.69763 41.68313 36.03708 38.91892 40.33331 41.66847 40.94884 38.83273 35.36774 31.99776 29.67528 28.00745 29.02958 29.70470 29.96458 29.33664 28.57760 27.50574 26.70321 26.01875 25.73043 25.91625 26.15689 26.19207 26.20241 25.93103 25.67595 25.55678 25.43879 25.37960 25.35603 25.33938 25.33079 25.32159 25.31566 25.30683 25.30170 25.29313 25.28786 25.27800
25.24900 25.24902 25.25410 25.26858 25.27443 25.28256 25.29108 25.29727 25.30805 25.31499 25.32574 25.33923 25.35259 25.36229 25.38147 25.38238 25.39332 25.44655 25.51345 25.61788 25.78045 25.75935 26.05796 26.14117 26.36553 27.03669 28.07417 29.46138 29.21798 28.81781 28.06673 28.42277 30.16521 31.66569 34.51637 37.38390 36.76458 36.01577 34.17492 31.42679 30.70276 33.24302 37.19385 44.27092 48.45606 50.56178 47.10778 42.20321 39.68497 42.87416 41.52362 44.70036 49.92457 56.25517 61.18740 61.88350 59.57911 54.77266 58.96901 64.80328 63.53531 60.70212 57.07417 51.00433 48.31073 54.33677 62.37898 65.91921 63.06753 56.31633 47.54723 41.11224 37.38587 34.03373 34.76960 39.46043 42.11058 49.55092 56.99842 61.31506 63.09883 60.78516 55.98360 47.86839 40.80384 34.68194 33.29356 35.84036 38.59044 38.89675 39.22596 36.75565 32.93727 30.88666 28.02160 27.22448 28.24622 28.52344 29.16313 28.73250 27.97436 27.17242 26.43235 25.91017 25.60205 25.72304 25.73480 25.74860 25.74090 25.62157 25.52014 25.43642 25.39811 25.35498 25.34257 25.33192 25.32321 25.31597 25.30729 25.30206 25.29338 25.28789 25.28000
25.25100 25.25101 25.25627 25.26690 25.27472 25.28507 25.29157 25.29962 25.30780 25.31700 25.32722 25.33817 25.34580 25.35841 25.36472 25.37207 25.38362 25.42102 25.46852 25.53375 25.55524 25.57775 25.70691 26.14596 26.58912 27.44359 28.10860 28.84725 28.68664 28.08782 27.02033 28.24334 30.01961 31.88759 34.24491 35.93702 34.92803 32.75956 30.67882 29.35334 31.48421 35.02411 38.49873 43.29322 48.02800 47.24504 43.19599 39.22238 36.47088 35.41789 38.38115 42.94257 48.91563 55.18066 60.00532 57.49355 53.73193 50.31080 55.48972 59.06711 60.42699 55.02924 50.57860 47.06472 41.98229 46.85075 60.86600 63.48193 63.25194 57.47537 47.46485 41.30491 36.14707 34.15082 34.64856 38.17990 42.68450 48.97245 54.27334 57.81878 59.74851 57.31663 54.10371 48.10128 41.41060 35.89063 31.27967 32.58535 33.92415 36.63544 38.00909 37.47517 34.74333 31.34109 28.85983 27.20090 26.78709 27.42351 28.21959 28.44935 28.20109 27.37298 26.78175 25.96371 25.71201 25.49186 25.49888 25.50808 25.55571 25.53558 25.45405 25.40743 25.37890 25.35460 25.34475 25.33381 25.32447 25.31700 25.31199 25.29845 25.29087 25.28129 25.28000
25.25000 25.25022 25.25998 25.27077 25.27645 25.28664 25.29282 25.30188 25.30898 25.31660 25.32793 25.33752 25.34494 25.35338 25.36389 25.36867 25.38127 25.40369 25.42844 25.45172 25.45958 25.50024 25.88753 26.16295 26.99280 27.48763 28.04028 28.27792 28.37631 27.30035 26.71506 27.37905 29.90276 31.55983 33.23210 33.48334 31.15189 30.14655 28.14572 29.18487 31.38422 38.32130 40.13339 44.95542 44.31686 43.88279 39.11092 35.95174 32.37080 32.20611 36.00129 40.44951 45.13192 53.30749 57.62643 56.07985 49.92508 46.19954 49.59195 52.93639 53.73845 47.99454 44.65504 43.29954 38.72487 43.29742 50.38948 61.46527 62.04916 54.54433 49.56817 42.51776 36.05486 32.31235 34.30235 38.75435 41.21023 48.64393 51.08901 51.76649 55.17670 54.33402 49.86807 44.02587 39.85800 36.28194 31.16845 29.44919 31.02931 32.41580 35.31710 36.31544 34.19336 31.02247 29.39135 27.47211 26.52087 26.83812 27.16194 27.68330 27.66164 27.34472 26.85650 26.11962 25.75260 25.55427 25.41851 25.42273 25.42965 25.42531 25.40499 25.38128 25.36364 25.35212 25.34081 25.33290 25.32599 25.31534 25.30673 25.29810 25.28739 25.27929 25.27800
25.25000 25.25984 25.26465 25.27550 25.28153 25.28925 25.29520 25.30316 25.31375 25.32067 25.33019 25.33638 25.34363 25.35202 25.35744 25.36325 25.37318 25.38255 25.39160 25.43888 25.49990 25.62883 25.87885 26.08548 26.90530 27.04250 27.23993 27.30980 26.51503 26.66987 26.55630 27.83204 29.28912 30.42869 32.03986 30.79153 29.47963 29.05910 27.51772 28.86292 32.41709 36.39410 41.10759 43.96873 43.09093 40.10323 34.53356 32.76550 30.66292 31.87425 35.49964 40.43904 45.71711 50.67242 54.00034 52.18403 47.97093 42.79753 44.91607 50.72797 51.32881 45.32830 41.57517 37.66172 35.91098 39.19693 50.77218 55.53945 58.81700 54.10552 48.34375 40.20762 33.50968 31.05874 32.97182 36.66827 40.06807 44.83702 47.04686 47.62446 49.50875 51.46052 48.33261 44.29987 39.45390 33.86997 30.61178 28.43130 28.34253 30.53321 32.62608 34.10337 32.98012 31.41139 29.44499 27.78278 26.00332 26.08345 26.28492 26.59341 27.07603 26.93823 26.64402 26.12834 25.80431 25.61493 25.48031 25.42185 25.39808 25.39388 25.38456 25.37360 25.35927 25.34987 25.34175 25.33151 25.32240 25.31510 25.30612 25.29504 25.28705 25.27729 25.27600
25.25100 25.25100 25.26275 25.27467 25.28241 25.28945 25.29734 25.30324 25.31043 25.32051 25.32742 25.33476 25.33947 25.34635 25.35252 25.36305 25.37029 25.38510 25.39865 25.43483 25.53026 25.69918 25.89508 26.15236 26.26378 26.37299 26.64975 26.34682 26.16334 26.10205 26.33144 27.87331 29.16279 30.21265 30.51057 28.63315 27.79283 27.00240 27.85453 31.06308 34.22806 37.59879 40.77218 41.89996 40.98480 37.75165 34.05253 30.69409 29.28313 30.31608 35.09859 39.35276 45.58685 49.19079 51.65855 48.91800 42.90271 40.22207 44.51601 48.34551 48.53794 42.42407 38.32757 34.74857 34.03794 40.10124 48.43118 55.04655 56.01477 53.10472 46.54746 40.83734 34.83769 30.08974 30.72716 34.19497 37.74881 40.62287 43.65385 43.03209 46.54175 45.62551 45.75385 41.31274 37.80690 33.48322 31.34876 28.72994 27.39363 28.34931 30.08746 32.44681 32.53635 31.03034 28.79826 27.41634 26.45914 25.77627 25.72895 25.96007 26.29148 26.46548 26.36258 25.94698 25.71346 25.53958 25.48349 25.42933 25.39492 25.38030 25.37304 25.36436 25.35583 25.34747 25.33851 25.33069 25.32127 25.31584 25.30593 25.29669 25.28660 25.27863 25.27600
25.25100 25.26095 25.26480 25.27449 25.28012 25.28618 25.29381 25.30235 25.30849 25.31424 25.32310 25.33259 25.34089 25.34572 25.35364 25.36006 25.36856 25.37928 25.39411 25.45956 25.49380 25.62760 25.74691 25.95676 25.96156 25.88168 25.95626 25.77605 26.07184 26.53727 26.95637 27.71918 28.72067 28.54408 28.34371 27.61997 27.05256 27.33455 28.91288 31.30581 34.63718 38.49543 39.77103 38.94597 35.75967 34.64745 31.69036 29.67100 29.01908 29.27918 37.04173 38.97780 42.32551 47.57103 49.02028 44.35130 38.96292 36.57115 40.72949 46.18149 45.38638 42.03770 36.99863 32.61753 32.98480 40.41014 45.30228 52.29423 52.41011 49.03508 44.69892 38.35368 34.43214 31.07215 28.69777 30.88264 35.36226 38.71927 40.92017 39.51036 41.21409 43.70011 42.88409 39.09901 35.63207 32.57252 30.56420 28.82953 27.06354 27.93443 28.70987 29.93400 31.45969 30.71955 29.22757 27.95126 26.58307 25.93212 25.67782 25.60910 26.03121 26.06705 26.06598 25.87062 25.64593 25.51429 25.44695 25.42370 25.39521 25.38184 25.37318 25.36226 25.35321 25.34529 25.33788 25.33113 25.32177 25.31234 25.30601 25.29674 25.28641 25.27700 25.27700
25.25100 25.25171 25.26274 25.26904 25.27866 25.28627 25.29047 25.29847 25.30700 25.31274 25.32271 25.33074 25.34191 25.34704 25.35346 25.36066 25.36665 25.37736 25.39102 25.42189 25.47163 25.54564 25.62800 25.74539 25.66288 25.57948 25.63002 25.82112 26.12980 26.91859 27.44931 27.80247 27.61055 27.50441 27.10951 26.23846 26.94556 28.37108 29.92170 32.44705 34.53699 38.13952 38.43397 37.26648 33.88732 32.36630 30.01188 28.45376 27.85101 29.86973 32.64728 37.81020 41.75380 46.13960 44.18942 40.69900 36.20572 36.33097 38.86964 42.44126 43.25299 37.09480 34.35532 31.16860 35.45389 38.99207 45.05902 50.10221 47.57050 44.76595 39.66315 36.94642 32.52266 30.21860 28.57102 31.23269 35.52179 37.96330 38.26056 36.75500 38.70914 39.90090 38.52505 36.50324 33.68997 31.44931 29.57903 28.22441 26.89011 27.24894 28.24947 28.80346 29.55019 29.94037 28.75231 28.06295 26.80625 26.21870 25.71139 25.57114 25.67841 25.84241 25.85828 25.75451 25.58579 25.47841 25.43738 25.41291 25.39523 25.38177 25.37031 25.36198 25.35222 25.34626 25.33558 25.32998 25.32163 25.31322 25.30558 25.29916 25.28805 25.28000 25.28000
25.25100 25.25100 25.26073 25.26721 25.27423 25.28125 25.28843 25.29935 25.30570 25.31246 25.32208 25.33261 25.33992 25.34589 25.35116 25.35844 25.36366 25.37558 25.38762 25.40800 25.43698 25.47309 25.55719 25.53925 25.50717 25.47893 25.55489 25.82388 26.32855 26.89809 26.98578 27.03969 26.93614 26.63081 26.02298 25.94472 26.72362 28.54869 30.47758 32.02999 34.73722 37.12116 36.45898 34.04327 31.73903 29.95042 29.07917 27.94852 27.93024 29.58030 32.48409 36.44319 40.92676 43.29849 41.85253 36.37441 32.80834 35.37608 38.30002 39.92938 38.54135 35.24275 32.18584 30.53408 34.09021 40.26155 45.62339 48.45765 46.34092 40.55413 36.60197 33.67714 31.76700 29.07899 28.08728 31.90992 34.37983 36.39642 35.54422 33.99964 35.75201 36.44321 35.44274 34.51306 32.99501 30.53425 28.75624 27.28695 26.66993 26.33448 27.32186 27.70530 28.51060 29.00549 28.55291 27.68034 27.18182 26.19866 25.79908 25.54581 25.54752 25.58871 25.61797 25.61957 25.54036 25.47736 25.41937 25.40622 25.39186 25.38515 25.37179 25.36370 25.35155 25.34512 25.33718 25.33056 25.32180 25.31463 25.30705 25.29596 25.28891 25.28100 25.28100
25.25100 25.25185 25.25921 25.26486 25.27310 25.28175 25.28936 25.29570 25.30497 25.31101 25.31794 25.33015 25.33595 25.34205 25.34733 25.35586 25.36342 25.37311 25.38593 25.39741 25.40951 25.43386 25.45711 25.47256 25.45435 25.50124 25.65550 25.93812 26.41502 26.79976 26.80807 26.60752 26.24413 25.83575 25.73777 26.27282 27.41962 29.03717 30.92147 32.81320 34.85941 36.07340 34.75679 31.67893 29.91575 28.47161 27.74845 27.20632 28.46363 30.21439 32.88813 37.01722 40.06172 40.52483 39.42874 33.95441 31.31046 33.55994 36.58274 38.21559 35.58282 33.19156 30.73897 30.80098 33.80972 36.23239 42.90570 46.45057 45.62301 39.67242 35.86632 31.90188 29.38961 28.42219 28.24112 31.23907 32.82643 34.65349 33.67551 32.88894 31.60913 31.99060 32.24558 32.81790 32.18548 30.77325 28.75467 27.08156 26.57134 25.95492 26.43095 26.83020 27.02816 27.70756 27.63469 27.27070 26.86627 26.33742 25.75868 25.58041 25.48069 25.51298 25.49651 25.50406 25.48953 25.44958 25.42401 25.40403 25.38746 25.38140 25.37414 25.36303 25.35451 25.34560 25.33907 25.33098 25.32293 25.31318 25.30618 25.29863 25.29000 25.28398 25.28000
25.25100 25.25100 25.25608 25.26303 25.26978 25.27876 25.28494 25.29487 25.30161 25.30916 25.31791 25.32592 25.33175 25.34092 25.34912 25.35404 25.36187 25.36961 25.37985 25.38652 25.39526 25.41189 25.42031 25.41208 25.43227 25.51776 25.72382 25.96073 26.16836 26.41876 26.29602 26.09412 25.71479 25.64990 25.87969 26.36954 27.61072 29.48346 30.55639 32.23316 33.43293 34.07783 32.90308 30.02948 28.73877 27.33165 27.02833 27.24784 29.00171 30.70782 34.35121 36.78192 38.92042 36.93250 35.00061 32.74739 30.08898 32.36051 34.42773 35.70852 33.61567 31.09627 29.41933 30.25039 33.69423 36.38493 41.07853 44.62231 43.76279 39.52790 35.96072 32.34880 29.57476 27.67241 27.48406 29.76583 30.85547 32.96890 32.84170 31.61863 30.04778 30.02170 29.81857 30.83129 31.05261 30.01371 28.69857 27.60992 26.72272 26.01410 25.71715 26.04808 26.47193 26.95709 27.02093 26.86793 26.55257 26.20003 25.76808 25.56197 25.45741 25.43593 25.44834 25.44871 25.44851 25.42933 25.41256 25.39881 25.38649 25.37834 25.36971 25.36271 25.35345 25.34604 25.33772 25.33052 25.32396 25.31430 25.30857 25.29828 25.28963 25.28198 25.27800
25.25000 25.25056 25.25630 25.26030 25.26840 25.27531 25.28613 25.29137 25.29941 25.30690 25.31647 25.32568 25.33445 25.33984 25.34758 25.35417 25.36004 25.36774 25.37578 25.38296 25.39125 25.39051 25.39282 25.40600 25.43529 25.50051 25.54659 25.68927 25.95970 25.99810 26.09188 25.75463 25.64606 25.66926 26.11922 26.76010 27.51700 28.94909 29.32867 30.65280 32.16449 32.85094 31.27233 29.27518 27.82168 26.88856 26.48238 27.69832 29.32545 32.13597 35.81766 37.19441 37.50612 36.02156 33.01088 31.00164 29.54391 31.00452 32.92769 34.51231 31.55594 30.02154 28.57302 29.83741 33.64933 36.33824 40.14779 44.30354 43.52909 42.12745 36.61632 32.87275 30.81227 27.90879 26.80783 28.12082 29.57640 31.54453 32.70016 31.67588 30.10285 28.27735 28.07475 28.86496 29.92638 29.74143 28.50943 27.62953 26.87099 25.93865 25.63018 25.77025 26.04048 26.34410 26.20072 26.14947 26.06373 25.96840 25.77032 25.59417 25.47153 25.43567 25.41781 25.42438 25.41029 25.40701 25.40264 25.39338 25.38191 25.37275 25.36686 25.36053 25.35128 25.34268 25.33856 25.33293 25.32182 25.31362 25.30586 25.29808 25.28851 25.27998 25.27600
25.25100 25.25208 25.25449 25.25993 25.26633 25.27372 25.27951 25.28911 25.29713 25.30833 25.31441 25.32214 25.33133 25.33798 25.34553 25.35259 25.35883 25.36614 25.37140 25.37997 25.38097 25.38154 25.38864 25.40120 25.42275 25.44883 25.48251 25.55020 25.65831 25.75381 25.55947 25.52563 25.51401 25.52234 25.87871 26.54033 27.49587 28.28995 28.47828 29.30715 30.51864 31.27289 30.33254 29.04813 27.08905 26.44865 26.15508 27.72306 29.24607 32.25468 33.79293 36.07707 35.63038 32.56384 30.43520 29.12127 28.23805 30.85965 32.19617 31.98148 29.91233 28.46156 28.20750 29.90246 32.57962 36.19647 40.15195 42.62667 41.80861 40.28255 36.68809 33.42329 29.95411 28.16316 26.57642 27.18760 28.50027 30.35649 31.63297 31.57190 30.12615 28.08909 27.01127 27.66896 28.66790 29.15144 28.69995 27.71741 26.78486 26.03162 25.74156 25.70467 25.72327 25.85389 25.90797 25.88966 25.87639 25.68357 25.64744 25.52115 25.47225 25.42632 25.40619 25.40050 25.40073 25.39513 25.39061 25.37973 25.37637 25.36928 25.36391 25.35621 25.34917 25.34230 25.33537 25.33031 25.32133 25.31270 25.30555 25.29704 25.28725 25.27900 25.27900
25.25000 25.25056 25.25466 25.25788 25.26545 25.27250 25.28033 25.28796 25.29553 25.30472 25.31369 25.32246 25.32996 25.33783 25.34365 25.35094 25.35409 25.35976 25.36511 25.37012 25.37389 25.37425 25.37787 25.38575 25.38694 25.41804 25.42608 25.48044 25.47302 25.50840 25.47196 25.40847 25.42068 25.62334 25.97415 26.33095 26.84911 27.05317 27.11872 28.08415 28.91125 29.58694 29.36056 28.25378 26.95109 26.04333 26.16185 27.39950 29.18984 31.77544 33.39476 33.95267 33.59047 31.58920 28.87882 27.71941 28.85057 30.63016 31.29011 30.79534 29.53908 27.44232 28.07499 30.34771 32.79832 35.53330 38.93746 38.95561 39.33145 36.75575 35.21426 32.69593 29.43645 27.50736 26.10541 26.18677 27.28020 28.72312 29.79369 30.85374 30.28430 28.07667 26.98328 26.72959 27.64367 28.31519 28.20188 28.09901 27.35975 26.53417 25.92644 25.59955 25.55433 25.63101 25.59109 25.61121 25.59166 25.58340 25.53442 25.47235 25.43456 25.40472 25.38882 25.39001 25.39064 25.38548 25.38321 25.37802 25.37075 25.36350 25.35651 25.35323 25.34417 25.33780 25.33294 25.32336 25.31814 25.31146 25.30199 25.29563 25.28710 25.28030 25.27700
25.25100 25.25100 25.25443 25.25719 25.26293 25.27042 25.27709 25.28683 25.29017 25.30176 25.30813 25.31929 25.32793 25.33398 25.34091 25.34766 25.34997 25.35637 25.35943 25.36482 25.36792 25.36940 25.37143 25.37336 25.37412 25.37475 25.39494 25.40484 25.42556 25.41922 25.39766 25.40295 25.46263 25.67443 26.00133 26.16527 26.42744 26.34028 26.68963 26.97954 28.08542 28.15915 27.56535 27.12098 26.41243 25.80110 26.33502 27.42969 29.08072 29.80925 30.49728 31.74119 30.68983 28.91935 27.83264 27.22740 28.77735 30.79748 30.92510 30.00903 27.53336 27.23170 28.08109 29.39091 32.03104 35.37137 37.56297 38.19757 36.01226 34.35476 33.69204 32.38228 30.13583 27.50603 26.61652 25.97175 26.44333 27.46824 28.65342 29.81943 29.73090 27.84671 27.09684 26.21067 26.77077 27.51132 27.70504 27.73105 27.02376 26.41548 25.95914 25.52389 25.44062 25.44288 25.42685 25.47292 25.46486 25.43556 25.42670 25.41831 25.40204 25.39377 25.38358 25.38180 25.37912 25.37785 25.37644 25.36993 25.36308 25.35856 25.35247 25.34776 25.34075 25.33446 25.32665 25.31970 25.31491 25.30815 25.30069 25.29311 25.28538 25.27930 25.27600
25.25000 25.25000 25.25270 25.25674 25.26162 25.26690 25.27403 25.28166 25.29050 25.29555 25.30703 25.31277 25.32303 25.32979 25.33741 25.34232 25.34632 25.34929 25.35504 25.35604 25.35941 25.36049 25.36261 25.36247 25.36142 25.36130 25.36909 25.37292 25.37772 25.36980 25.37640 25.39500 25.48941 25.59422 25.81028 25.83236 25.99798 25.91342 26.31568 26.90147 27.38280 27.24433 26.81751 26.25189 25.96667 25.67994 26.58828 27.69693 28.82947 29.63885 29.27256 28.97955 28.47311 27.69802 26.78653 26.89781 28.81334 30.14922 30.08699 28.50719 27.01827 26.46738 27.26855 28.86590 31.24030 33.78386 35.94459 36.08082 33.76834 32.42122 32.18861 31.47646 29.95300 28.13932 27.06884 26.05926 26.06003 26.83295 28.25809 28.94883 28.95751 28.14138 26.85593 26.09067 26.36302 26.69485 27.05010 27.16231 26.78067 26.33389 25.90222 25.65492 25.47021 25.39809 25.38239 25.37682 25.40284 25.39818 25.38667 25.39437 25.38153 25.37902 25.37591 25.37171 25.36915 25.36802 25.36475 25.36252 25.35753 25.35171 25.34797 25.33777 25.33553 25.32950 25.32343 25.31722 25.31006 25.30334 25.29736 25.29150 25.28395 25.27730 25.27400
25.25000 25.25000 25.25179 25.25580 25.26105 25.26629 25.27137 25.27839 25.28619 25.29248 25.30174 25.30918 25.31972 25.32458 25.33259 25.33688 25.34140 25.34398 25.34534 25.34955 25.35201 25.35253 25.35235 25.35312 25.35143 25.35640 25.36284 25.36527 25.36139 25.36123 25.37191 25.39297 25.45763 25.51814 25.61741 25.63942 25.67900 25.75528 26.15651 26.53215 26.82034 26.63839 26.42090 25.78756 25.56037 25.88609 26.49195 27.74111 28.76766 28.92453 28.12304 27.69318 27.19903 26.55719 26.21069 27.29083 28.65357 29.41855 28.07700 27.92351 26.96773 26.12219 26.85108 28.79265 30.51814 32.86875 34.53136 34.64516 32.48925 30.31465 30.00233 30.44898 29.39171 28.24842 26.84532 25.98042 25.69332 26.59728 27.02002 27.66133 28.15957 27.19653 26.57946 25.87861 25.74860 26.18075 26.50621 26.64586 26.45089 26.16647 25.91003 25.64355 25.51800 25.40925 25.37911 25.36755 25.37027 25.37361 25.37133 25.36881 25.37205 25.36970 25.36680 25.36438 25.36157 25.35948 25.36092 25.35439 25.34875 25.34409 25.34183 25.33469 25.32971 25.32071 25.31727 25.30643 25.30220 25.30023 25.29448 25.28688 25.28215 25.27464 25.27200
25.24900 25.24908 25.25117 25.25487 25.25915 25.26281 25.26948 25.27652 25.28234 25.29127 25.29937 25.30585 25.31418 25.31906 25.32621 25.33120 25.33427 25.33570 25.33760 25.33922 25.34328 25.34614 25.34622 25.34420 25.34441 25.34851 25.35265 25.35100 25.35200 25.35460 25.35941 25.37399 25.41079 25.45438 25.51710 25.50781 25.47959 25.60413 25.94184 26.10781 26.23741 26.06935 25.90048 25.52516 25.54853 25.79861 26.61106 27.65131 28.11505 28.36431 27.76226 26.68232 26.35160 25.90176 25.94422 27.41346 28.67203 29.06725 27.90033 27.12781 26.56202 25.95958 26.59331 27.74129 29.95034 31.81122 32.69231 33.01029 32.15624 29.16142 28.45227 28.39103 28.04997 27.53489 26.34297 25.96259 25.57312 26.00979 26.57237 27.41504 27.58368 27.16998 26.34982 25.80043 25.71189 25.70336 25.90569 25.95386 25.95022 25.86205 25.71731 25.62058 25.47850 25.40822 25.37881 25.36071 25.35734 25.36311 25.36315 25.35993 25.35971 25.35976 25.35993 25.35756 25.35319 25.35392 25.35068 25.34487 25.34210 25.33725 25.33080 25.32517 25.31754 25.31292 25.30438 25.30299 25.29832 25.29357 25.28897 25.28605 25.28012 25.27330 25.27000
25.25000 25.25008 25.25133 25.25368 25.25728 25.26223 25.26711 25.27220 25.27737 25.28586 25.29209 25.30112 25.30718 25.31738 25.32077 25.32375 25.32634 25.32995 25.33221 25.33521 25.33735 25.33892 25.33598 25.33631 25.33792 25.34233 25.34492 25.34795 25.34711 25.34228 25.34424 25.35266 25.36995 25.39671 25.37800 25.38372 25.41516 25.49032 25.72248 25.88999 25.93456 25.79092 25.46344 25.40991 25.53379 25.87445 26.45240 27.07753 27.55467 27.76390 27.15235 26.42906 26.00653 25.68348 26.25187 27.01336 27.96726 28.43273 27.75487 26.74985 25.88854 25.80787 26.50765 27.58942 29.02344 31.00329 31.42002 31.13902 30.17524 28.21893 27.25675 26.92965 26.95964 26.63286 26.34343 25.76737 25.49055 25.85670 26.21332 27.04865 27.06198 26.83823 26.22857 25.95467 25.70603 25.49303 25.60081 25.65663 25.62443 25.63565 25.54972 25.46695 25.43409 25.38240 25.36755 25.35079 25.34846 25.35173 25.35060 25.35214 25.35198 25.35372 25.35044 25.34848 25.34366 25.34593 25.34520 25.34018 25.33330 25.32864 25.32494 25.31726 25.31244 25.30787 25.29857 25.29403 25.29070 25.28587 25.28588 25.28256 25.27732 25.27230 25.26900
25.25100 25.25108 25.25198 25.25315 25.25563 25.25896 25.26256 25.26791 25.27340 25.27895 25.28769 25.29082 25.29997 25.30842 25.31394 25.31768 25.32096 25.32477 25.32433 25.32959 25.33089 25.33081 25.32858 25.32911 25.33094 25.33877 25.34018 25.34107 25.33902 25.33717 25.33678 25.33438 25.34941 25.35730 25.35314 25.34691 25.35872 25.41930 25.52941 25.62428 25.64214 25.53215 25.41675 25.43062 25.63659 25.89277 26.52200 26.88174 27.20937 27.14547 26.55724 26.18754 25.82812 25.61694 26.26262 26.95775 27.81820 27.92896 27.40743 26.50855 25.65738 25.92021 26.53935 27.60285 28.57081 29.38701 29.62091 29.50732 28.84377 27.97534 27.04867 26.14191 26.02165 26.25704 26.04202 25.58082 25.45874 25.65201 25.95382 26.04705 26.55102 26.43281 26.18738 25.88047 25.62877 25.50579 25.41208 25.46559 25.50120 25.47406 25.43285 25.39201 25.37976 25.36752 25.35569 25.34236 25.33878 25.34267 25.34443 25.34205 25.34284 25.34571 25.34239 25.33880 25.33922 25.33870 25.33780 25.33533 25.32756 25.32196 25.31683 25.30706 25.30309 25.29206 25.29075 25.28586 25.28430 25.28137 25.27956 25.27821 25.27520 25.27130 25.26800
25.25100 25.25100 25.25186 25.25258 25.25372 25.25718 25.25992 25.26377 25.26789 25.27387 25.27931 25.28911 25.29521 25.30130 25.30918 25.31039 25.31195 25.31331 25.31916 25.32066 25.32427 25.32266 25.32088 25.32015 25.32245 25.32599 25.33045 25.33142 25.33334 25.33299 25.32752 25.32917 25.33169 25.34001 25.33986 25.33296 25.34128 25.35023 25.39867 25.48315 25.48996 25.43786 25.37462 25.44448 25.58089 25.93985 26.25530 26.52148 26.74477 26.63998 26.27788 25.75357 25.54496 25.62748 26.19182 26.71564 27.09309 27.08684 26.73342 26.19583 25.68491 25.84104 26.30407 27.16924 27.63949 27.94566 28.24228 28.16398 27.60319 27.01354 26.58090 26.07262 25.71817 25.70100 25.74061 25.56188 25.42100 25.48532 25.73880 25.93411 25.99604 25.93021 25.88253 25.80220 25.60209 25.44783 25.35622 25.40946 25.41577 25.40481 25.37457 25.35411 25.34624 25.33798 25.34216 25.33749 25.33408 25.33319 25.33401 25.33542 25.33492 25.33762 25.33489 25.33563 25.33270 25.33247 25.33228 25.32945 25.31925 25.31364 25.30777 25.30073 25.29598 25.28800 25.28434 25.27995 25.27850 25.27533 25.27541 25.27448 25.27245 25.26997 25.26700
25.25100 25.25100 25.25129 25.25226 25.25327 25.25578 25.25717 25.26018 25.26489 25.26833 25.27480 25.28292 25.28994 25.29431 25.29957 25.30413 25.30394 25.30688 25.31119 25.31508 25.31544 25.31582 25.31488 25.31541 25.31853 25.32084 25.32425 25.32155 25.32491 25.32359 25.31997 25.31954 25.32204 25.32637 25.32315 25.32022 25.32573 25.33560 25.34086 25.36465 25.37739 25.35565 25.34291 25.42853 25.51926 25.72727 25.74525 26.17666 26.27623 26.11371 25.88122 25.69876 25.47006 25.45578 25.86867 26.34099 26.61462 26.50949 26.26449 25.77858 25.55263 25.64849 26.15099 26.53997 26.73283 26.83210 27.20166 27.10211 26.96868 26.52683 26.25665 26.01920 25.72862 25.51856 25.55554 25.47498 25.36320 25.38944 25.54944 25.58730 25.63859 25.65615 25.65921 25.56308 25.47386 25.41022 25.34788 25.33837 25.35914 25.35397 25.33677 25.33081 25.32819 25.32772 25.32745 25.32641 25.32379 25.32400 25.32364 25.32623 25.32756 25.32627 25.32750 25.32276 25.32542 25.32420 25.32176 25.32219 25.31476 25.30500 25.30101 25.29339 25.28691 25.28160 25.27607 25.27341 25.27178 25.27154 25.26985 25.26951 25.26932 25.26930 25.26600
25.24900 25.24938 25.25080 25.25139 25.25213 25.25365 25.25476 25.25744 25.26117 25.26447 25.26911 25.27738 25.28077 25.28832 25.29361 25.29721 25.29776 25.29963 25.30429 25.30677 25.30759 25.30805 25.30928 25.31059 25.30744 25.31325 25.31438 25.31502 25.31586 25.31704 25.31478 25.31354 25.31330 25.31523 25.31398 25.31220 25.31177 25.31112 25.31608 25.32670 25.32343 25.32926 25.33265 25.40626 25.49048 25.56512 25.71290 25.71456 25.94022 25.87016 25.72027 25.56635 25.40911 25.46308 25.75443 25.94400 26.16484 26.14302 25.79717 25.61033 25.46900 25.56013 25.82971 26.01266 26.34819 26.33843 26.38554 26.51549 26.39868 26.15145 25.86002 25.76883 25.62189 25.48121 25.44761 25.40087 25.36698 25.35212 25.40841 25.46478 25.46654 25.51470 25.48458 25.45672 25.40272 25.35018 25.32221 25.32142 25.31954 25.32448 25.32463 25.32007 25.31932 25.31777 25.31730 25.32043 25.31679 25.31758 25.31778 25.31728 25.32142 25.32142 25.32120 25.31979 25.32053 25.31840 25.31537 25.31156 25.30681 25.29941 25.29200 25.28675 25.28184 25.27512 25.27231 25.26831 25.26661 25.26587 25.26511 25.26597 25.26599 25.26631 25.26400
25.25000 25.25038 25.25026 25.25070 25.25134 25.25226 25.25304 25.25545 25.25807 25.26163 25.26557 25.27176 25.27579 25.28371 25.28517 25.28824 25.29104 25.29447 25.29395 25.29953 25.30140 25.30089 25.30116 25.30231 25.30243 25.30390 25.30598 25.30431 25.30928 25.30817 25.30615 25.30434 25.30700 25.30444 25.30471 25.30307 25.30342 25.30347 25.30445 25.30729 25.31022 25.31370 25.32717 25.37034 25.37688 25.42064 25.50007 25.61774 25.64099 25.58274 25.52498 25.48823 25.36139 25.42147 25.51337 25.76803 25.93793 25.88548 25.70225 25.47914 25.43986 25.55372 25.59913 25.75680 25.87187 25.94580 26.05613 25.99464 25.85755 25.75592 25.68248 25.58777 25.50569 25.38804 25.36478 25.36736 25.34023 25.33660 25.37401 25.38719 25.37414 25.37770 25.38653 25.35283 25.33373 25.32702 25.31094 25.30694 25.31011 25.30799 25.30899 25.30807 25.30887 25.30852 25.30839 25.30808 25.30848 25.30978 25.31058 25.31298 25.31364 25.31424 25.31054 25.30892 25.30679 25.30763 25.30533 25.30141 25.29762 25.29126 25.28751 25.28129 25.27682 25.27018 25.26527 25.26433 25.26252 25.26209 25.26202 25.26162 25.26290 25.26430 25.26100
25.25000 25.25000 25.24989 25.25018 25.25037 25.25086 25.25176 25.25334 25.25644 25.25804 25.26227 25.26694 25.27123 25.27466 25.27927 25.28132 25.28071 25.28481 25.28705 25.28913 25.29148 25.29452 25.29248 25.29287 25.29592 25.29799 25.29688 25.29664 25.29900 25.29891 25.29942 25.29845 25.29760 25.29860 25.29409 25.29517 25.29141 25.29401 25.29455 25.29529 25.29956 25.30552 25.31279 25.32356 25.33367 25.34678 25.38435 25.41853 25.45664 25.46714 25.46734 25.41530 25.36009 25.38245 25.42867 25.57801 25.66951 25.61438 25.55239 25.45138 25.39544 25.41013 25.46784 25.49034 25.51447 25.52778 25.62567 25.72726 25.61091 25.57639 25.47191 25.48606 25.43767 25.38601 25.36096 25.33172 25.31693 25.31178 25.32415 25.32903 25.32521 25.32569 25.32335 25.31904 25.30767 25.30437 25.30023 25.30031 25.30181 25.29969 25.29827 25.30093 25.29825 25.29788 25.29930 25.29985 25.30027 25.30181 25.30223 25.30442 25.30506 25.30774 25.30275 25.30298 25.30122 25.29873 25.29742 25.29316 25.28881 25.28420 25.27928 25.27605 25.26941 25.26493 25.26238 25.25976 25.25878 25.25880 25.25826 25.25955 25.26019 25.26130 25.25800
