25.25000 25.25000 25.25069 25.25236 25.25456 25.25765 25.25951 25.26379 25.26730 25.27022 25.27587 25.27925 25.28339 25.28661 25.29136 25.28959 25.29073 25.29390 25.29759 25.30109 25.30330 25.30542 25.30953 25.31219 25.31471 25.31537 25.31468 25.31122 25.30940 25.31205 25.31188 25.30968 25.30968 25.31047 25.31099 25.31193 25.31073 25.31254 25.32443 25.32015 25.31055 25.31360 25.34178 25.35231 25.36842 25.44474 25.44250 25.47796 25.44283 25.39382 25.37058 25.46192 25.50351 25.53724 25.49682 25.38760 25.39512 25.54879 25.75901 25.97387 25.99477 25.96548 25.78382 25.54811 25.37758 25.37366 25.44042 25.65208 25.77130 25.84306 25.76429 25.56296 25.47535 25.35236 25.33712 25.40554 25.45960 25.52607 25.53892 25.50167 25.40280 25.36101 25.33042 25.32035 25.33943 25.34675 25.34643 25.33938 25.31808 25.31194 25.31043 25.31107 25.30991 25.30996 25.31179 25.31168 25.31008 25.31069 25.31135 25.31384 25.31678 25.31501 25.31263 25.31473 25.31448 25.31134 25.31169 25.31345 25.30770 25.29880 25.29011 25.28463 25.27747 25.27387 25.26874 25.26447 25.26131 25.26038 25.25674 25.25607 25.25402 25.25224 25.25200
25.25000 25.25000 25.25120 25.25372 25.25598 25.26008 25.26283 25.26838 25.27289 25.27869 25.28286 25.28727 25.29296 25.29625 25.29659 25.29944 25.30230 25.30412 25.30497 25.30782 25.31194 25.31577 25.31578 25.31855 25.32246 25.32331 25.32106 25.31965 25.31753 25.31856 25.31919 25.31658 25.31686 25.31658 25.32185 25.32588 25.32931 25.33939 25.34433 25.33764 25.34070 25.32387 25.33925 25.41772 25.46160 25.55855 25.62493 25.70482 25.60205 25.48458 25.40272 25.52221 25.59575 25.71451 25.65395 25.44151 25.36710 25.65248 25.94802 26.23356 26.37293 26.17673 25.71973 25.52570 25.40919 25.46223 25.57864 25.76844 26.00323 26.22552 26.04437 25.68858 25.47480 25.34384 25.35686 25.48825 25.56858 25.72555 25.63144 25.52857 25.42763 25.36433 25.33373 25.35401 25.39229 25.40964 25.42222 25.37647 25.34148 25.34186 25.32647 25.31816 25.31881 25.32078 25.32133 25.32229 25.31876 25.31648 25.31915 25.32266 25.32316 25.32402 25.32065 25.32353 25.32348 25.32130 25.32034 25.32090 25.31411 25.30145 25.29637 25.28763 25.28286 25.27688 25.27389 25.26829 25.26536 25.26205 25.25973 25.25782 25.25549 25.25300 25.25300
25.25100 25.25100 25.25203 25.25509 25.25884 25.26261 25.26677 25.27317 25.27786 25.28301 25.28846 25.29648 25.29659 25.30245 25.30692 25.30865 25.31242 25.31352 25.31441 25.31880 25.32075 25.32279 25.32277 25.32604 25.32996 25.33036 25.32794 25.32608 25.32233 25.32440 25.32613 25.32437 25.32313 25.32577 25.33325 25.34795 25.35363 25.38059 25.40182 25.39571 25.38039 25.35425 25.36272 25.45524 25.59986 25.75156 25.88793 25.96075 25.83474 25.63541 25.47833 25.63321 25.85941 25.96269 25.80764 25.66130 25.46116 25.72861 26.13402 26.55798 26.56496 26.14682 25.76544 25.49714 25.57185 25.80790 25.85557 26.01345 26.40815 26.64607 26.34296 25.94682 25.56985 25.38366 25.48643 25.64643 25.79426 25.97417 25.85115 25.56866 25.45509 25.40507 25.34656 25.41568 25.49502 25.52394 25.50901 25.45656 25.43629 25.37083 25.34362 25.33183 25.32544 25.32857 25.33004 25.32901 25.32610 25.32598 25.32485 25.32863 25.33011 25.33026 25.33373 25.33128 25.33077 25.32953 25.33061 25.32838 25.32098 25.30961 25.30188 25.29465 25.28940 25.28128 25.27672 25.27189 25.26749 25.26526 25.26250 25.25847 25.25663 25.25400 25.25400
25.25100 25.25100 25.25298 25.25682 25.25943 25.26622 25.26998 25.27895 25.28377 25.28781 25.29455 25.30290 25.30719 25.31061 25.31287 25.31625 25.31663 25.32016 25.32244 25.32281 25.32695 25.32910 25.33296 25.33544 25.33708 25.33777 25.33559 25.33069 25.33307 25.33139 25.33103 25.33074 25.33004 25.33580 25.33846 25.35845 25.42034 25.42873 25.47847 25.51191 25.48369 25.39841 25.34974 25.46142 25.68302 25.89743 26.25508 26.38143 26.18635 25.76387 25.66521 25.67041 26.06701 26.29988 26.08039 25.76684 25.52819 25.81250 26.58971 26.88693 26.61979 26.18885 25.72118 25.71400 26.16648 26.12701 26.24166 26.70393 27.02383 27.16755 26.62186 26.05494 25.64735 25.46791 25.70173 26.10497 26.34554 26.33348 26.01966 25.74326 25.55576 25.50902 25.39516 25.45569 25.55363 25.66307 25.69706 25.63844 25.56155 25.42868 25.36908 25.34454 25.33342 25.33624 25.34097 25.33937 25.33685 25.33297 25.33133 25.33319 25.33795 25.33956 25.33977 25.34045 25.34110 25.33949 25.33821 25.33569 25.32991 25.31038 25.30795 25.30031 25.29247 25.28772 25.28299 25.27467 25.27163 25.26828 25.26395 25.26093 25.25712 25.25400 25.25400
25.25000 25.25000 25.25329 25.25620 25.26268 25.26842 25.27474 25.28157 25.28894 25.29414 25.30267 25.30655 25.31102 25.31629 25.31983 25.32199 25.32484 25.32756 25.33023 25.33098 25.33235 25.33807 25.34038 25.34289 25.34609 25.34440 25.34094 25.33769 25.33804 25.33919 25.33882 25.33820 25.33648 25.34420 25.35496 25.36855 25.44481 25.52966 25.65522 25.63200 25.56430 25.51899 25.41673 25.45952 25.65729 26.08694 26.63694 26.88352 26.76280 26.23956 25.84698 25.81322 26.33615 26.56997 26.41862 25.88486 25.60445 25.89236 26.46107 27.05365 26.99781 26.29658 25.81496 26.00347 26.34843 27.27059 27.50942 27.52495 27.78847 27.58484 26.83232 26.10328 25.69876 25.56416 25.81994 26.50021 26.71303 26.89406 26.38335 26.03701 25.92583 25.68648 25.51058 25.58154 25.78107 25.91665 25.94894 25.80910 25.65352 25.50815 25.41091 25.36288 25.34320 25.35446 25.35607 25.34603 25.34621 25.34215 25.34308 25.34154 25.34317 25.34832 25.34861 25.34957 25.34574 25.34405 25.34376 25.34158 25.33147 25.32116 25.31262 25.30800 25.30075 25.29485 25.28913 25.28151 25.27717 25.27066 25.26611 25.26253 25.25804 25.25433 25.25400
25.25000 25.25003 25.25354 25.25870 25.26318 25.27097 25.27558 25.28538 25.29154 25.29696 25.30436 25.31121 25.31437 25.31922 25.32508 25.32840 25.33124 25.33395 25.33304 25.34112 25.34265 25.34572 25.34754 25.35198 25.35325 25.34976 25.34797 25.34469 25.34485 25.34727 25.35213 25.34649 25.34642 25.35048 25.37264 25.40712 25.49101 25.63056 25.79496 25.90163 25.80846 25.68889 25.50195 25.45033 25.77028 26.38793 26.91149 27.43014 27.24815 26.47656 25.94732 26.33131 26.72818 27.14225 27.07854 26.10857 25.72498 26.06809 26.87403 27.32918 27.37120 26.70934 25.97291 26.02681 27.29461 28.20603 28.76144 28.92302 29.05334 28.42266 26.96935 26.10234 25.52456 25.69521 26.06260 26.92448 27.53575 27.53421 27.10711 26.70998 26.29801 26.00997 25.63336 25.73821 25.96628 26.33476 26.30587 26.07111 25.80910 25.49132 25.43171 25.36483 25.36991 25.38987 25.38073 25.38286 25.36438 25.35330 25.34641 25.34503 25.35265 25.35445 25.35850 25.35660 25.35455 25.35410 25.35088 25.34626 25.33485 25.32783 25.32131 25.31307 25.30629 25.29892 25.29421 25.28625 25.27858 25.27517 25.26961 25.26536 25.25977 25.25530 25.25500
25.25100 25.25103 25.25444 25.25741 25.26554 25.27145 25.28253 25.28712 25.29506 25.29977 25.30813 25.31281 25.31838 25.32412 25.33044 25.33218 25.33856 25.33972 25.34470 25.34621 25.34693 25.35224 25.35462 25.35959 25.35896 25.35749 25.35312 25.35050 25.35417 25.35665 25.35969 25.36048 25.35922 25.36767 25.42208 25.47659 25.53860 25.83321 26.08974 26.20273 26.16853 25.79100 25.61904 25.53289 26.05775 26.73017 27.37643 27.95597 27.67925 26.64018 26.24951 26.93955 27.35015 27.74045 27.52664 26.71334 26.05999 26.36649 26.98532 28.02669 27.74637 27.04741 26.20895 26.60203 28.49537 29.35535 30.56881 30.33351 30.23462 29.20409 27.50574 26.29511 25.71083 25.68653 26.51716 27.59929 28.41542 28.79829 28.04676 27.32976 26.77600 26.10620 25.76763 26.22387 26.52964 26.78735 26.63154 26.30009 26.10889 25.64287 25.45349 25.37372 25.41670 25.45099 25.43220 25.42022 25.37770 25.36649 25.35634 25.35425 25.35996 25.36098 25.36680 25.36788 25.36142 25.35917 25.35484 25.35067 25.34112 25.33408 25.32507 25.32010 25.31350 25.30620 25.29716 25.29170 25.28203 25.27783 25.27222 25.26573 25.26176 25.25700 25.25700
25.25100 25.25100 25.25531 25.26243 25.26719 25.27549 25.28153 25.28835 25.29668 25.30099 25.30870 25.31450 25.32210 25.32696 25.33386 25.33771 25.34181 25.34527 25.35002 25.35458 25.35916 25.36231 25.36361 25.36407 25.36416 25.36097 25.36192 25.35679 25.36108 25.36471 25.37855 25.38861 25.36732 25.38066 25.46428 25.56220 25.75085 26.04737 26.47747 26.66297 26.70864 26.09985 25.61904 25.65547 26.20164 27.04309 27.89148 28.45243 27.73769 26.83482 26.70745 27.64791 28.41404 28.92047 27.82464 26.80922 26.11171 26.42423 27.42614 28.84887 29.11396 27.29632 26.90010 27.81811 29.78599 31.13391 32.57813 32.45751 31.15388 29.44288 27.63759 26.34934 25.97552 25.80461 26.39819 28.11094 29.25026 29.92422 29.33830 28.10540 27.02459 26.20983 26.12993 26.64431 27.25467 27.53672 27.24195 26.61788 26.16204 25.72662 25.50014 25.45871 25.56591 25.52138 25.48878 25.44279 25.39916 25.37249 25.36172 25.36121 25.36677 25.36715 25.37265 25.37179 25.37229 25.36926 25.35989 25.35584 25.34490 25.34027 25.33174 25.32318 25.31760 25.31234 25.30453 25.29603 25.28862 25.28205 25.27669 25.27028 25.26414 25.25900 25.25900
25.24900 25.24900 25.25551 25.26335 25.26973 25.27726 25.28355 25.29217 25.29762 25.30473 25.31130 25.31723 25.32561 25.33033 25.33607 25.34030 25.34646 25.35427 25.35510 25.36034 25.36534 25.36895 25.37119 25.37528 25.37196 25.37038 25.37438 25.37798 25.36976 25.37600 25.38996 25.41072 25.41958 25.41171 25.44696 25.84326 25.98824 26.32672 26.74603 26.95858 27.32070 26.72838 25.93282 25.62375 26.30073 27.68853 28.63593 29.45482 28.86380 27.77808 27.15346 28.40885 29.35258 29.63810 28.65222 27.26283 26.25559 26.77290 27.84307 29.36186 29.59011 28.32301 27.87317 29.31148 31.23407 33.80602 34.56806 33.94588 31.53438 28.87571 27.50013 26.31662 25.81957 26.18602 26.87480 28.49776 30.06094 30.66064 30.19770 28.70424 27.14735 26.38337 26.32112 27.48577 28.27289 28.44533 27.79487 26.88112 26.39678 25.79749 25.68214 25.66510 25.72233 25.63702 25.56941 25.45283 25.40502 25.38174 25.38135 25.38094 25.37513 25.37767 25.37872 25.38002 25.37781 25.37345 25.36763 25.35804 25.34961 25.34333 25.33797 25.32879 25.32207 25.31735 25.30741 25.30055 25.29396 25.28624 25.28007 25.27349 25.26653 25.26100 25.26100
25.25000 25.25000 25.25580 25.26380 25.27056 25.27789 25.28661 25.29267 25.29977 25.30437 25.31267 25.31894 25.32646 25.33170 25.33606 25.34332 25.35045 25.35640 25.36134 25.36836 25.37405 25.37534 25.38089 25.38172 25.37990 25.37895 25.39211 25.39701 25.40061 25.40060 25.39320 25.44095 25.48163 25.50113 25.55565 25.86547 26.14790 26.70978 27.36381 28.25921 28.08028 27.19044 26.71900 25.90401 26.24009 27.28706 28.97527 29.98134 30.27349 29.93000 28.50306 28.83348 29.89160 30.87131 30.17218 27.82467 26.96558 27.56425 28.66943 30.25986 31.06053 30.15625 28.47600 30.21426 32.31558 35.25491 36.45059 35.10920 31.98205 29.16793 27.09210 25.88970 25.79968 26.53287 27.47568 28.94131 30.35317 31.45576 30.71053 29.51920 27.92420 27.32403 26.89639 28.81474 29.13283 29.27232 28.41213 27.69077 26.48325 26.00627 25.93062 25.98371 25.93092 25.77430 25.60326 25.48342 25.43083 25.39590 25.40568 25.39497 25.39894 25.38825 25.38565 25.38593 25.38350 25.37912 25.37209 25.36399 25.35799 25.35096 25.34265 25.33677 25.32751 25.32121 25.31484 25.30481 25.29812 25.29118 25.28242 25.27729 25.27022 25.26300 25.26300
25.25000 25.25000 25.25610 25.26220 25.27181 25.27896 25.28705 25.29171 25.29971 25.30748 25.31197 25.32075 25.32660 25.33177 25.34183 25.34562 25.35345 25.36017 25.36832 25.37287 25.37999 25.38804 25.39130 25.38879 25.38556 25.38317 25.40382 25.42495 25.44004 25.42851 25.39893 25.43053 25.50877 25.63077 25.77924 25.80945 26.23208 27.04314 27.92530 28.93971 29.35735 28.53867 27.30086 26.30568 26.21218 27.37587 28.92683 31.41831 32.18352 31.97767 30.63825 29.74229 30.21034 31.95049 31.83412 30.12215 27.79772 28.09778 29.40643 31.53177 32.45929 31.16264 29.73969 31.72137 35.05089 37.70829 37.87575 34.25207 31.96162 28.87598 26.56851 26.10592 25.98870 26.59748 27.49938 28.83952 30.54795 32.17434 31.71399 29.75667 28.13121 27.30108 27.89258 30.12864 30.30080 30.56043 28.46829 27.46403 26.76019 26.18659 26.36017 26.30005 26.04335 25.79384 25.59548 25.47817 25.44628 25.45530 25.45161 25.43621 25.42014 25.40028 25.39365 25.39168 25.39069 25.38515 25.38111 25.36934 25.36074 25.35395 25.34583 25.34018 25.33119 25.32305 25.31673 25.30826 25.30217 25.29493 25.28765 25.27783 25.27286 25.26600 25.26600
25.25000 25.25000 25.25627 25.26459 25.27134 25.27974 25.28665 25.29540 25.30065 25.30710 25.31473 25.32119 25.32849 25.33466 25.34371 25.34994 25.35641 25.36411 25.37260 25.37878 25.38871 25.39705 25.40898 25.41641 25.40949 25.39790 25.40496 25.43653 25.48394 25.49897 25.46168 25.41938 25.50284 25.69908 26.01137 26.35727 26.59748 27.24896 28.20314 29.47491 30.02266 29.39847 27.80060 26.66018 26.43883 27.60569 28.94454 32.12657 34.31739 34.63113 33.76893 34.24759 32.63405 33.14558 32.56328 30.83090 28.35071 28.21830 31.28974 33.22586 33.48705 32.24578 30.90980 33.00287 36.75242 38.48613 38.73428 35.49617 31.29610 28.45667 26.85500 26.81107 26.49707 26.33493 26.96874 28.76226 30.24123 32.60033 32.69794 30.56023 28.96288 28.61271 29.38546 31.15938 31.84267 31.24015 28.85311 27.68812 27.25274 26.72274 26.61580 26.19352 25.88171 25.71839 25.48856 25.48856 25.56321 25.62413 25.53981 25.52230 25.43446 25.42087 25.41050 25.40145 25.39987 25.39425 25.38538 25.37666 25.36806 25.35788 25.35100 25.34080 25.33666 25.32637 25.31923 25.31029 25.30302 25.29642 25.29066 25.28245 25.27439 25.26800 25.26800
25.25100 25.25100 25.25698 25.26804 25.27430 25.28266 25.28865 25.29546 25.30159 25.30821 25.31587 25.32278 25.32936 25.33679 25.34390 25.35328 25.35553 25.36725 25.37560 25.38334 25.39096 25.40696 25.43013 25.43369 25.44159 25.45864 25.42178 25.46361 25.52033 25.59828 25.66267 25.66877 25.54310 25.70571 26.22782 26.50690 27.07469 27.66593 28.71302 30.11672 30.77422 30.17827 28.48443 26.68038 26.89213 28.13802 30.13976 33.51119 35.73818 37.38411 37.83184 36.18777 34.18015 34.51229 34.22782 30.44118 28.95310 28.07469 31.17211 34.58965 35.96922 34.77519 33.22359 33.34601 37.40195 39.53007 38.86199 35.98739 31.47891 27.96885 27.21281 28.25878 28.06943 26.94652 27.13588 28.56018 30.48271 32.68647 33.70766 32.77932 31.40929 30.03245 31.98521 33.51648 33.31982 31.93943 29.97489 28.54089 27.50001 27.25993 26.55260 26.01269 25.62724 25.62908 25.71756 25.66321 25.79265 25.85062 25.66477 25.57131 25.49213 25.45200 25.42303 25.42500 25.41343 25.40670 25.38742 25.37946 25.36961 25.36288 25.35346 25.34438 25.33663 25.32973 25.31977 25.31232 25.30627 25.29628 25.29018 25.28397 25.27588 25.27000 25.27000
25.25000 25.25000 25.25854 25.27022 25.27836 25.28662 25.29282 25.29751 25.30189 25.30788 25.31604 25.32490 25.33009 25.33617 25.34534 25.35343 25.35793 25.36915 25.37743 25.38927 25.40306 25.41771 25.45989 25.48407 25.53843 25.50626 25.47131 25.53067 25.67145 25.80459 25.85427 25.90757 25.77950 25.76503 26.06353 26.65823 27.28703 28.05486 29.17100 30.57753 31.01753 30.75405 28.89728 27.13591 26.74075 28.21031 29.75035 34.50236 37.36612 39.65317 40.77340 39.00871 36.86861 36.45679 35.25604 31.38870 28.85479 30.94072 32.98814 35.85326 38.27686 37.92754 35.35008 34.81401 37.69299 40.56821 38.44708 35.30581 30.38689 27.63629 28.82519 29.80990 29.60558 28.07930 27.92968 28.86661 31.01906 34.52871 35.16789 35.06946 32.77225 32.94410 33.61444 35.49127 33.93260 32.23856 29.95652 29.11270 27.69599 27.16936 26.06555 25.80887 25.88399 26.08389 26.18438 26.33051 26.26468 26.32570 26.07667 25.80745 25.57798 25.45322 25.45410 25.46407 25.45866 25.43661 25.40524 25.38598 25.37486 25.36397 25.35479 25.34636 25.33647 25.32911 25.32127 25.31399 25.30865 25.30153 25.29229 25.28215 25.27720 25.27100 25.27100
25.25000 25.25994 25.26428 25.27271 25.27951 25.28702 25.29489 25.29850 25.30630 25.31111 25.31667 25.32483 25.33065 25.33792 25.34566 25.35812 25.36247 25.37109 25.38202 25.39202 25.40229 25.43660 25.48939 25.55211 25.61241 25.66503 25.61499 25.54986 25.77389 26.00864 26.33799 26.11323 25.93815 25.76538 25.97010 26.42439 27.42666 28.94905 29.89868 31.56459 32.32186 32.42803 29.19278 28.57483 27.11864 27.72261 30.05135 34.96344 37.94497 40.65194 43.71139 41.39759 40.61772 38.11524 36.29163 32.00749 29.77024 31.68031 35.10216 39.61394 41.62774 40.76167 37.36650 37.12394 39.69311 40.79060 38.63105 33.26291 30.47238 28.22834 29.74333 31.04578 31.12563 28.88758 28.72487 30.52732 31.59170 34.94404 36.96328 36.68406 34.99514 36.70863 37.48281 37.72926 35.76171 32.90327 31.85365 29.91395 28.99123 26.84015 26.01835 25.86139 26.32496 26.61513 26.70295 27.22535 26.87256 26.55416 26.18907 25.88370 25.58110 25.54929 25.54778 25.53979 25.50539 25.45345 25.41882 25.39719 25.37736 25.36447 25.35600 25.34551 25.33851 25.33047 25.32571 25.31701 25.30920 25.30122 25.29568 25.28501 25.27881 25.27200 25.27200
25.25000 25.25000 25.26109 25.27097 25.27716 25.28572 25.29460 25.30276 25.30746 25.31508 25.31937 25.32826 25.33238 25.34136 25.35101 25.35606 25.36573 25.37555 25.38313 25.39607 25.41299 25.46776 25.53921 25.67194 25.75634 25.90076 25.79665 25.61516 25.75998 26.19444 26.63623 27.03941 26.78215 25.89744 25.96461 26.63308 27.68530 29.67271 30.77993 32.44996 33.74925 33.65608 32.18924 29.46110 27.68941 27.91390 30.36708 34.30178 38.86010 44.37780 46.32239 45.52645 43.65955 41.59936 35.93700 32.74748 30.72459 32.88335 37.10447 41.81355 44.50995 43.30425 40.57026 39.37894 40.88709 41.64883 38.76016 33.91699 31.01968 29.65683 31.90889 33.67602 32.89616 30.84713 29.30579 31.42969 34.82392 36.90259 39.58343 39.32667 40.12302 41.24148 40.51465 40.13103 37.24582 34.48949 32.35377 30.67463 28.81846 27.07862 26.15921 26.31945 26.82985 27.50277 27.77251 28.04071 27.32770 26.86808 26.34403 25.80311 25.65540 25.74507 25.71492 25.66413 25.58952 25.51643 25.42917 25.40130 25.38046 25.36859 25.35782 25.34959 25.34116 25.33414 25.32422 25.31912 25.31111 25.30252 25.29442 25.28871 25.28064 25.27400 25.27400
25.24900 25.24900 25.25715 25.26821 25.27836 25.28443 25.29087 25.29865 25.30984 25.31278 25.32103 25.32939 25.33547 25.34456 25.35498 25.36374 25.37119 25.38138 25.39352 25.41064 25.43425 25.49222 25.57490 25.70733 25.87415 26.19487 26.21052 26.09597 25.83419 26.17981 26.81442 27.54352 27.37303 26.70537 26.32720 26.43399 27.51608 28.56873 30.63465 32.36605 35.04803 35.09483 33.14311 30.39611 28.23466 28.87700 30.33033 35.53229 39.37544 45.08922 47.79871 48.62217 46.70064 43.50888 37.94978 34.45488 32.04080 35.21417 39.34362 43.89793 46.26655 46.17025 42.21309 42.54799 43.76478 41.89148 36.96286 34.24171 30.55133 29.60051 32.42016 34.99638 34.90056 29.70205 29.25543 32.26466 35.16408 38.03083 40.82574 42.68730 43.40681 44.89573 44.68893 41.14051 37.82399 35.45884 32.41556 29.75745 28.52135 27.04034 26.42675 26.95920 27.75699 28.58200 29.19546 28.73853 27.64520 26.81393 26.24281 25.90543 25.87199 25.98674 25.87367 25.73938 25.60898 25.50781 25.43837 25.40775 25.38145 25.37442 25.36541 25.35324 25.34607 25.33842 25.32746 25.32123 25.31406 25.30732 25.29785 25.28997 25.28535 25.27900 25.27900
25.25000 25.25000 25.25644 25.26664 25.27344 25.28281 25.29030 25.29833 25.30821 25.31391 25.32139 25.32987 25.33749 25.34879 25.35813 25.36866 25.37398 25.38463 25.40893 25.44246 25.49217 25.55738 25.68887 25.92057 26.20248 26.43535 26.70322 26.49158 26.30098 26.23147 27.24610 27.98105 28.36763 27.86765 27.52952 27.02268 26.75751 27.94004 30.02828 32.30231 35.38353 37.16208 36.45692 32.75645 29.74611 28.87603 31.38013 34.31339 39.34341 44.16435 50.67624 51.87905 49.82885 46.91043 42.57406 35.72684 33.95128 35.93909 40.76844 48.48147 50.93216 51.05911 47.29217 45.33470 44.67480 41.35735 36.55429 33.15028 30.62764 31.84647 32.97222 35.88103 36.70908 33.81041 31.19061 30.80767 33.41184 38.08725 41.50902 46.48329 48.57904 49.18731 48.11131 43.11072 38.46102 35.44268 31.03997 29.70630 27.82470 26.92489 26.71653 27.98102 29.24322 29.85133 29.92454 28.82954 27.73931 26.80277 26.43940 26.39116 26.42646 26.18503 26.04551 25.75668 25.57299 25.49126 25.43029 25.40036 25.39619 25.38364 25.37378 25.35853 25.35015 25.34095 25.33200 25.32527 25.31714 25.30886 25.30096 25.29305 25.28808 25.28100 25.28100
25.25100 25.25130 25.25707 25.26559 25.27389 25.28222 25.29025 25.29955 25.30781 25.31503 25.32065 25.33125 25.33663 25.34854 25.35402 25.36840 25.37435 25.38603 25.39875 25.45115 25.50218 25.67069 25.81556 26.17868 26.60745 26.99016 27.27435 27.22484 26.72206 26.65242 27.24998 28.47532 29.09539 29.61060 29.51236 28.09174 27.11770 27.56471 29.29584 32.06126 36.62841 39.09701 37.99406 35.52622 30.85071 30.12392 31.72099 35.16557 39.76824 45.32074 50.96610 54.48769 55.02655 51.45008 45.17585 38.51607 35.59001 39.01856 45.71452 49.83180 55.44609 53.59813 49.03675 48.56831 46.93593 40.04065 34.93663 35.91767 36.22704 35.17389 35.95556 39.76034 39.54745 36.97135 34.95546 34.02198 32.50850 36.71973 42.87260 48.47695 52.48169 52.33589 48.88212 43.62041 37.87388 34.12629 30.74687 29.26556 27.85944 26.77748 27.97994 28.58424 30.20998 31.41200 30.21913 29.22406 28.04263 27.48956 27.56214 27.06161 26.80015 26.44166 26.17087 25.79290 25.53044 25.43338 25.41673 25.42830 25.42828 25.39993 25.37208 25.36099 25.35053 25.34298 25.33492 25.32954 25.32037 25.31396 25.30448 25.29686 25.28901 25.28396 25.28100
25.24900 25.24937 25.25565 25.26785 25.27476 25.28429 25.28922 25.29879 25.30776 25.31699 25.32340 25.33138 25.33940 25.34541 25.35721 25.36620 25.37930 25.39205 25.39655 25.44371 25.51491 25.76442 25.99546 26.48319 27.02519 27.68056 27.62578 28.05454 27.68966 27.47793 27.48468 28.74919 29.96223 31.25989 30.93941 30.06877 29.05627 27.50220 30.01417 33.30476 36.62006 40.44749 42.04658 39.65921 34.94998 31.89708 30.32261 33.79830 38.09920 44.27983 50.95271 54.21352 57.47614 56.47374 50.25807 44.11182 40.26577 39.28426 45.03168 52.81749 56.58108 58.76019 54.59123 52.07250 47.73181 42.41645 37.49920 40.98322 43.17338 41.39859 39.52911 41.73492 42.65611 42.17576 40.27326 36.76466 35.24683 40.24975 43.87863 50.11060 54.95580 54.53339 49.19199 42.39843 37.12430 31.68295 30.26257 28.74308 27.60490 27.89918 29.47100 32.09181 33.19339 33.47210 32.22450 30.03312 29.44853 28.57843 28.45433 27.73966 27.27592 26.58572 26.08484 25.71829 25.47817 25.47148 25.50284 25.50110 25.45728 25.40420 25.38045 25.36091 25.34849 25.34267 25.33530 25.33043 25.32015 25.31472 25.30668 25.29777 25.28990 25.28387 25.27400
25.25000 25.25037 25.25825 25.26845 25.27543 25.28660 25.29290 25.30119 25.31018 25.31776 25.32448 25.33438 25.33923 25.34969 25.35811 25.36998 25.38782 25.41413 25.43347 25.42825 25.56498 25.67865 26.28746 26.72742 27.38769 28.22628 29.27640 29.09408 28.66986 28.56445 28.05407 28.46863 29.86783 31.76371 32.67730 31.69600 30.47446 28.65764 29.75426 33.05493 36.90967 42.58815 44.53563 42.68071 41.16257 36.14380 32.48599 34.10080 36.86676 44.30698 48.61704 53.53332 58.60608 59.44716 54.56434 49.20908 44.33770 40.68127 46.15434 53.03688 59.19042 61.70671 58.98930 54.90119 50.85777 44.52952 40.82374 46.21934 48.86976 45.74149 44.36745 44.42770 48.73617 48.05563 44.32437 39.19492 38.45279 42.27145 49.84886 53.89380 57.71735 54.21056 48.38483 42.40278 37.18221 31.35000 29.19837 27.43126 28.60672 29.42283 31.67323 34.00519 35.73974 35.21216 33.57294 30.97110 30.49379 30.60229 29.51548 27.88467 26.92297 26.40774 26.02236 25.74034 25.54747 25.62831 25.58621 25.53652 25.49072 25.42774 25.37958 25.36044 25.34541 25.33919 25.33372 25.32502 25.31860 25.31354 25.30485 25.29913 25.29009 25.28287 25.27300
25.25000 25.25993 25.26471 25.26929 25.27887 25.28909 25.29669 25.30312 25.31174 25.32053 25.32944 25.33520 25.34315 25.35153 25.36009 25.37546 25.40424 25.46524 25.49535 25.45880 25.50228 25.69392 26.08416 26.67288 27.58547 28.75597 29.69823 30.70094 30.65185 30.40186 30.58182 29.95823 30.07317 31.91235 34.03236 34.48293 32.40610 30.02729 29.49026 33.63414 38.84415 42.93335 46.78792 48.42188 43.53150 40.58599 38.59762 34.39374 34.77658 40.11338 45.61987 52.20320 57.66193 61.87904 62.62495 57.09391 45.46329 43.08556 46.12358 53.26425 61.91278 65.44490 63.85744 59.98648 57.85960 52.93276 44.48840 48.78545 52.91496 51.43062 49.38096 52.32372 52.54234 50.67480 46.37851 39.56379 41.74169 45.36872 53.96731 58.09222 59.36798 54.67420 48.79114 40.75887 36.47303 31.98309 28.96404 27.75845 29.66328 31.93195 33.62489 35.40914 37.79441 39.62517 36.84090 35.06581 32.88326 31.25112 29.40026 28.05376 26.80069 25.96396 25.90857 25.79760 25.70199 25.69087 25.64077 25.53791 25.45148 25.41461 25.38380 25.35986 25.34562 25.34042 25.33057 25.32504 25.31851 25.31412 25.30465 25.29938 25.29011 25.28291 25.27600
25.25000 25.25000 25.26322 25.27096 25.28019 25.28940 25.29824 25.30441 25.31336 25.32095 25.33033 25.33759 25.34491 25.35485 25.36824 25.38212 25.42200 25.47633 25.57308 25.64849 25.51968 25.60098 25.81773 26.30860 27.07740 28.42808 29.98081 30.93032 32.49078 32.06613 32.52376 31.84455 31.95422 32.36786 34.99101 35.64283 34.56252 33.84145 31.43681 31.59104 38.83659 42.45517 50.24150 52.15619 52.79317 46.40345 42.02300 40.16642 36.90122 37.92676 45.26811 50.10910 58.36499 63.40969 65.33017 63.57513 51.98781 48.16875 48.87325 56.14647 64.75857 69.49674 69.72578 66.92853 64.46987 57.33447 50.11834 53.08451 57.41643 55.48227 56.79726 58.71505 58.30781 51.84136 42.77610 39.78124 44.36852 50.33682 54.42501 60.85309 61.47908 55.86214 47.70548 42.00105 36.62055 32.38669 29.84095 28.93085 30.58148 33.53450 37.03686 39.96721 41.36541 40.66326 38.24203 36.07394 32.44054 31.72881 28.84324 27.25005 26.57277 26.31678 26.22046 25.96948 25.94113 25.71002 25.61200 25.53485 25.43166 25.40296 25.37303 25.35510 25.35005 25.34568 25.33893 25.32864 25.32351 25.31707 25.30693 25.29909 25.28957 25.27900 25.27900
25.25000 25.25786 25.26289 25.27129 25.28034 25.28667 25.29785 25.30651 25.31294 25.32183 25.33099 25.34178 25.35034 25.36353 25.37068 25.39336 25.43848 25.52188 25.69868 25.78454 25.74470 25.76586 25.68229 26.01034 26.78661 27.75091 28.76154 31.08373 33.37165 33.61549 34.50441 34.85972 35.12635 34.26566 35.30498 37.57145 38.35482 36.76783 35.02982 32.53701 37.55366 42.98308 51.09145 56.27424 57.01984 54.57029 48.92764 45.01320 41.75389 39.03515 45.91715 47.83542 58.27291 64.47406 69.40386 64.87341 57.91691 53.77027 51.14290 61.41703 65.71150 72.64475 73.61944 70.92674 67.60315 58.85677 54.53736 57.44085 63.33028 65.29103 63.54105 65.07798 61.54511 54.39586 45.34649 42.92927 44.34543 53.36516 58.07452 62.75668 60.57622 57.41057 47.92396 41.17408 34.83688 31.57625 29.65091 29.49801 30.85620 35.33880 38.58186 42.49622 43.68303 42.02522 38.85105 35.19131 32.71055 30.48888 27.99605 26.91013 26.52522 26.86525 26.63238 26.41869 25.98181 25.71667 25.66898 25.58355 25.51339 25.45477 25.40675 25.38125 25.36524 25.35006 25.34370 25.33264 25.32532 25.31822 25.31075 25.30422 25.29161 25.28592 25.27600
25.25100 25.25100 25.25836 25.26774 25.27525 25.28690 25.29498 25.30442 25.31131 25.32164 25.33119 25.34747 25.36451 25.37712 25.38914 25.41294 25.42520 25.51481 25.70722 25.99561 26.20239 26.18491 25.97193 25.81457 26.18357 26.92704 27.71141 30.72515 32.43379 34.01360 36.20046 37.02166 37.83631 37.75115 37.19197 39.08127 40.27819 39.66255 35.73516 33.86876 37.58042 42.82732 50.25050 57.77620 60.40916 59.59840 54.80227 51.33538 47.97791 43.84928 42.66681 49.43107 59.37896 67.66347 71.62438 70.74521 63.42858 59.40544 56.04685 65.14632 70.42264 77.70940 79.37484 72.56193 66.89363 64.28553 62.94337 62.22742 69.16590 72.97573 73.22549 67.02950 60.12382 54.05153 50.09935 47.32641 51.58648 56.20067 60.46709 62.74480 58.66425 51.86943 45.48569 38.05411 33.44717 30.81532 29.94151 31.35771 33.10021 37.58660 41.84474 45.81596 45.69727 42.47500 38.58372 34.38237 31.85698 29.52123 27.60190 27.94058 28.04359 27.53994 27.06217 26.52527 26.15490 25.98569 25.91977 25.80199 25.58972 25.53955 25.44320 25.41083 25.36779 25.35378 25.34386 25.33386 25.32523 25.31816 25.31029 25.30185 25.29212 25.28492 25.27500
25.24900 25.24985 25.25607 25.26783 25.27233 25.28217 25.29431 25.30135 25.31311 25.31919 25.33551 25.36421 25.38386 25.42374 25.44715 25.47736 25.49938 25.49631 25.73812 25.98671 26.39296 26.55484 26.64270 26.29598 25.99251 26.53635 27.43643 28.54508 30.90021 32.89301 35.02518 37.50042 39.80513 40.40449 39.79586 41.59182 42.88651 43.01284 41.79087 38.28316 38.33802 41.49332 48.91444 54.49398 62.14990 64.76340 63.26315 58.18461 53.00220 47.37157 43.38073 48.32359 57.92467 65.32209 75.05162 75.93730 71.34476 67.43174 61.61245 68.19761 74.52302 79.70559 83.00827 77.81673 73.27139 76.92279 74.94272 72.78554 73.33771 78.08235 79.03134 74.34313 65.19436 59.53079 55.66490 52.84954 57.39330 60.20234 64.81496 64.25781 53.53718 48.27242 42.56858 36.37206 33.18310 33.16359 30.99423 34.52092 37.09431 39.70837 44.37923 47.54722 45.68294 42.30436 36.14837 34.12505 31.07121 29.17706 28.01507 28.93894 29.17881 28.25277 27.53703 26.75909 26.48903 26.45850 26.43569 26.20073 25.78857 25.67270 25.52720 25.40839 25.37591 25.35463 25.34374 25.33410 25.32373 25.31478 25.31011 25.30131 25.29250 25.28592 25.27600
25.25000 25.25000 25.25615 25.26454 25.27517 25.28173 25.29422 25.30385 25.31805 25.32750 25.34065 25.38443 25.43225 25.51953 25.54711 25.55450 25.63699 25.58376 25.57265 25.88543 26.43472 26.80455 27.16132 26.87273 26.68114 26.50449 26.48928 27.34157 27.99823 29.92064 32.05156 37.07684 38.27708 41.13057 41.93788 43.81963 46.61578 46.21128 46.00596 43.74648 40.98529 40.59363 48.01046 55.67003 61.76248 67.81343 69.27875 65.27178 58.08844 55.62048 49.48819 50.96524 55.93133 65.21826 74.71423 81.20526 76.82180 72.23970 71.77168 78.09042 80.24697 85.87570 87.33706 81.68354 81.38953 85.94747 84.19708 81.61127 77.59816 84.03313 82.52809 74.86765 68.21515 64.34104 58.45063 57.46939 63.35127 67.08012 68.69350 64.25670 57.94478 44.52475 40.08522 38.97246 37.83698 34.23265 35.90619 40.60203 44.59806 46.68320 48.55837 49.29001 46.87723 41.21215 36.98723 32.68842 30.94132 31.42078 30.55264 30.83336 29.47697 29.06901 27.63821 26.99217 27.11751 27.13410 26.69959 26.26365 25.90827 25.62199 25.50310 25.39702 25.37927 25.38423 25.36154 25.33783 25.32467 25.31927 25.30784 25.29857 25.29312 25.28594 25.27900
25.24900 25.24900 25.25483 25.26455 25.27178 25.28144 25.29125 25.30509 25.31662 25.32638 25.35364 25.39765 25.46944 25.60797 25.69764 25.98073 26.01832 26.01786 25.92110 25.84487 26.01895 27.03818 27.46151 27.75252 27.99227 27.87215 26.79043 26.96141 27.60794 28.50131 29.97974 32.34754 36.93315 39.97300 43.13121 46.29280 50.08646 51.96731 50.36761 48.93205 44.54817 41.99848 49.26266 54.08349 61.91863 71.90808 74.18233 71.39468 66.94508 65.86799 55.29887 55.98453 61.08868 67.07645 76.74773 84.52721 82.14865 78.61289 84.48421 85.61869 86.77201 92.80827 94.10274 89.60896 91.05812 88.79976 90.14985 87.59719 87.65444 90.56656 84.97189 79.75881 77.42543 73.16800 69.49101 66.33914 69.57373 71.48063 72.54082 64.67474 55.93932 48.95241 44.40227 42.99349 37.64008 39.34180 41.08873 45.40487 49.88317 52.14013 52.41346 49.05723 43.87936 38.90188 35.75133 34.63154 35.29145 34.05008 31.99224 31.96842 30.36127 29.48987 28.28359 28.22862 27.86461 27.45473 26.80582 26.21320 25.74185 25.53520 25.41503 25.40553 25.44357 25.44329 25.41547 25.37352 25.33881 25.31835 25.30799 25.29886 25.29431 25.28894 25.28200
25.24900 25.24935 25.25431 25.26356 25.27093 25.28182 25.29057 25.30223 25.31422 25.33281 25.36324 25.42713 25.53658 25.66570 25.83583 26.11309 26.36614 26.35153 26.28542 26.20756 25.88931 26.81898 27.43900 28.07515 28.64660 28.77350 29.21298 28.55493 28.60652 29.22459 29.25395 30.32813 33.92584 37.72958 42.91827 46.94230 50.98567 54.70138 56.40316 54.44390 51.49609 48.69699 47.83008 53.08702 63.49423 68.81192 75.08060 78.63955 74.74803 71.52154 62.16592 60.98586 67.93140 72.53483 78.45051 87.79968 91.90762 88.68465 90.59498 94.49773 97.74879 97.85947 98.55929 96.88391 96.70513 98.82028 99.26834 96.25448 97.29750 94.85743 88.23041 86.56537 84.21641 78.38314 77.36412 72.25309 76.85373 78.89597 75.07332 63.73360 54.19873 49.16116 48.02232 45.36908 39.18089 43.92477 48.10753 52.21993 56.40615 56.68214 53.67037 48.15171 42.39108 42.75057 39.69360 37.96765 37.74128 38.17901 35.49229 32.84672 31.53827 31.10677 29.70740 28.71353 28.30706 27.65095 26.75781 25.94035 25.54725 25.42173 25.43883 25.47709 25.54374 25.48894 25.42286 25.39983 25.34568 25.31933 25.30939 25.29975 25.29378 25.28395 25.28000
25.25000 25.25035 25.25597 25.26141 25.27090 25.28402 25.28961 25.30137 25.31321 25.32710 25.36938 25.41516 25.48027 25.73065 26.00728 26.25204 26.67384 27.00664 27.03629 27.01270 26.83945 26.47569 26.76728 27.64313 28.64378 29.78992 30.48367 31.13480 31.89014 31.56707 33.56117 33.11212 31.97761 35.28417 40.22150 46.86559 51.36800 57.93132 61.23739 62.46186 58.33019 54.75154 52.00247 52.12307 60.14148 66.80257 74.95092 80.95491 81.41564 76.84407 75.47629 69.15333 76.07944 79.67844 86.42869 90.83507 95.65831 95.03498 97.17947 99.18812 103.47825 103.91104 103.91724 104.72886 103.69282 102.95538 104.21849 103.32297 102.26017 99.79588 98.43609 93.05502 92.56426 88.20128 86.99330 85.08296 82.45202 80.62213 75.36268 64.16552 57.78631 55.98826 54.75417 44.94147 41.04263 47.97817 53.24276 58.90545 60.54255 59.19123 54.53206 49.89240 47.04686 45.84681 44.47058 40.50674 40.48983 39.46186 36.44579 34.67442 32.70148 31.16298 30.12852 28.86651 28.38601 27.02311 26.36564 25.71108 25.59638 25.66291 25.69165 25.77801 25.67385 25.56609 25.46134 25.38790 25.34648 25.32956 25.31264 25.30106 25.29385 25.28300 25.28300
25.25100 25.25100 25.25715 25.26253 25.27291 25.28711 25.29735 25.30174 25.31583 25.32263 25.34699 25.38705 25.49567 25.64045 25.86438 26.19524 26.63675 27.04505 27.59008 28.00862 27.86068 28.14913 27.87049 27.86631 27.89522 29.33224 31.13737 33.18134 33.65210 35.68164 36.63071 35.86007 35.03849 33.84440 36.57890 41.51547 48.12508 56.62688 61.29277 66.02657 69.18917 65.10659 63.53872 58.46886 57.66522 63.86555 73.17082 82.78637 85.89460 84.81456 83.30466 79.34262 84.80330 84.85791 95.16513 99.53873 99.94460 100.36008 103.62619 104.28168 107.17324 108.31565 108.73964 108.25270 109.14183 108.52380 108.01235 107.31096 105.89233 104.31577 103.24587 99.95085 99.20987 96.13303 95.70830 88.92422 89.35553 86.16995 78.78413 68.29515 66.40029 61.91214 56.54710 46.59494 47.90361 54.51435 66.04954 65.49081 66.95869 61.85285 57.66294 54.85701 52.54635 51.40568 49.03753 44.53223 42.79112 40.23405 36.13741 33.19233 32.25176 30.18393 28.54629 27.76156 27.07997 26.52287 26.03914 25.56355 25.78056 25.95023 26.01365 25.89911 25.67889 25.52416 25.43873 25.38832 25.34829 25.32679 25.31650 25.30573 25.29690 25.29192 25.28200
25.25000 25.25000 25.25837 25.26687 25.27462 25.28566 25.29698 25.30931 25.31824 25.32698 25.33932 25.37029 25.46410 25.60343 25.75570 26.01451 26.29534 27.01910 28.11532 28.63538 29.47952 29.23733 29.86507 29.52719 29.81280 29.12825 30.60132 34.06561 36.73957 37.89622 39.76604 40.23833 40.30060 37.93260 36.44693 38.52469 46.26120 54.45152 60.78006 68.88098 72.54567 74.66566 71.50337 67.43195 63.28895 64.06737 73.73444 82.44393 88.77400 90.03867 85.94500 87.02261 91.98811 95.65518 98.00033 103.87540 105.47884 106.83913 107.28557 108.58934 108.94877 109.09494 109.42516 109.22117 109.54215 109.58058 109.39754 109.53944 109.29563 108.65411 106.79055 105.87044 105.15137 101.99573 103.08919 100.55935 93.45203 88.29153 82.25972 77.18344 73.56995 64.00246 54.99836 51.52357 55.03289 65.73010 70.75979 72.50487 70.13682 64.59843 60.45579 57.75032 55.95118 53.64377 49.27084 46.29492 42.46166 38.48024 35.41064 32.54513 30.22218 28.06490 26.77280 26.80149 26.40256 25.85913 25.79513 25.81808 26.17170 26.17936 26.04959 25.87925 25.62432 25.47020 25.42210 25.36080 25.34248 25.32800 25.31424 25.30395 25.29762 25.29028 25.28200
25.24900 25.25882 25.26099 25.26771 25.27482 25.28475 25.29413 25.30825 25.32183 25.34102 25.36457 25.37628 25.42224 25.51493 25.70681 25.85873 26.13271 26.80087 28.28946 29.25167 30.46068 31.66483 32.08014 32.84788 32.27771 31.39913 30.87894 32.85218 35.75568 39.95550 42.65845 44.49483 44.32960 42.83313 40.73950 38.81214 44.07114 51.04983 59.93393 67.08286 74.68510 77.49604 76.73183 74.67993 73.00172 74.19361 74.09966 81.66908 90.58884 92.56985 94.35340 96.66625 99.75675 101.61373 104.60294 106.30940 107.68212 108.15403 108.08095 108.34967 107.85974 108.10734 108.15441 107.80501 108.26453 108.42731 108.14548 108.58854 108.90607 109.07868 108.77711 108.73231 108.02491 108.13359 106.74593 102.76473 100.11391 92.70656 90.13195 81.79779 76.70812 65.03636 62.76595 62.61391 63.88361 69.03597 76.58034 76.43012 72.03092 66.24147 59.46936 56.77336 54.15679 49.97954 45.93928 43.25757 39.70574 37.10997 33.69252 30.20705 27.67160 26.97650 26.83259 26.91643 26.74340 26.02370 26.41939 26.64160 26.52897 26.29249 25.98278 25.70059 25.62284 25.53600 25.47940 25.39343 25.36729 25.33542 25.32123 25.30408 25.29794 25.29105 25.28200
25.24900 25.24918 25.25756 25.26702 25.27596 25.28608 25.30162 25.31802 25.33359 25.36749 25.41522 25.47621 25.51967 25.58450 25.90145 25.98089 26.69452 27.19723 27.79048 29.52644 30.58925 32.88116 34.57511 34.86403 34.62376 34.34059 33.48145 33.89274 34.57015 37.71383 41.73179 46.21182 49.27113 49.17427 47.95968 44.61756 44.13360 50.33265 58.63672 62.90095 72.03987 81.31556 83.09007 84.63230 80.08325 80.28068 81.94754 84.36698 92.43756 99.14692 101.46764 102.79891 104.01361 105.85824 107.17058 107.80937 107.85637 107.11821 106.72538 106.68610 106.70960 106.02828 106.19310 106.48899 106.84258 106.60358 105.86214 106.60349 107.31453 107.94948 108.19761 108.59479 109.00601 108.76430 108.41493 106.96737 105.11161 98.74290 94.18876 87.45300 75.63535 68.89949 73.53347 74.97652 74.74511 79.04039 79.99163 78.91758 71.25736 65.38477 58.16366 55.45563 48.52257 44.40389 40.26946 38.42597 36.85413 33.71588 30.46850 28.94129 28.33083 28.94834 29.43612 28.54942 27.66357 27.20981 26.75244 26.92640 26.57377 26.44239 25.91830 25.79055 25.76099 25.68484 25.61080 25.47818 25.41475 25.35849 25.32804 25.30985 25.29713 25.28830 25.28200
25.25100 25.25100 25.25772 25.26925 25.27737 25.28638 25.29822 25.31853 25.34546 25.39662 25.47428 25.55868 25.67669 25.81666 26.12962 26.55214 27.15548 27.73050 28.46794 29.14813 31.35487 33.73044 36.04910 38.99921 39.89400 39.07637 38.34188 38.18289 37.96361 37.71008 41.23131 46.44886 51.87910 55.02665 53.39993 50.20746 49.06553 48.62121 52.66142 59.75787 69.94186 79.90261 85.77817 86.71868 89.55839 87.44163 89.01490 95.87054 98.54398 102.66504 103.86604 107.35655 107.31881 107.33043 106.84148 106.55738 106.02081 105.49927 105.38916 105.17533 104.45378 104.22402 105.27818 104.78117 104.45835 105.41574 104.11609 104.63170 105.82849 106.28920 106.72094 106.92181 107.50743 108.16437 108.71394 108.49388 106.62727 103.69613 98.43503 90.26086 80.46118 78.17468 81.74926 83.84909 83.92516 84.12516 82.33950 75.78039 70.33507 65.66877 57.70405 52.71759 45.70466 42.19817 37.28317 34.51565 34.19544 32.39193 29.57675 28.31606 29.59689 30.75525 30.69270 31.17101 28.79711 27.59652 27.32723 27.09837 26.58936 26.75099 26.32644 26.24270 26.10241 25.97356 25.73997 25.55695 25.44725 25.37047 25.32878 25.31180 25.29746 25.28970 25.28200
25.25000 25.25041 25.25950 25.26944 25.27683 25.28970 25.30143 25.31818 25.33852 25.37387 25.44413 25.54318 25.71821 25.92665 26.23524 26.44216 27.50309 28.11056 28.86446 30.36117 31.95632 33.89762 37.01311 40.20365 42.38517 41.79633 43.33205 45.22132 44.82476 44.63573 44.77178 45.95833 51.95399 58.59507 61.01502 60.76045 57.32853 57.16077 56.15008 56.49444 65.26265 79.90003 86.68926 92.36883 96.74983 96.90379 98.55757 100.59683 103.34442 106.61726 107.50939 107.77044 107.16481 106.78244 106.00562 105.35603 104.49656 103.56646 103.49218 103.30316 102.63958 102.91269 102.26556 102.73676 103.24893 103.44685 103.20415 103.66801 103.34290 104.27990 104.61840 104.67083 105.94059 106.00505 107.57552 108.08041 107.85124 106.57979 100.21855 95.83448 91.16556 89.37615 91.77911 93.53602 91.95106 89.52980 82.09302 74.21566 68.09075 61.93235 56.54274 53.06641 47.72925 41.36302 38.18261 33.13083 30.97188 31.48681 29.58291 30.29894 32.58667 34.19077 33.72983 32.10354 30.11327 28.31355 28.31021 27.58804 28.28001 27.56331 27.36096 27.00897 26.25750 26.16437 25.73519 25.62717 25.46877 25.38013 25.34234 25.30634 25.29813 25.28993 25.28300
25.25000 25.25196 25.26261 25.26965 25.27986 25.29116 25.30107 25.31207 25.32764 25.34989 25.38417 25.47271 25.63965 25.67142 25.99908 26.21770 27.22001 27.78397 28.79373 30.49464 31.89913 34.51315 37.18827 40.59603 43.00788 45.21720 48.01036 48.39954 49.43077 48.45981 51.04694 51.20250 52.66744 60.14189 63.86402 66.03213 64.18892 62.83340 61.87258 59.94362 63.32823 76.00101 85.81727 93.63552 99.45972 101.91344 105.08331 105.98022 107.97502 108.06522 107.81401 106.99783 106.11855 105.41338 104.55856 103.30116 102.83970 101.79742 102.39757 102.13821 101.74629 101.50557 101.41876 101.67579 101.62578 101.24259 101.13218 101.34301 101.92721 102.49733 103.42626 103.74600 104.01467 105.23477 106.01109 106.98283 107.73474 107.31832 106.00022 101.28254 99.50164 96.73552 99.10954 98.86552 96.65359 90.43751 84.12095 75.15547 68.43627 62.21486 54.03191 52.66633 48.56350 40.16949 36.27537 34.04330 31.83326 33.86334 33.98853 33.23991 34.47649 36.17601 34.28763 32.60989 30.52534 29.83045 29.56365 29.17105 29.40856 29.03477 28.05143 27.40283 26.60403 26.15198 25.68644 25.54595 25.42153 25.36029 25.32464 25.30932 25.29855 25.29109 25.28300
25.25000 25.25979 25.26554 25.27069 25.28056 25.29237 25.30014 25.31730 25.32990 25.34042 25.35104 25.38829 25.42592 25.55283 25.56477 25.65738 26.52432 27.40793 28.69633 29.72495 31.35310 33.60890 34.97337 37.51836 40.16178 43.00870 47.26817 50.20376 53.53350 55.56675 56.32956 57.09311 57.85171 63.44165 67.78367 71.30433 74.45767 71.66536 72.98649 72.47987 69.76371 73.38640 83.11039 94.51361 101.03091 105.36507 107.81010 108.71112 108.76085 108.00097 106.73732 105.62002 104.01204 103.59789 103.03686 102.43141 101.78356 100.78084 100.65929 101.09382 100.44053 99.97898 99.90037 100.26346 100.53760 99.97904 100.29854 100.45618 101.22153 101.56862 101.92199 101.99768 102.32499 103.36526 104.36135 105.40743 106.78347 107.37538 107.33729 106.37334 104.41826 103.23308 104.00655 101.96873 96.22409 91.35332 82.93245 76.34424 66.87823 60.61293 50.19960 45.36621 44.37477 40.43113 36.91267 40.64276 39.06061 41.62850 38.74524 39.11901 38.00450 37.29703 35.42939 32.85307 33.67185 33.79704 32.94050 32.59791 30.56476 29.44827 28.36199 27.36710 26.63774 25.94618 25.55446 25.41250 25.35711 25.35364 25.32500 25.30948 25.30152 25.29230 25.28300
25.24900 25.25873 25.26207 25.26981 25.27778 25.29335 25.30461 25.32900 25.34453 25.38125 25.37940 25.39180 25.39066 25.42386 25.59040 25.77415 25.91761 26.11533 27.64474 27.95108 29.63110 30.23855 32.72706 33.87795 36.97465 38.91436 44.49443 48.75592 52.33954 55.06840 58.78565 62.14900 64.20137 66.25601 71.90128 75.00605 80.37963 80.65433 81.84149 77.74029 77.61320 77.55266 82.97426 92.89188 101.74742 106.48003 108.59657 108.60474 107.44279 106.10108 105.05287 103.77724 102.90763 102.38619 101.17450 101.22261 100.35121 99.55490 99.62986 99.92083 99.58515 99.11947 98.77785 98.87796 99.23957 98.92103 99.29053 99.25445 99.76201 99.92252 100.24126 101.06712 101.26041 101.95629 103.20495 103.76268 105.06341 105.82335 107.31071 107.93763 107.85974 107.71164 105.17765 102.17082 94.72174 86.73605 77.30931 72.21296 61.94162 54.25895 50.49473 42.50744 40.22074 40.54512 40.83246 44.30522 42.89987 49.31176 47.93388 43.70864 41.47119 39.01633 38.25772 36.05520 36.01886 36.77788 35.00363 32.95718 30.34432 28.78847 27.39106 26.62481 26.13219 25.70218 25.43161 25.41672 25.39155 25.38987 25.35871 25.32485 25.30903 25.29630 25.28700
25.24900 25.24939 25.25945 25.26870 25.28036 25.28978 25.30807 25.32960 25.36996 25.41677 25.45099 25.55728 25.50847 25.57801 25.80414 26.04387 26.14379 26.03904 26.17994 26.73750 27.46439 28.64648 29.35933 31.07688 33.87296 35.06715 39.42048 42.82541 48.67833 52.19763 54.64912 60.73389 65.59955 69.52384 74.01642 79.96338 83.78881 86.81356 87.12630 87.37858 88.83970 86.41212 93.81761 97.17582 101.28062 106.75654 107.44153 107.16512 106.08099 104.46907 103.56088 102.16941 101.88659 101.22537 100.33218 100.02674 99.62564 98.85087 98.47117 98.77019 98.64010 98.27955 98.14035 98.36091 98.56562 98.38681 98.60603 98.74499 98.86225 99.13518 99.26525 99.76986 100.07744 100.85589 101.57464 102.44125 104.13346 105.20853 105.68207 107.82137 108.47732 108.44497 106.82896 102.62341 89.44050 83.17121 77.48038 67.12139 58.47057 56.46367 53.23268 48.37005 44.80314 44.69123 49.79350 54.04182 54.60662 54.34343 52.61069 49.08824 44.57172 42.52833 41.67064 41.53388 40.87993 37.34493 35.55640 32.18329 29.54747 27.96303 26.86130 26.25802 25.68808 25.53442 25.47638 25.60470 25.58341 25.47938 25.40217 25.34386 25.32815 25.29664 25.30400
25.25000 25.25000 25.26122 25.27411 25.28070 25.29337 25.30235 25.32592 25.35589 25.42728 25.56731 25.62784 25.73611 25.95766 26.21622 26.79628 27.07039 27.00464 26.61971 26.38496 26.79065 27.27450 27.50179 28.81684 30.32766 32.49129 36.02599 38.81537 41.99752 45.76693 49.94931 55.53787 62.71651 63.99123 70.57184 77.00827 83.05291 87.60184 93.13591 93.86186 95.09640 95.94094 100.90343 103.59943 105.67811 107.52792 106.37323 105.56994 104.60700 103.58185 102.52865 101.20813 100.39263 99.96286 99.91991 98.91539 98.69959 98.24041 98.14760 98.06279 98.10459 97.95813 97.63380 97.73841 97.91990 97.96386 97.96507 97.78986 98.16111 98.53313 98.30156 98.35057 99.76454 100.26292 100.35768 101.23477 101.89357 103.44177 104.74457 106.12991 107.29634 108.51626 107.46105 101.32837 95.76156 79.74278 73.36860 66.33861 63.58970 63.51563 61.26724 55.78222 50.09199 52.84130 55.99093 58.83994 60.53086 61.13043 57.01223 52.03672 47.56856 45.58215 46.54869 44.59286 41.68087 38.01544 34.14412 30.80131 28.54639 26.98712 26.37159 25.77140 25.61964 25.86522 25.81910 25.93679 25.78838 25.59605 25.45615 25.37946 25.35677 25.30682 25.32900
25.24900 25.25871 25.26443 25.27400 25.28498 25.30125 25.31821 25.35206 25.40583 25.45077 25.62108 25.78804 25.94030 26.07468 26.41457 27.03610 27.93922 28.09437 27.90834 27.63178 27.20475 27.90530 28.49969 28.22797 28.91784 30.74543 33.90800 36.90027 36.13232 40.18894 41.56045 49.31975 52.07885 58.00629 63.39693 73.06334 73.25052 84.21814 89.70445 96.74329 101.03968 102.92726 105.97212 106.91910 107.70504 107.10261 105.79355 104.56042 103.01833 102.06769 100.54931 99.85958 99.46378 99.15603 98.88071 98.43132 97.98639 97.76761 97.82661 97.60978 97.60977 97.62062 97.43627 97.41015 97.55072 97.52922 97.54762 97.56702 97.75368 97.78217 97.98680 98.08295 98.69152 99.26030 99.59127 100.41802 101.08067 102.06458 103.54493 104.93522 106.08183 107.80590 107.52616 102.43164 97.11615 84.35834 79.08715 72.75998 73.24397 72.09436 65.74965 61.23410 56.78386 60.90455 63.47911 66.73877 66.12733 63.55208 60.35862 56.92472 53.37950 50.72432 47.03534 45.50417 40.15128 35.80148 32.76444 30.52497 27.44427 26.54583 26.23213 26.22465 26.39767 26.42948 26.32170 26.22855 25.92826 25.79110 25.56286 25.45440 25.36187 25.31897 25.34500
25.25000 25.25000 25.26306 25.27251 25.28716 25.31807 25.33712 25.39620 25.45575 25.57080 25.81838 26.16837 26.37906 26.77816 27.09573 27.89107 28.88858 29.33692 29.13066 29.80548 30.50822 31.10790 30.63554 29.77505 30.16951 29.87125 31.39473 32.13882 34.36206 36.62580 40.69007 40.68657 45.31341 50.36975 54.42190 58.04277 68.71159 74.29907 87.32344 93.84598 100.79785 106.48231 108.34555 108.49953 107.46182 106.22794 104.68615 103.56114 102.55538 101.05402 100.18904 99.27336 98.55340 98.23912 98.23514 98.12582 97.78964 97.60057 97.49163 97.29308 97.35214 97.36252 97.28165 97.23606 97.26315 97.32721 97.30461 97.33153 97.54841 97.45351 97.54393 97.85225 98.11301 98.46344 98.54196 99.40746 100.10642 101.25878 102.16675 103.63974 105.63545 106.81045 106.89199 105.13199 99.14429 90.57302 86.78415 86.57994 84.70633 81.13178 72.02770 66.71034 64.87851 70.27839 70.09130 70.68403 69.47547 65.31298 62.47465 58.32821 54.77651 50.45368 45.39416 38.08218 37.94694 33.71409 30.65103 28.88639 27.13730 26.22763 26.46576 27.04076 27.29868 27.02766 26.97027 26.66032 26.30225 25.84832 25.57169 25.45614 25.36086 25.33142 25.33000
25.24900 25.25270 25.26200 25.27383 25.28385 25.32822 25.37864 25.49005 25.62965 25.78259 26.19854 26.53658 27.14247 27.83149 28.61902 29.39147 30.81890 30.97044 32.20545 33.36731 33.27684 33.19354 33.49955 32.15105 32.01181 32.88562 32.17645 31.35913 32.43069 34.22616 36.29824 37.62755 39.76977 42.33928 44.47252 50.79827 60.48531 66.45123 75.03390 88.46130 99.54527 105.06951 108.32175 108.17787 106.90288 104.72338 103.66458 101.86620 101.78054 100.87303 99.90972 99.26620 98.58579 97.83877 97.70740 97.53413 97.44981 97.36323 97.28995 97.20723 97.20548 97.21212 97.16920 97.11849 97.14491 97.16855 97.22917 97.22094 97.24399 97.22546 97.45750 97.65136 97.65637 97.97756 98.20922 98.29912 99.15170 100.05117 101.49550 102.62100 104.54579 105.85185 106.79376 106.48415 103.77139 101.02321 92.92102 92.06329 90.63260 82.59159 79.42659 73.51428 76.68736 74.54964 73.04853 69.99748 65.39345 62.29965 60.56614 55.94499 50.21084 47.02275 40.55902 37.96020 32.77350 30.96527 29.43068 27.17961 26.94047 27.18618 27.69444 28.62603 28.17230 27.62674 27.49384 26.79172 26.28784 25.76043 25.54468 25.44806 25.35467 25.32143 25.31300
25.25100 25.25433 25.26224 25.27450 25.28756 25.33868 25.39747 25.56461 25.66949 25.94090 26.35277 26.76718 27.54552 28.85555 29.58109 30.43611 31.93385 32.76968 34.33380 36.23597 36.52821 37.17490 36.63441 37.68347 37.25457 35.94607 35.33781 36.24610 34.35008 35.17522 39.09228 41.87810 43.04396 46.60069 50.17602 53.96568 56.28687 67.57340 73.95207 87.56514 97.88484 104.91163 107.76272 107.68338 106.05099 104.19502 102.78718 101.52299 100.78480 100.14846 99.61718 98.36251 97.78266 97.65879 97.47402 97.28171 97.22866 97.23520 97.19472 97.13063 97.11226 97.12318 97.12401 97.09517 97.08926 97.09401 97.10688 97.12583 97.11764 97.16806 97.29520 97.39625 97.36263 97.50992 97.62704 97.83764 98.82298 99.60352 100.62742 101.76726 103.42897 104.62269 106.50258 107.15058 106.25516 104.65474 104.17649 98.82716 96.73701 90.59356 82.78568 80.37153 78.94134 76.10913 69.62759 64.38364 60.68339 54.34537 53.27718 49.51039 47.39927 42.31775 38.04374 34.08105 30.26335 28.98118 27.78805 27.51697 27.35473 27.94485 29.11803 29.22333 29.46024 28.78397 27.35103 26.75349 26.11923 25.71095 25.57624 25.40622 25.35286 25.32287 25.32500
25.25000 25.25223 25.26151 25.27004 25.29680 25.33890 25.42315 25.46674 25.70139 26.02311 26.55282 27.00017 27.59058 29.00649 30.00195 31.13304 32.19911 33.52508 34.13188 36.33518 38.92791 39.03482 40.02625 40.71954 41.12690 42.62420 41.37708 39.56631 40.46333 38.35335 40.15502 45.40130 50.78934 55.16526 55.49677 62.28786 65.40737 67.46830 74.60279 87.83317 97.51545 104.14482 106.91909 107.00373 105.44246 103.89019 102.07031 101.15821 99.47161 99.21758 98.54261 98.16454 97.64797 97.57156 97.39218 97.22306 97.17868 97.13020 97.11233 97.10423 97.09237 97.08198 97.08986 97.07591 97.07423 97.08301 97.08385 97.08146 97.07344 97.09848 97.15193 97.16560 97.23097 97.33460 97.47595 98.02614 98.60301 99.13664 100.13858 101.16514 102.92743 104.29814 105.71331 106.97387 107.86629 107.98946 106.93184 104.64177 99.58078 94.73813 89.13767 84.85866 79.28754 72.03713 65.66722 59.13236 53.87624 47.70030 44.78357 43.71985 42.32041 38.23362 33.25317 30.48960 28.84671 28.45550 29.72639 29.91451 29.64774 29.77980 31.07014 30.75330 29.86973 29.12126 27.78319 26.77217 26.19087 25.83896 25.61132 25.47009 25.38856 25.33273 25.34900
25.24900 25.25123 25.26193 25.27086 25.29511 25.32467 25.37885 25.50377 25.60411 25.85165 26.12199 26.80307 27.28627 27.75343 29.14664 29.74637 30.46413 30.60086 31.64562 34.37066 37.10831 39.22302 41.48237 43.61367 44.09348 47.21992 46.87644 46.33553 45.81512 42.80272 44.80637 48.15610 56.14776 58.76241 66.74909 69.10917 72.76930 78.43195 84.47989 89.38151 98.78938 104.30740 106.60647 105.77883 104.36923 102.56744 101.70123 100.85697 99.71308 98.71753 97.99581 97.61587 97.37947 97.31396 97.25048 97.19439 97.14037 97.12500 97.10580 97.09204 97.08911 97.07781 97.07213 97.06257 97.06703 97.06868 97.07152 97.05776 97.05544 97.03521 97.06009 97.07515 97.11997 97.16655 97.41937 97.70038 98.23843 98.71504 99.54060 101.01215 101.69262 103.56635 103.86526 106.11911 107.82401 108.69948 108.43787 105.32113 100.19277 93.40966 85.76030 82.90804 73.35023 63.44262 57.34255 52.54825 47.45853 44.41759 42.00341 38.29635 36.69719 35.58470 32.11503 31.29232 31.37028 30.67662 31.55676 31.66808 32.32742 31.80400 31.65112 30.94945 29.64171 28.48139 28.05544 27.11793 26.58689 26.08491 25.76501 25.52469 25.44452 25.34293 25.36000
25.25000 25.25223 25.26202 25.27068 25.28916 25.31940 25.34399 25.40486 25.48258 25.60962 25.85205 26.13073 26.58832 26.90843 27.49984 28.60938 28.88320 28.70814 30.00834 31.64936 35.09114 37.05742 39.95579 41.78889 45.63600 49.27253 52.59582 52.79138 53.46469 51.97485 52.23711 52.08259 56.87455 67.63764 74.01047 77.62179 81.43214 82.83475 89.55282 99.32417 103.46569 105.97855 106.17014 105.61843 103.72986 102.17289 100.78353 99.61108 99.32092 98.57486 97.81531 97.65344 97.24060 97.20892 97.17676 97.14003 97.11529 97.10900 97.10812 97.09480 97.08390 97.07544 97.06468 97.05783 97.06292 97.04658 97.06185 97.05119 97.01710 96.94059 97.00545 97.03617 97.06099 97.09308 97.31651 97.42125 97.85418 98.51165 99.24683 100.27513 101.01320 102.21204 103.18403 105.21228 107.41360 108.32705 107.80746 104.63456 99.32119 91.79102 85.00456 76.19698 67.64205 61.86094 58.53722 58.73387 53.87948 49.19684 46.77521 42.20762 36.76360 34.18391 33.20045 34.20292 34.00643 34.21057 33.76907 33.46642 33.36974 32.43526 31.40018 29.99297 29.25930 28.07334 27.68038 27.22952 26.50901 26.01931 25.77366 25.54919 25.46468 25.35805 25.40900
25.25100 25.25100 25.26108 25.27363 25.28123 25.30188 25.31860 25.33917 25.36690 25.45414 25.46774 25.62938 25.87450 26.17663 26.57860 26.99195 27.30754 28.29518 29.03829 30.69695 31.84827 34.01502 37.90882 41.53751 47.67535 53.31780 56.00484 58.90090 59.32167 60.20635 58.54866 60.03783 61.70912 69.87978 78.48155 84.50406 89.00507 91.59009 97.00933 102.55627 107.01489 107.10881 105.75006 104.48330 102.90212 101.79339 100.32460 99.12083 98.71225 98.11711 97.80313 97.51760 97.27486 97.16151 97.12292 97.10569 97.10054 97.10389 97.10377 97.09654 97.08059 97.06372 97.04589 97.03538 97.04987 97.02262 97.04196 97.04583 97.03632 96.87424 96.89401 96.91801 97.04819 97.09921 97.15557 97.38738 97.83031 98.18888 98.88809 99.18790 99.80821 101.02227 102.29817 104.71396 106.32204 107.61134 107.22015 105.77317 99.86778 92.08992 86.44023 77.58063 68.96211 69.61287 67.81131 65.22940 58.32391 55.54297 48.87703 43.42481 39.42142 37.00728 38.49338 38.70366 37.14588 36.13884 35.14975 33.97899 32.42966 31.12617 29.49260 28.73068 27.77507 27.75821 26.85158 26.68834 26.17700 25.91671 25.69510 25.52864 25.44863 25.38764 25.41400
25.25000 25.25880 25.26351 25.27051 25.28203 25.29077 25.30020 25.31519 25.32385 25.37187 25.49186 25.67826 25.73331 25.84890 26.18781 26.60191 27.59348 28.56752 31.22499 32.89695 33.79191 34.60413 39.94326 44.62276 48.52762 54.29812 58.49046 61.58162 64.62474 66.39226 65.93346 67.31088 71.19748 72.22180 79.55688 88.69753 93.43772 98.89713 101.74842 105.19890 107.21603 107.34274 105.58614 103.93683 102.48869 101.30147 100.08888 98.94035 98.34880 97.87282 97.62109 97.32218 97.24443 97.14934 97.11265 97.09372 97.08757 97.09579 97.09743 97.09375 97.08044 97.06932 97.03817 96.99199 97.00669 96.93860 96.95614 97.03569 96.99847 96.78090 96.40016 96.71970 96.96030 96.98945 97.10593 97.30213 97.72685 97.84085 98.08945 98.54869 99.24791 100.92104 102.28284 103.63014 105.95947 107.24737 107.61647 106.21548 102.20795 93.52634 88.53491 80.99915 80.73215 79.47213 76.34125 70.59386 63.71827 55.61549 48.43703 45.81955 45.41842 45.66725 42.54937 41.54732 39.89103 37.49277 35.55602 33.61054 30.90886 29.37202 28.14682 27.47394 26.94922 26.49166 26.40996 26.20527 25.98765 25.63528 25.50931 25.41652 25.40551 25.37975 25.38400
25.24900 25.25878 25.26457 25.27425 25.28452 25.29043 25.31815 25.34114 25.37581 25.51790 25.77085 26.14746 26.47310 26.59039 26.89170 28.06454 28.75934 29.51245 32.11371 34.92272 36.42097 37.62223 43.12648 46.01470 49.30981 56.63116 59.08890 62.09064 64.24593 66.55659 67.63629 71.72642 74.65272 78.63039 83.00732 87.54854 96.43287 102.86376 105.52645 107.82281 108.42054 107.30817 105.62390 103.84404 102.09462 100.71343 99.56103 98.66745 98.29834 97.77195 97.51625 97.31376 97.17299 97.12991 97.11122 97.09922 97.07933 97.07812 97.08792 97.08655 97.08205 97.07383 97.05302 96.96337 96.83761 96.75657 96.69340 96.93811 96.91044 96.32440 95.90323 96.79519 96.68503 96.69316 97.00635 97.11459 97.39563 97.55293 97.98519 98.40449 99.48427 100.87669 102.20348 103.15565 105.25846 107.09473 107.66715 107.59982 103.46639 98.46535 93.49235 88.55967 87.14238 82.42631 77.83823 71.25302 63.28422 56.67436 52.78926 51.06143 50.66273 48.03314 45.27639 43.33213 40.14400 36.90335 33.97833 32.82322 30.70052 29.32674 28.01800 27.72731 26.82879 26.50849 26.15855 25.81557 25.66000 25.56113 25.48255 25.45307 25.40383 25.37767 25.37000
25.24900 25.25176 25.26099 25.27979 25.29243 25.31773 25.34179 25.37828 25.47563 25.57463 25.87334 26.17817 26.62653 27.55541 28.25880 29.31914 30.40861 31.42291 33.01570 37.27906 38.46294 41.63417 44.50821 47.29622 51.18855 54.10309 55.66957 56.48845 58.41274 59.60470 62.70066 67.90778 70.90336 74.56613 78.72866 86.21349 93.77099 101.45455 106.45359 108.33027 108.30862 106.73578 104.78395 102.64419 101.98284 100.28985 99.12239 98.15087 97.82258 97.51128 97.36120 97.22436 97.17010 97.11002 97.10227 97.08906 97.07931 97.06395 97.07201 97.07248 97.06967 97.06613 97.05970 97.03841 96.91997 96.56662 96.30077 96.70387 96.71187 95.88515 95.80474 96.50988 96.12253 96.00395 96.60859 96.98845 97.31946 97.54832 98.12185 98.65907 99.48551 100.34449 101.43742 103.18111 105.21084 106.81483 108.09954 107.74599 106.03352 102.78473 99.01994 94.62826 89.75779 81.63750 76.38357 70.08324 64.86199 61.11037 57.48461 54.58884 51.35770 47.51268 45.21697 42.52676 39.22814 36.39096 34.52029 33.58822 31.81110 30.70706 29.34159 28.39364 27.19593 26.83707 26.33740 25.93806 25.88731 25.80077 25.64216 25.52192 25.44267 25.37969 25.40300
25.24900 25.25041 25.26177 25.27716 25.29923 25.33126 25.38387 25.45166 25.52841 25.65841 25.93861 26.29933 27.18607 28.01161 29.25687 30.31031 31.89461 33.74791 36.35717 39.28019 41.71853 44.55508 45.70993 47.34256 47.74594 48.10863 48.06499 48.18920 49.07704 52.62525 53.35339 58.24988 60.64173 67.14367 74.97626 83.90042 91.91909 98.24232 105.04128 108.36084 108.28310 106.62100 104.72696 102.68812 100.99416 100.01221 98.91763 98.06355 97.89418 97.38984 97.26403 97.16558 97.13316 97.10923 97.10097 97.09519 97.08658 97.07275 97.03640 97.01473 97.00669 97.04514 97.04757 97.02826 96.98893 96.65081 95.61823 96.04832 95.44130 94.31562 94.74460 95.16184 94.44231 94.59215 96.34771 97.03959 97.29098 97.47925 98.22123 98.40991 98.77583 99.94479 101.19945 102.27334 103.63613 106.11116 107.80839 109.07390 107.29774 105.35573 98.48769 92.54001 85.74111 79.26542 73.64704 66.80834 62.96249 58.55488 54.24553 50.52031 47.66800 43.67904 40.16899 38.07418 37.42772 35.43260 34.73379 33.17654 31.70514 30.80643 29.33066 28.46168 27.51212 26.84516 26.56815 26.21812 26.16631 25.92097 25.75418 25.54716 25.46912 25.39136 25.44300
25.25000 25.25141 25.26478 25.27470 25.30666 25.35781 25.45239 25.60354 25.71990 25.98272 26.10402 26.74647 27.28701 28.49295 29.56866 31.79646 33.31638 35.50260 36.99139 39.28536 40.67116 44.13662 43.91469 42.90302 42.49886 41.97697 40.35778 39.04183 41.96474 44.29144 47.41660 51.15418 57.80847 62.72807 75.03629 82.59677 91.38474 99.38912 104.59288 107.90498 107.97645 106.41987 104.83394 102.88583 101.41727 100.35887 99.24899 98.54743 97.91553 97.54405 97.29317 97.16637 97.12720 97.11382 97.10752 97.10016 97.08009 97.06645 97.05101 97.01940 96.92127 96.86547 96.96289 96.83176 96.78617 96.60047 95.88714 94.02598 93.16288 94.42761 91.29236 93.03570 91.55984 94.79507 95.82144 96.85763 97.09699 97.36661 97.69775 98.12375 98.53119 99.30321 100.50262 102.42748 103.98511 106.25017 107.65855 109.03203 107.85761 104.51481 99.55984 93.29588 85.25059 77.59768 73.13611 64.05340 58.82453 55.95594 51.12320 47.11875 43.39221 38.91901 35.74148 35.47066 33.30875 32.73719 31.54461 31.12205 30.57013 29.27746 28.55417 27.65141 26.91212 26.57162 26.41430 26.25620 26.20522 25.99946 25.71217 25.58286 25.45283 25.40157 25.44700
25.25000 25.25807 25.26711 25.27706 25.31207 25.38167 25.47386 25.66388 25.81719 26.19985 26.68874 27.13704 27.82221 28.69737 30.21174 30.96237 32.19339 33.56663 35.30631 36.61817 37.52677 38.72072 38.52839 38.02055 35.67206 35.50967 36.42984 38.57420 42.04273 46.49776 51.25610 54.51734 61.07920 65.25179 74.81644 83.68982 92.22069 101.06789 105.67194 108.37862 107.83186 106.44826 104.71094 102.18214 100.96090 100.04215 99.06572 98.18202 97.81102 97.65937 97.30455 97.20354 97.14362 97.12042 97.10775 97.09236 97.08450 97.08166 97.07368 97.05313 96.95682 96.70111 96.44671 96.03400 96.04411 95.09514 95.68090 94.93388 91.64788 91.43349 86.63447 86.01284 85.46261 92.15163 94.89525 96.27871 96.79908 97.02749 97.38328 97.89640 98.60676 99.78079 100.83373 102.47513 103.79298 105.69635 107.69810 108.83585 107.91879 103.48822 99.24946 93.11165 85.80387 76.86001 70.62071 66.76688 58.49327 50.81753 48.69852 44.87303 40.66822 36.21088 34.50116 31.92390 30.42996 29.88613 29.57356 29.21479 28.15722 27.91328 27.06615 26.71461 26.10200 25.77892 25.76275 25.80929 25.91435 25.73157 25.68291 25.53820 25.43032 25.36492 25.39800
25.25000 25.25761 25.26454 25.28383 25.32271 25.35982 25.45947 25.60449 25.81666 26.29320 26.77125 27.30108 28.00707 28.66978 29.49611 30.12308 31.35118 31.70805 32.42059 33.73999 33.93153 35.06984 34.82392 32.67293 33.92416 36.16849 38.31886 41.87222 42.56580 46.38405 52.46837 57.49409 63.57110 73.43174 79.39724 83.88593 93.36657 100.58020 106.52704 108.41994 107.87760 106.40197 104.22360 102.71649 101.22761 100.03186 98.94631 98.14859 97.66214 97.40655 97.24394 97.15844 97.13021 97.11899 97.11167 97.10287 97.09625 97.08408 97.07558 97.06177 97.01369 96.92618 96.63067 96.50363 96.23869 94.62937 92.91675 95.44204 94.68664 92.20088 82.38925 78.91708 82.90041 90.85571 93.64702 95.13215 95.04938 96.20837 97.18957 97.80477 98.31887 99.63893 100.47967 102.23952 104.49155 105.65422 107.83795 108.74647 107.54797 103.02028 96.57564 89.38487 81.13547 70.90367 64.08418 63.74738 57.01771 50.09260 47.34750 44.34506 39.63418 36.33538 33.67796 30.76534 29.07184 28.36394 28.14806 27.61484 27.00420 26.55879 26.30425 25.98636 25.80211 25.85827 25.67909 25.55257 25.55913 25.59179 25.55068 25.47709 25.40115 25.35461 25.36200
25.25000 25.25000 25.26221 25.27716 25.30501 25.34649 25.39035 25.53134 25.66319 25.84317 26.01337 26.68264 27.21520 27.82200 28.07012 28.03827 28.59323 29.38334 29.71555 29.08185 30.87166 30.94956 29.70676 32.15202 35.24711 39.20152 43.24192 46.47143 49.24828 51.90515 56.22201 63.60345 68.70325 76.33244 83.28932 87.04622 93.77609 98.67530 106.56892 108.06326 107.73473 106.37883 104.61111 102.96192 101.31346 99.64874 98.91225 98.20788 97.81485 97.54656 97.31065 97.19845 97.14900 97.12424 97.11470 97.10277 97.09187 97.07982 97.06515 97.05009 97.04010 96.96995 96.93843 96.80925 96.37460 96.04102 92.02560 89.76796 89.88429 92.67361 88.02756 80.77652 80.37668 83.09341 88.31161 90.04308 94.53411 96.50219 97.39900 98.19066 99.10691 99.79267 100.64504 102.42604 103.54331 105.70255 108.02901 109.05430 108.07693 103.51969 98.13889 87.79114 79.23410 70.43698 61.06205 54.64275 53.47174 45.22706 41.57775 39.77482 35.12724 33.16501 31.52587 30.51395 30.57427 29.29839 29.28447 28.20969 28.05107 28.14196 26.96386 26.98930 26.62068 26.36876 25.96871 25.78058 25.60777 25.44213 25.41829 25.38446 25.35968 25.34254 25.33500
25.24900 25.25842 25.26437 25.28265 25.29658 25.30837 25.32269 25.37859 25.46321 25.56491 25.76707 26.02645 26.54608 26.58744 26.89500 26.87724 26.63730 27.18206 27.21611 27.71530 28.20331 28.68094 29.99456 32.53321 36.31943 40.07224 46.04885 51.41139 55.26777 59.35915 62.52813 67.28615 70.26624 77.90043 84.18013 88.83374 93.52658 98.75815 105.37068 107.53384 107.76134 105.99702 104.93711 102.42104 101.16887 99.69317 98.59548 97.89739 97.63151 97.49190 97.28276 97.19181 97.14150 97.12122 97.11183 97.10001 97.09843 97.09059 97.08662 97.07359 97.06386 97.04833 97.03554 97.02140 96.90246 96.46347 95.89472 93.19951 85.42566 82.63776 77.16484 74.30752 72.00917 74.31797 84.81496 91.63892 95.25038 96.91268 97.55163 98.17152 98.89812 100.40882 100.56166 103.00666 104.13053 106.33698 107.49424 109.14923 108.51141 104.64026 97.21076 94.55361 79.05314 73.48422 68.62995 59.84136 48.18376 45.78239 40.09765 39.53338 36.67054 36.01015 34.96879 35.43183 34.61063 33.39554 31.97609 29.66948 29.17496 29.85026 29.72893 28.11013 27.67793 27.40758 26.80835 26.03263 25.81630 25.56879 25.42365 25.42168 25.37735 25.34497 25.35300
25.24900 25.25813 25.26525 25.27554 25.28385 25.30522 25.31975 25.31943 25.35980 25.40551 25.54908 25.63965 25.78822 25.91388 26.08373 26.47548 26.68045 27.21153 28.08257 28.84620 29.75236 31.10464 32.76676 35.30713 39.37242 43.39655 47.41775 52.32516 57.67587 61.95512 65.32559 69.70722 74.05642 75.81064 80.32862 82.81109 87.76616 95.50643 101.07983 106.04079 107.11522 106.41109 104.73531 103.15774 101.11675 99.78718 98.68749 98.33807 97.73497 97.57119 97.34324 97.22786 97.16721 97.12448 97.11178 97.10629 97.10258 97.09525 97.08652 97.07869 97.07076 97.06302 97.04484 97.01816 96.83513 96.30777 96.19427 94.86053 89.19602 85.65932 86.29918 81.47232 73.37088 70.28533 84.01758 87.54784 93.02746 95.10654 96.06538 95.93353 97.53587 99.74882 100.66273 102.34599 104.00932 105.98479 108.02879 108.75636 108.02845 105.79843 100.87008 94.06939 88.16257 77.72703 75.24469 67.56645 60.72495 51.03533 47.32779 45.02764 43.89801 41.03128 40.86142 40.50199 39.85103 36.17631 35.92435 33.26627 32.23830 31.29151 30.69962 30.05480 29.29497 28.20237 27.43530 26.77005 26.35959 25.79144 25.55174 25.50668 25.43275 25.35480 25.39100
25.24900 25.25151 25.26241 25.27734 25.28866 25.31062 25.35861 25.44430 25.43928 25.66871 25.68127 25.72390 25.97281 26.13054 26.31420 26.66203 28.05551 29.00781 29.63867 31.01375 32.62312 33.15877 35.91078 38.81186 40.59878 44.33641 47.95742 50.81837 53.26682 59.41505 62.51076 64.92616 67.03432 70.55811 69.21508 75.68177 81.99938 90.48037 97.63428 102.52628 106.62557 106.51788 105.33827 103.45817 101.95342 100.58131 99.34866 98.72473 98.21551 97.66988 97.38901 97.23536 97.16389 97.12250 97.11186 97.10765 97.10358 97.09561 97.08180 97.07313 97.06318 97.05519 97.01269 96.97494 96.77684 96.46749 94.36446 92.87719 93.44622 92.64566 90.34057 80.94049 77.74616 63.14265 66.61009 80.14870 85.99202 88.97102 91.01058 91.39210 93.75402 94.38628 100.43907 102.46496 104.16513 107.00508 108.23392 108.25045 106.25138 104.78994 100.43397 95.85822 90.19001 83.20907 78.37334 71.23303 65.63431 60.92937 55.38776 52.22083 50.30321 45.35917 44.09317 43.74119 40.26151 38.89869 36.48506 34.33070 33.31290 32.14788 31.26068 30.45773 29.77956 29.09372 27.82535 27.35258 26.70051 26.19514 25.95677 25.67479 25.47012 25.37326 25.44800
25.24900 25.25254 25.26276 25.27235 25.29732 25.32470 25.44942 25.53838 25.61993 25.94263 26.02199 26.40776 26.78380 27.10329 27.23884 27.94127 29.09431 30.47697 31.23410 33.01775 34.40612 35.81274 36.68241 38.26893 39.10958 40.47783 43.14964 46.07469 46.59038 52.34862 55.16250 58.02880 57.70246 57.64422 63.08213 71.91087 78.61144 86.09977 96.07955 100.86828 106.54675 106.65009 105.80482 103.37880 102.07981 100.68468 99.94014 99.27688 98.30101 97.75579 97.33285 97.23906 97.21627 97.13971 97.11775 97.10665 97.09456 97.09108 97.08067 97.06830 97.05735 97.05299 97.04056 97.00299 96.91682 96.64993 95.83101 93.53230 88.57819 84.98733 81.08648 78.07906 70.03257 70.87390 71.83912 60.61718 75.43991 82.96635 82.42929 76.64145 85.62024 94.94493 99.19004 102.10975 104.16110 106.43353 107.23358 105.18862 103.15989 97.89015 95.28485 90.03663 86.66132 81.50175 78.16951 72.77741 68.92533 64.47474 60.28392 57.43290 53.08867 50.59395 47.17369 44.24004 40.14842 37.80172 35.41834 33.56401 31.21508 30.78294 30.17429 29.58959 29.47582 28.87564 28.24150 27.66502 27.09959 26.41441 26.04631 25.81206 25.53766 25.41414 25.42600
25.25100 25.25100 25.26280 25.27852 25.30560 25.35091 25.46298 25.51892 25.75919 26.18393 26.43819 27.06033 27.52796 27.94786 28.59067 29.35254 30.12830 31.42493 32.14962 33.28023 33.25511 34.18253 34.96802 35.02625 35.77057 36.37084 39.36875 41.55458 40.59778 43.34423 47.89143 47.45678 49.98055 55.53477 62.53854 69.04319 77.05828 86.76491 93.74255 99.68589 104.76243 106.91588 105.75313 103.39942 102.29076 101.17266 100.05166 99.13299 98.31411 97.75218 97.48130 97.39973 97.27823 97.16531 97.12527 97.11343 97.10039 97.09312 97.08471 97.07469 97.06483 97.05536 97.04024 97.00365 96.92952 96.85875 96.03908 94.76542 87.69047 81.49984 88.02192 89.18001 77.73236 86.91844 84.77591 67.16101 68.18639 69.95884 63.96205 65.99140 83.59160 91.38156 93.70180 99.62711 103.16002 104.47603 104.15536 102.04759 100.08241 91.57969 86.12620 82.55881 78.47890 72.60427 69.94492 70.41848 65.51670 63.50588 58.72428 57.19386 54.59952 51.38946 46.79409 42.69253 38.72202 36.05022 34.51251 31.88092 29.75516 28.94685 28.17828 27.77146 28.06622 28.05378 27.43424 27.08097 26.75821 26.35620 25.93730 25.69436 25.50764 25.38246 25.43700
25.24900 25.25438 25.26353 25.27250 25.29799 25.36279 25.43947 25.56202 25.68922 26.04497 26.64003 27.36052 27.80384 28.23087 28.78582 29.24705 30.11811 30.55761 30.68977 32.34672 32.06759 32.65207 31.38887 31.24888 31.95277 32.62625 34.69663 35.62916 37.38351 41.97519 46.61438 48.51741 54.42442 56.43278 62.74997 71.15275 79.69435 87.27081 95.57232 103.71166 106.12704 107.15999 105.83417 104.64211 102.59506 101.24667 100.43067 99.23746 98.35082 98.04026 97.79773 97.53822 97.26279 97.16871 97.15301 97.10583 97.09544 97.08754 97.07792 97.06916 97.05248 97.01996 96.96454 96.93817 96.79547 96.48511 95.77134 92.41259 86.00623 88.48864 93.64731 92.86196 86.53737 91.75198 85.46292 76.94255 61.72864 63.31104 58.34074 62.53679 77.34133 80.46129 84.00403 90.58683 92.46682 97.81714 93.15427 92.92407 89.73131 88.96294 80.36320 74.50806 67.50870 62.77932 62.04149 61.98332 62.84396 59.09810 54.89337 50.19272 51.62908 49.76685 47.82718 44.81285 40.59664 37.16827 34.79312 31.67438 30.55478 29.06048 28.36230 27.08826 26.73378 26.71921 26.70492 26.38284 26.32620 26.13682 25.75400 25.57310 25.44280 25.34324 25.40100
25.24900 25.25387 25.26448 25.27210 25.29249 25.31624 25.40348 25.50537 25.57663 26.31204 26.44979 26.73453 27.25557 27.20061 27.43891 28.51938 28.50600 29.16312 28.65932 29.27528 29.37426 29.11546 29.46559 30.24512 33.88776 35.68184 37.63854 41.62792 41.34827 46.92875 50.95486 54.67970 61.51070 67.58151 72.84567 79.00834 84.79880 91.14783 98.83212 101.32437 105.60794 107.39200 106.70214 104.98640 103.68009 101.92151 100.79203 99.88009 99.10164 98.58224 97.90454 97.51090 97.30392 97.26283 97.17313 97.13435 97.08048 97.06795 97.05024 97.03039 96.99988 96.96910 96.74923 96.31228 95.55202 95.68973 91.60015 90.10088 90.78191 92.26967 94.25024 94.15434 91.98488 93.95456 91.59184 86.31198 77.67314 73.97134 60.19311 55.44663 62.54300 56.92788 68.00617 70.39427 77.67658 78.86532 75.09845 72.28500 77.26736 76.62247 79.35932 74.13894 65.04595 58.09160 52.94406 53.31835 51.89044 51.37227 51.08500 46.52080 45.56278 47.88918 47.24747 44.90756 43.12519 39.21554 36.79840 34.66214 32.38279 30.63156 28.53676 27.10501 26.42197 26.23763 25.83207 25.79489 25.87341 25.72693 25.64833 25.55459 25.38949 25.32573 25.37000
25.24900 25.25402 25.26435 25.27193 25.28904 25.31559 25.34332 25.43762 25.59839 25.90315 26.18487 26.41294 26.45141 26.45604 26.15707 26.82158 27.00279 27.14859 26.72239 27.46020 28.20844 29.69886 31.06658 34.55643 36.46181 42.23359 43.71584 46.63633 45.83815 51.11801 57.56676 60.95088 68.19728 72.52129 75.64619 80.92758 85.47226 90.34077 93.91970 100.68359 104.29688 106.60250 106.94232 106.04537 104.69010 103.65735 101.56164 100.61995 99.27166 98.66138 97.85337 97.58043 97.57740 97.48179 97.29312 97.17483 97.09348 97.08547 97.06234 97.03458 96.96386 96.83350 96.68053 96.10068 95.45243 94.73231 93.26331 93.94889 95.15607 94.73144 95.93635 96.30671 94.89351 96.15696 95.94294 92.74533 89.95185 77.58995 71.97929 62.01127 52.04709 45.62105 48.61750 55.26665 60.24618 59.36347 59.09997 51.63760 61.28777 59.80301 67.00921 70.05476 65.09829 60.22646 54.01231 46.64311 45.70752 43.82039 43.44916 40.58229 39.83750 41.41416 43.40182 41.67149 42.77346 41.71329 40.09191 36.49876 33.83427 31.83551 29.10006 28.22153 26.84682 26.30026 25.67779 25.54374 25.62274 25.58988 25.55041 25.44498 25.34805 25.31532 25.35400
25.24900 25.24926 25.26325 25.27246 25.28471 25.30029 25.32750 25.38194 25.51996 25.65691 25.81160 25.85534 25.84824 25.83592 25.83513 25.93277 26.18637 26.32663 27.00858 28.52696 29.27275 31.33393 35.14059 38.62112 41.60896 46.26591 48.77609 53.15840 54.78223 56.02801 60.35091 68.09010 71.15216 73.56987 74.75502 77.11286 79.85044 81.49866 89.79451 94.64237 101.17689 106.29780 107.33906 106.95066 105.58586 104.32311 102.68179 101.26473 100.01026 98.90306 98.55321 98.03886 97.74793 97.61063 97.43835 97.18289 97.16843 97.13806 97.09927 97.07513 97.04288 96.98602 96.81133 96.86028 96.65093 96.12721 95.65254 95.50915 96.71189 96.63720 96.62351 96.81982 96.63192 96.71486 97.08159 96.99182 95.52268 91.44556 88.15110 76.59535 61.38542 58.83484 56.70071 52.37296 44.69057 39.90544 43.13957 36.46916 33.31911 37.86034 53.04045 59.72495 59.37583 58.37748 54.25621 48.53278 41.63066 37.16967 36.70967 35.28298 33.19518 35.37065 39.62656 39.53958 41.03137 41.80328 40.93841 37.53852 34.77217 31.91101 30.25385 28.34472 27.71934 26.60738 26.02336 25.74713 25.49945 25.39129 25.39642 25.37588 25.32989 25.30556 25.31300
25.24900 25.25872 25.26505 25.27403 25.28538 25.29544 25.30773 25.34126 25.38546 25.45826 25.50964 25.60513 25.53735 25.88630 26.34029 26.44041 26.71306 27.09642 28.59626 29.09938 31.36977 34.30563 36.11864 39.29867 44.58397 48.23997 53.03212 57.11448 59.76373 61.46372 65.11586 68.21940 69.86842 70.24587 66.37225 68.99777 70.64269 76.33070 85.62787 94.51924 99.49932 105.73708 107.72703 107.56813 106.32325 104.92415 102.92249 102.19276 100.96207 99.62640 99.14261 98.93090 98.11134 97.84713 97.54396 97.21258 97.25573 97.25626 97.13241 97.07397 97.02708 97.00540 97.02951 96.99746 96.90983 96.72118 96.34808 96.53080 96.95846 97.05059 97.20037 97.21083 97.27363 97.24261 97.79393 98.26287 97.76848 97.08218 93.21729 84.47870 80.80575 82.33398 78.12832 73.63098 71.63228 69.36636 61.76950 51.25785 46.66040 35.93833 36.68161 48.20781 49.82333 47.82359 48.21022 49.00392 44.87411 39.37708 36.30470 31.38612 31.61265 33.10094 32.55793 34.56581 36.05877 37.95308 39.02520 37.26036 35.92383 31.60914 30.46507 28.39143 27.60586 26.52838 25.98776 25.79700 25.62989 25.48724 25.36229 25.32616 25.32066 25.30468 25.29600
25.25000 25.25972 25.26639 25.27434 25.28449 25.29018 25.30056 25.31788 25.32925 25.36375 25.37749 25.50455 25.88709 26.13986 26.61225 27.09565 27.67978 28.78564 29.67679 30.93993 33.22746 34.86032 37.39839 39.55250 42.97634 47.34507 52.98837 57.58723 59.55118 60.13608 64.20805 62.78923 62.61687 62.97746 61.36386 61.01511 66.33593 72.88609 76.03404 91.53471 97.27913 102.85952 106.13068 108.12529 106.93609 105.76582 104.42377 102.36971 101.45745 100.36640 99.85591 99.22639 98.64952 97.89945 97.56451 97.55362 97.53671 97.35540 97.24246 97.11024 97.13257 97.13078 97.12392 97.09500 97.09818 97.05102 96.94734 96.90371 97.11289 97.34997 97.55150 97.52970 97.66995 97.81484 97.93172 98.41681 99.51820 100.11902 97.46169 94.61429 92.36284 95.46647 92.07981 90.11939 90.86995 81.32383 79.56745 66.04248 59.99802 45.81905 33.31663 32.39661 35.04586 37.22259 41.84021 42.88068 42.25428 39.62615 36.69492 31.10224 29.17504 28.72251 28.31322 30.08532 31.89998 33.47544 35.54757 36.46144 35.04087 32.76968 30.83109 28.68041 27.50715 26.63346 26.14340 25.79226 25.56360 25.46823 25.41975 25.33783 25.31322 25.30521 25.30000
25.25100 25.26072 25.26716 25.27608 25.28208 25.28887 25.29998 25.32874 25.37477 25.42982 25.55612 25.82746 26.25871 26.60261 27.46998 28.37298 29.01866 29.82676 30.91573 31.38092 32.99594 33.29249 35.08747 38.72102 40.63651 46.10109 52.01572 54.81510 55.95127 54.71832 55.69827 55.46962 55.85785 53.92725 53.54158 55.75401 61.23713 69.28781 75.67250 84.96933 94.16258 101.52658 106.56758 108.28507 107.78857 106.15589 105.13974 103.33017 102.37612 101.24197 100.96702 99.75813 98.93107 98.62071 98.06006 97.89384 97.74051 97.48631 97.30562 97.20433 97.19908 97.26425 97.32077 97.24196 97.21062 97.11626 97.09984 97.25501 97.22880 97.44940 97.72590 98.03710 98.32375 98.60142 99.13229 99.02641 99.70246 100.83333 101.68787 98.95617 100.77038 102.32065 103.37306 102.78778 99.95388 96.62564 89.46385 77.96231 72.20182 53.24990 44.90284 37.13525 31.83279 32.24089 31.74680 33.51076 34.92287 33.85384 33.41979 31.75674 27.79036 27.23319 26.21770 26.91610 28.50002 31.24932 32.92017 34.02634 32.61492 31.66306 30.32738 29.52845 28.18817 27.18855 26.50384 25.88218 25.64920 25.53594 25.38803 25.34238 25.31299 25.30850 25.30400
25.25000 25.25964 25.26620 25.27523 25.28207 25.29428 25.31840 25.35323 25.42665 25.54704 25.69657 26.02996 26.59103 27.08200 27.99674 28.89575 29.43548 29.70940 30.62424 30.93400 31.26728 32.02491 34.79531 38.34968 41.55476 46.42346 50.45746 51.76579 49.17527 48.85166 47.92096 50.36682 46.43930 46.73494 50.63712 58.50190 65.81317 74.45994 79.43584 88.81029 96.37779 99.80352 104.20172 107.51212 108.40955 107.81501 106.32556 105.17145 103.32988 102.70604 101.93256 100.50174 99.42528 99.15461 98.76189 98.46713 98.28392 97.93291 97.56616 97.73979 97.39186 97.48228 97.52771 97.48948 97.41770 97.40112 97.36644 97.43966 97.55378 97.65064 98.09379 98.47953 98.58710 99.11840 99.73502 100.49707 100.95734 101.03108 103.19648 103.46561 104.34059 106.21132 107.17823 106.33872 103.77408 100.80281 93.44235 83.74538 74.52504 71.73142 56.57410 49.54908 46.15453 41.80139 35.73679 32.53190 29.48251 29.43417 31.54553 27.92545 27.13597 27.36632 27.45215 26.31604 27.09100 28.09941 29.35703 30.32982 30.28949 29.84522 29.29483 28.51197 28.17423 27.19418 26.83254 26.32961 25.85285 25.50736 25.39974 25.34272 25.31136 25.29830 25.29200
25.25000 25.25971 25.26551 25.27456 25.28215 25.29917 25.31665 25.36930 25.47620 25.65083 25.77167 26.05730 26.58999 27.24462 27.74862 28.30266 28.37431 28.49008 28.94111 29.40777 29.87317 33.00836 34.46496 38.12207 41.25124 47.11113 47.05291 45.61409 40.69203 42.32154 43.13184 41.64070 44.12087 53.11570 56.75080 63.45117 68.88246 76.92444 83.23005 85.52478 91.58554 95.44265 101.89137 106.29827 108.22366 108.51392 107.22413 106.08629 104.40814 104.22972 102.21211 101.17639 100.89764 100.06433 99.35880 98.95962 98.73615 98.10510 98.01729 98.10275 97.79353 97.82442 97.95851 97.82561 97.75712 97.84398 97.65005 97.69395 97.81776 98.21070 98.43604 98.80515 99.22556 99.59955 100.71748 100.90524 101.90717 102.99460 104.25294 105.87004 107.08396 108.04791 108.08824 105.99175 102.12261 97.30562 93.36173 86.83571 82.00304 73.47999 69.66957 59.58054 57.86103 51.55674 44.67422 40.54600 33.72308 29.10914 27.78794 29.10204 28.88267 29.18030 28.72319 26.92295 26.12857 26.93402 27.55771 29.01715 28.11063 27.89378 27.48017 27.46413 27.22229 26.99625 26.62024 26.29133 25.89369 25.60025 25.46272 25.37480 25.31130 25.29800 25.28900
25.25100 25.25100 25.26306 25.27051 25.28116 25.30148 25.32348 25.36586 25.48003 25.66847 25.80807 26.04797 26.16989 26.61404 26.81584 27.25164 27.12252 27.29362 28.20709 29.36526 31.00021 33.94945 37.48774 40.44343 41.97145 44.43230 44.48657 41.21987 38.11367 36.49971 40.56432 43.12174 48.93282 55.21149 63.73627 68.83960 72.38385 76.32083 79.65572 81.46462 85.50971 90.38013 97.32720 103.40309 107.44078 108.93216 108.52395 107.93566 106.68945 105.56406 103.38404 102.91355 102.19787 101.18846 100.01609 99.86075 99.18964 99.24000 98.80530 98.69510 98.12727 98.46149 98.51015 98.60930 98.33008 98.07506 98.06752 98.10398 98.16763 98.48524 99.31985 99.33192 100.02716 101.71986 101.89473 102.85303 103.44946 104.86002 105.36792 107.29498 108.21646 108.28195 107.79237 104.62337 97.27149 89.34156 85.66835 81.79398 78.56985 74.87431 70.90855 68.00411 63.33733 60.12728 51.77468 41.57781 37.69143 33.25146 31.62697 32.83612 31.56906 31.55723 31.06567 27.94206 26.66180 25.84819 26.39085 26.96376 26.88402 26.35604 26.34484 25.98428 26.22033 26.26752 26.34577 26.14020 25.90744 25.65463 25.46493 25.40263 25.32097 25.29791 25.28900
25.25000 25.25113 25.26251 25.27018 25.28056 25.29426 25.32118 25.33460 25.44152 25.50374 25.64589 25.59828 25.85310 26.01194 26.21722 26.17099 26.40843 26.90916 28.60693 29.95715 32.36627 35.17605 37.74591 39.40406 40.65703 39.78487 38.28464 36.70384 34.57535 37.67091 42.91079 46.71430 51.47044 57.80587 64.47309 66.17044 67.64998 69.94418 70.72364 76.03894 81.47880 88.93535 95.88296 102.28678 106.67357 108.78754 109.03885 108.78815 107.81048 106.67877 105.71139 103.95129 103.42744 101.58350 100.92157 101.04094 100.53187 99.72640 99.62044 99.84591 99.02409 99.34223 99.42254 99.17200 98.78516 98.59162 99.33562 99.36570 99.18788 99.15041 99.77657 100.66870 101.33136 101.94864 103.37556 104.16240 104.90194 106.10035 107.11420 108.04091 107.45417 106.70450 105.10008 100.01380 94.15122 85.48693 78.81992 74.49884 70.42166 69.46284 64.61436 65.90523 64.83738 61.30207 53.96310 47.89340 41.70354 39.40968 38.97203 36.91469 36.14532 34.87085 32.28752 30.50448 27.75609 26.38052 25.88672 25.82525 25.74471 25.56721 25.51417 25.41693 25.55580 25.63033 25.70328 25.80932 25.76101 25.57925 25.49682 25.37509 25.32590 25.30191 25.29300
25.25000 25.25000 25.26123 25.27178 25.28154 25.28958 25.31192 25.33396 25.38587 25.42265 25.43374 25.50646 25.50337 25.65865 25.76932 25.96790 26.35301 26.92446 28.84010 30.25237 32.46919 35.04014 35.09369 36.50458 35.99198 36.02246 34.04934 33.31236 34.08559 37.91605 43.62673 49.71648 53.09603 57.67738 59.48387 60.00312 59.08685 64.15149 68.93779 74.55330 82.24252 89.08463 96.00898 98.57467 102.22966 107.13729 107.90026 108.59301 108.41411 107.42583 106.80518 106.01948 104.69695 102.86384 102.21382 101.35218 101.54471 101.17671 100.69492 100.65797 99.52881 99.94447 100.51669 100.33621 99.66120 99.58082 100.01672 100.34136 100.15080 100.09119 100.44695 101.95741 102.79753 103.41548 104.59809 105.16866 106.78920 107.35856 107.79176 106.07800 105.38154 101.31681 101.05001 98.03686 93.70794 85.88625 74.69429 65.75889 61.39659 60.30762 58.25615 58.47201 58.98338 57.52950 56.91130 52.32391 48.25201 46.84029 45.94393 42.38430 40.62509 36.70293 36.46893 34.48445 30.19430 29.00965 27.69718 26.10726 26.14845 26.05926 25.94021 25.77154 25.51054 25.41017 25.49351 25.47505 25.49362 25.53392 25.44847 25.36049 25.32289 25.30274 25.29500
25.24900 25.25884 25.26476 25.27276 25.27788 25.28997 25.30001 25.30766 25.32950 25.34951 25.37358 25.42979 25.55724 25.79899 25.91690 26.36176 26.82690 27.32078 28.85101 30.00965 32.24966 33.24727 33.22966 32.82812 31.40247 31.62357 31.89929 34.01280 36.42399 40.62584 44.30760 48.13338 49.87251 52.57620 53.51374 52.33369 56.89057 65.98301 70.54122 75.65246 82.28568 87.39743 90.42629 94.54902 98.85787 103.68352 103.36342 105.47310 105.50305 107.19281 107.56641 107.05789 105.67493 105.17077 104.06309 103.55484 102.66193 102.55807 102.24879 101.90360 100.95502 100.93482 102.02062 101.56723 101.43181 101.17486 101.11586 101.64747 101.53996 102.33702 102.31323 102.78467 103.96728 104.99574 105.35750 107.28917 108.11818 108.41449 107.55906 105.35895 100.13414 98.39975 93.00129 91.99401 86.69986 79.79188 70.92003 63.59592 56.55093 51.77462 50.74418 50.72917 50.48107 53.50718 54.59307 54.82090 53.13747 52.39282 49.31526 45.62643 43.93662 41.29336 39.13915 35.03519 33.88438 31.01715 29.32177 28.06631 27.12126 27.05628 26.53841 26.10961 25.83731 25.76499 25.43694 25.41926 25.39809 25.38621 25.38403 25.34733 25.31691 25.29967 25.29000
25.25000 25.25984 25.26645 25.27459 25.27994 25.28804 25.29448 25.30223 25.31126 25.34626 25.39542 25.53576 25.68382 25.95954 26.22082 26.41922 26.83927 27.24399 28.38827 29.38637 30.24925 31.12113 31.13782 29.33855 29.13228 30.04053 32.13831 35.02417 37.77532 38.88964 42.11139 44.26159 43.39698 45.22227 47.72868 52.71994 63.50071 67.88864 73.17725 77.27092 77.14221 79.89194 83.46130 89.48348 94.87104 94.89306 97.35836 97.70565 101.84021 105.05918 107.47191 107.47823 107.30356 106.65901 106.08348 105.51290 104.68723 103.60727 103.25391 103.36803 102.20272 102.29007 103.44857 103.42216 102.95895 102.18515 102.84864 102.97048 103.16163 103.07193 103.77186 103.68601 106.11398 106.49375 108.40981 108.63539 108.60840 108.44214 106.09162 100.39749 95.63544 88.98428 86.25511 85.19580 83.45266 75.66255 66.81339 57.30145 51.68128 47.28917 44.42947 43.79401 43.01402 43.56588 48.46153 49.61019 52.23933 53.09954 52.26495 48.41655 45.13965 41.38402 38.16340 36.40330 34.08134 32.26459 30.68402 29.36556 28.27178 28.20062 27.31204 26.84304 26.33448 26.00943 25.66776 25.50009 25.34837 25.34515 25.32092 25.31837 25.30528 25.29767 25.28800
25.25000 25.25855 25.26612 25.27147 25.27992 25.28548 25.29251 25.30090 25.32213 25.37843 25.43188 25.58003 25.71614 25.90349 26.14270 26.30597 26.53389 26.73828 27.10949 28.01659 28.65229 28.39629 28.57897 28.07584 28.60314 30.88535 33.11704 35.12457 36.10036 36.19787 38.47366 38.58793 43.36800 46.74775 50.87119 57.79656 64.24110 69.31548 70.91149 72.43403 71.81685 75.79743 80.77931 85.03972 89.11836 87.94201 87.37248 87.63943 94.93209 99.26083 103.94610 106.48765 108.51180 108.19725 107.61492 106.92504 106.35994 105.85839 105.09019 104.37924 104.24513 104.19385 104.95335 105.45962 104.28362 103.89116 104.62234 104.38697 104.65288 105.51127 105.99711 106.06415 106.47962 107.60288 108.61104 108.92436 108.69904 107.20684 103.13709 99.67979 92.40113 84.73151 80.00715 77.92332 75.81171 74.09266 65.67602 59.15394 53.44595 46.16403 43.65475 39.71963 39.00140 39.41850 41.40348 45.50456 46.83161 49.40454 49.47618 46.60915 42.01409 38.72908 36.35104 34.60965 33.48667 32.01620 31.10489 29.64955 28.94503 28.43565 27.74706 27.08851 26.57763 26.24185 25.82431 25.62869 25.42581 25.36382 25.32920 25.31108 25.30377 25.29467 25.28500
25.25000 25.25916 25.26277 25.26777 25.27831 25.28419 25.29646 25.31263 25.32850 25.38676 25.45666 25.52716 25.63967 25.76585 25.76442 25.80873 25.81003 25.94384 26.00565 26.69617 27.01547 26.78275 27.33685 28.13306 29.80132 31.82033 33.18994 33.84461 32.86252 32.71549 36.80164 39.16573 45.33141 47.98268 56.44198 61.54471 64.79392 67.38495 67.14073 65.48669 66.29459 71.33969 77.21057 82.91710 83.14452 77.58593 76.28236 79.11683 84.91607 92.21531 99.58781 103.84290 107.93346 109.00587 109.06855 108.68450 108.27251 107.75535 107.29467 106.71460 106.15369 106.17654 106.26771 107.05003 107.15209 106.29214 106.73333 106.62480 106.90378 107.22230 107.24196 107.51076 107.73453 107.73169 107.66773 107.94385 105.94924 103.60343 97.99510 95.29517 90.47396 80.39108 72.00953 70.42905 73.18261 72.39082 67.75396 64.79139 55.74934 52.55789 47.57692 42.67568 36.56465 35.04124 37.23544 39.72750 42.67802 45.83324 46.84076 44.46286 40.25145 35.96959 33.00430 32.00912 31.12189 29.96295 29.65809 28.97898 28.05308 27.90530 27.36219 27.14875 26.55958 26.17257 25.88101 25.65849 25.45098 25.36584 25.34276 25.31216 25.30476 25.29567 25.28600
25.25000 25.25070 25.25955 25.26908 25.27824 25.28578 25.29783 25.31673 25.33530 25.35862 25.42772 25.49028 25.54124 25.54553 25.60280 25.65798 25.64781 25.70650 25.88730 26.06330 26.34103 26.60792 27.91703 28.93087 29.46018 30.46739 30.83606 31.60937 31.03999 33.06408 37.70502 42.04163 46.64430 51.34727 56.86963 62.29594 62.62044 62.48760 58.88794 59.77172 64.23328 71.14780 75.61001 76.42418 75.31124 68.42309 67.14221 68.62368 77.99773 84.83746 96.83572 101.78763 105.18349 107.55166 108.45628 109.45843 109.46869 109.27800 108.73857 108.38275 107.97263 107.87333 108.12729 108.12949 108.18519 108.27885 107.76078 107.51037 107.44966 107.35134 106.57637 106.52398 106.40593 105.51410 103.45772 104.20539 104.62239 100.81928 95.84834 88.87753 84.32269 80.48197 65.68955 67.10035 65.17470 67.02981 67.41162 64.47651 59.07555 55.86566 47.82098 42.95354 37.88361 33.69947 33.00103 34.61432 38.20478 40.34539 43.35397 42.60070 40.11345 36.20503 32.83829 30.84382 29.71793 28.93222 28.47147 27.78973 27.16634 26.77117 26.59470 26.47259 26.18989 25.94836 25.81378 25.54731 25.43608 25.36655 25.33589 25.31536 25.30127 25.29112 25.28700
25.25100 25.25170 25.25988 25.26985 25.27527 25.28486 25.30155 25.31270 25.33153 25.35690 25.38717 25.41804 25.40606 25.40143 25.47505 25.51369 25.89347 26.17609 26.35396 26.50146 26.81117 27.33379 28.04709 28.53720 28.69915 28.84420 28.78240 29.55096 31.29525 34.80041 39.22776 42.77037 48.59560 54.09253 57.17376 57.18394 55.33267 54.73003 52.49091 58.41029 63.84556 71.29207 72.63260 70.60680 67.14663 61.81548 59.02395 64.40091 73.41078 87.00036 91.24349 98.04135 100.82619 103.08895 104.73939 107.82038 108.73990 109.20549 109.14974 109.02056 108.40826 108.24585 107.90954 107.49705 107.17593 108.20167 107.38149 106.57935 105.31010 105.65856 102.21547 101.04434 100.59588 101.85975 98.79101 96.43916 97.40559 95.21401 91.52884 84.44979 79.74695 76.12764 64.88677 58.27857 61.16462 62.72799 63.47524 61.49862 59.34609 56.04074 46.24334 44.48267 38.60919 34.09397 31.31479 32.50284 36.09308 36.34213 39.55660 40.39511 39.73312 37.17999 33.34642 31.22136 29.41252 27.86271 27.39950 26.81831 26.66670 26.14635 26.06922 25.88623 25.84201 25.81044 25.65520 25.47793 25.44172 25.35990 25.33135 25.31165 25.29825 25.28958 25.28500
25.25100 25.25235 25.25935 25.26543 25.27880 25.28731 25.29723 25.31349 25.32711 25.34279 25.35828 25.35045 25.37130 25.43037 25.55157 25.74538 26.23254 26.50861 26.84443 27.18407 27.41352 27.48588 27.45380 27.15277 27.58470 28.20214 29.46063 30.50958 33.42574 35.70910 41.53600 44.86873 50.08389 53.12227 53.55479 51.05334 49.99198 49.52473 49.73635 56.06482 63.10165 67.71059 65.03082 60.50777 58.14313 56.14426 54.99394 66.43994 76.21649 82.44735 91.43970 95.70175 96.57757 98.23598 100.47165 104.09185 106.50347 106.59976 106.66495 105.84951 107.11761 105.45258 103.09955 103.34982 103.03005 105.56787 104.93562 102.52411 99.03570 97.78816 97.73820 95.18243 91.89160 91.93187 90.64856 90.23823 91.85158 91.77794 90.67837 81.02924 75.96348 69.49201 66.20277 56.97299 52.72833 53.53972 53.36664 52.91861 53.67980 53.50784 49.80405 46.32782 40.56616 35.40813 32.41432 30.76318 30.27388 32.33368 34.46266 36.19037 37.69266 37.42605 35.28121 33.30212 31.50532 29.00693 27.87055 26.65457 26.28964 25.95906 25.71226 25.60210 25.58118 25.52351 25.51337 25.44878 25.38551 25.33937 25.32066 25.30929 25.29290 25.28429 25.28200
25.25100 25.25100 25.25713 25.26354 25.27680 25.28701 25.29604 25.30978 25.31947 25.32880 25.33317 25.34106 25.37331 25.43059 25.54610 25.83047 26.17834 26.57047 26.86554 27.11652 27.22622 26.93697 26.82165 26.77680 27.68207 29.91683 30.38697 33.75825 34.63421 38.46406 41.33957 45.19891 47.12629 49.08799 47.40599 43.80322 42.80386 43.74986 50.87570 56.27569 60.02370 61.73533 60.57990 56.79534 51.96136 47.14939 51.99833 64.89997 74.33644 80.59955 86.67527 87.43023 91.66673 91.28738 93.63959 97.69917 100.82258 100.48249 100.98905 103.64383 101.67626 98.38196 97.35307 95.69170 97.49401 98.20248 100.74131 95.46218 94.11760 89.64340 87.30926 83.01644 84.44719 82.69656 85.24157 80.62683 81.32466 84.87157 84.46265 79.07476 73.56188 67.07949 61.51230 57.39119 52.27363 48.67770 46.11381 44.46869 45.02179 47.40907 47.42986 45.49053 41.42867 38.01539 33.23964 29.39797 29.20840 30.07260 32.21978 33.87607 34.96151 35.49488 34.94354 33.75101 32.31335 29.58293 28.39658 27.44380 26.80107 26.16143 25.92016 25.67452 25.50573 25.43517 25.40715 25.38422 25.34044 25.32090 25.30951 25.30432 25.29167 25.28158 25.27700
25.25000 25.25107 25.25740 25.26378 25.27515 25.28687 25.29406 25.30820 25.31474 25.32109 25.33372 25.35564 25.38868 25.45703 25.60891 25.87939 26.04054 26.28847 26.42267 26.38434 26.50525 26.18520 26.27092 27.11645 28.67641 30.68466 32.52485 34.73601 36.68932 39.73510 41.63390 42.07445 43.35805 42.60562 41.04795 38.96678 39.77679 44.16786 50.03553 54.54414 55.87972 55.43891 51.78520 50.18074 45.76404 44.66027 53.35203 60.37741 71.36486 76.81586 81.24011 81.10435 80.40506 82.89951 88.79026 93.13917 95.26356 94.93552 96.16823 99.21514 98.92223 92.45296 87.82735 86.89140 95.08076 91.96961 90.93999 87.66165 86.70417 83.34092 76.49256 73.23043 72.38912 70.30647 74.38776 73.12922 73.68417 77.47255 80.35337 76.83564 74.31410 62.84003 57.88914 58.30837 55.34360 51.44415 47.28961 43.16003 39.54077 40.76375 42.43681 43.20154 40.86313 38.03249 34.53268 31.05575 28.52002 28.73206 30.30741 30.78390 32.26116 33.50678 32.93418 31.98464 31.79787 29.82994 28.43253 27.22036 26.74927 26.42860 26.04656 25.73724 25.51007 25.40860 25.35130 25.33698 25.32738 25.31578 25.30669 25.30156 25.29314 25.28676 25.27700
25.25000 25.25000 25.25963 25.26611 25.27707 25.28369 25.29139 25.30491 25.31047 25.32198 25.33165 25.35967 25.39818 25.50860 25.60620 25.79797 26.00569 26.07701 25.99025 25.92711 25.84410 25.85029 26.48484 27.91384 28.95104 31.07588 32.64428 34.37555 36.20715 38.44817 39.06116 38.08553 38.06367 35.43536 36.19621 35.88852 40.36095 46.55101 50.03981 52.38298 50.62630 46.78190 45.47591 46.82775 43.40494 48.41688 54.12881 60.92072 67.67582 76.29253 78.23561 74.14311 75.13882 75.99599 86.49429 87.87497 88.73897 86.17812 85.78510 86.98597 93.46318 88.18476 81.78865 77.78786 77.67900 86.69665 86.95355 77.16345 73.11947 70.99635 66.77320 63.47000 62.29564 63.70243 65.42697 65.07271 65.30201 69.98650 75.85407 75.59550 71.00814 61.34065 56.02627 54.05816 52.88667 51.21485 49.92143 45.39090 40.25055 36.54293 37.73697 37.85016 38.71175 37.49112 36.01922 32.24115 30.20562 27.50449 27.67518 28.33692 30.02800 29.81349 30.70549 30.76048 30.51973 29.52489 28.16967 27.07302 26.45236 26.11961 25.81990 25.70309 25.53537 25.44666 25.37385 25.33073 25.32117 25.31606 25.30899 25.30127 25.29318 25.28678 25.27800
25.25100 25.25100 25.26133 25.26761 25.27615 25.28419 25.29137 25.30209 25.31343 25.32395 25.33394 25.35877 25.40784 25.47722 25.56730 25.69382 25.74343 25.78771 25.66777 25.58508 25.66894 26.06097 26.81086 28.25663 29.56967 30.57656 31.81556 32.65717 34.17724 35.62133 36.74255 35.17972 33.32142 32.22604 33.74145 35.50764 42.00814 47.70838 48.99545 47.57992 44.11281 40.40597 41.57989 38.63379 44.31566 49.37783 56.44241 61.96958 67.44249 70.71189 70.61642 68.37984 66.36444 71.66970 78.80707 80.06859 82.67546 79.68636 80.19912 84.76815 86.66046 83.43400 77.59652 71.40553 69.45691 78.45367 81.55330 77.12453 64.69182 62.79965 57.37331 52.94620 52.60423 52.81150 57.28278 59.60366 58.89653 63.25027 69.13338 73.27833 67.96124 62.21753 55.58730 47.81908 46.61691 49.07024 47.72465 46.81907 41.13120 36.87116 33.27914 33.79341 35.06373 33.93341 34.61697 32.93502 30.95291 28.75838 27.67052 27.07824 27.39037 28.23991 28.34459 29.02769 28.94394 28.62587 28.00204 27.05284 26.26235 25.86521 25.65735 25.50847 25.46230 25.41399 25.37405 25.34074 25.32323 25.31600 25.30673 25.30185 25.29095 25.28000 25.28000
