25.04596 25.67868 25.40595 25.84911 25.75405 25.40006 24.34896 26.48058 25.75494 23.82233 25.27619 23.66944 25.93941 25.38260 26.34698 25.86115 24.82675 25.83327 24.13297 25.92035 24.28492 25.78748 25.89188 26.60948 25.63292 27.04292 24.99993 25.71860 25.39510 25.57751 27.11741 25.70579 26.07821 24.97847 26.23549 26.18953 27.20751 27.39971 27.39492 32.20989 30.83161 32.22232 29.27963 29.13763 28.42991 28.20097 27.77309 35.49023 36.55853 39.97972 44.36618 41.65580 39.52840 36.85131 37.54678 32.99732 30.73822 28.94099 35.87676 39.56196 41.72512 37.85027 38.49220 38.46334 40.08502 40.83778 38.63986 32.93304 29.14950 27.77710 31.00583 31.50393 31.88201 28.86939 26.61292 29.96921 29.62323 34.31809 36.54731 35.31922 34.96907 37.60829 37.34756 37.07522 34.38043 31.04261 33.22611 30.82807 28.41189 25.35953 26.57544 25.46600 25.32850 25.74401 27.80695 27.93881 27.60294 26.61347 26.76346 25.77099 26.20417 23.88659 25.52506 25.28583 24.69846 22.79298 25.02364 25.03405 25.98907 24.13580 25.82252 24.64008 26.51276 26.74464 24.72632 25.27977 27.46840 24.42573 24.48492 23.42239 25.74248 25.18004 25.10202
26.47475 24.83190 25.44214 23.81705 25.87734 26.15248 25.14981 24.07482 25.77060 25.90005 25.93755 26.80372 23.54975 25.35329 26.36304 27.48877 25.64012 24.59638 27.69817 25.19039 24.17997 27.33573 26.75186 24.54272 24.61687 26.49995 27.00914 25.21844 25.67066 25.04183 26.91475 26.35618 25.32781 27.09447 26.58598 25.47255 26.88336 31.05096 31.79744 32.57642 34.30832 34.33979 31.71758 28.28027 27.70187 27.56309 30.37860 32.59113 38.50284 43.73244 47.49808 46.65726 44.98101 43.17514 35.21879 32.56803 30.61475 32.09239 36.38618 42.06988 45.26215 43.24877 39.65770 39.02640 42.01899 41.98657 38.19197 32.50506 29.36117 28.42936 31.79672 31.28717 32.53272 30.79783 30.38690 31.64102 36.07108 35.73862 38.86696 39.29284 38.89633 40.98566 42.58494 41.57963 36.91079 33.58775 32.29784 31.11902 28.23234 27.60160 26.54752 24.92341 26.92298 28.01148 27.79214 28.83589 28.74802 26.04736 24.31505 26.29050 25.10413 25.48403 25.47804 27.56933 26.87358 25.93265 23.75089 25.43938 24.16024 25.75969 24.40240 26.28462 25.58365 26.03531 25.74283 26.45406 26.29068 26.32004 26.25340 26.68862 23.43286 24.82098 26.21757
27.29025 25.36362 26.96174 25.14898 24.57944 24.97611 26.17021 26.51681 25.58175 25.94761 25.47892 23.95185 25.33978 24.49682 26.88944 25.77818 25.00572 24.71575 24.24565 26.29438 25.01080 25.91536 26.41969 24.79735 26.05110 24.34858 27.33455 26.42219 26.57235 27.85621 26.16008 27.27152 26.43760 27.54660 26.10330 26.19119 26.53264 29.70798 32.01096 32.98397 34.44074 34.57483 32.69139 29.99648 27.17332 29.37182 30.65900 36.20028 40.01960 44.64189 47.71853 48.98370 48.93114 43.13769 39.35147 33.48537 32.30764 35.36721 39.82030 44.95481 45.13681 47.05622 42.45840 42.06418 42.89380 41.19046 37.21215 33.82298 29.75636 29.95837 32.36979 31.73328 35.73468 28.51253 30.21643 33.07605 33.74845 37.24784 41.68275 42.08065 43.34627 44.23736 44.06372 41.68891 38.33453 35.87304 31.61768 29.54035 26.81033 24.59109 28.21035 26.74496 28.17692 28.79172 28.06680 28.52794 26.23184 27.53139 25.92378 25.13230 24.78792 25.93267 25.33411 25.31910 24.49755 26.68954 25.03140 26.02618 25.81433 24.99689 23.38597 23.11049 23.77535 26.91549 27.21867 23.74203 26.40118 24.50253 27.36876 24.15072 25.51411 25.16963 23.04526
24.43066 26.55560 27.58383 25.92601 24.15619 25.17596 24.90089 24.19390 23.74770 24.44503 24.32916 24.56148 25.56835 26.08006 24.83877 25.73166 23.59958 26.91018 24.06214 23.44084 23.69177 25.47443 26.73313 26.21273 25.21052 26.12092 28.94919 25.86745 24.78066 25.30447 26.64022 27.51640 28.18368 27.78489 27.40900 27.01207 27.41301 28.48387 30.48917 31.71924 35.18772 36.83612 35.21338 32.94267 29.70171 29.44595 32.34912 34.79274 38.19679 42.84883 51.71393 51.29957 50.00004 45.56896 41.49995 35.73012 35.15647 36.72625 42.25922 49.08933 51.62315 50.92636 45.84822 46.15332 43.94608 39.95094 38.02297 30.83363 29.91483 32.30075 32.65114 35.49568 36.25705 35.97125 31.48726 29.12545 35.71722 36.90869 41.48718 46.89581 49.15101 48.20535 48.02690 43.83723 38.93633 35.08255 31.05020 28.27002 29.61144 25.96180 26.68399 26.08085 29.11309 28.11730 29.89204 28.72111 28.21521 25.30670 25.58642 25.04389 27.29192 25.72527 24.39300 26.03553 24.00390 24.78587 26.19121 24.92075 26.68364 24.92126 26.21424 25.49027 25.60559 25.89721 27.00458 23.35848 25.03563 28.87986 25.13148 26.25403 25.54932 25.52985 26.25620
24.88452 27.49368 24.60815 26.80347 25.85744 25.56036 25.26093 24.88673 25.32248 23.40657 27.26136 23.65396 25.60029 25.41324 26.99053 26.32394 25.25963 25.57822 24.72463 24.87452 24.89349 25.33702 23.63269 26.70433 27.54263 26.68746 26.33632 25.79966 26.29425 26.70411 25.88674 29.20590 28.84573 28.75799 29.42648 26.84296 26.89492 27.60651 27.91836 33.64061 37.69217 37.74042 36.96809 37.74513 30.69413 30.99335 33.83150 35.53908 38.04941 45.36421 50.48484 55.33089 54.95633 52.31298 44.70372 36.93877 37.05794 36.96936 46.60321 51.46284 56.04295 54.08543 49.99573 48.88818 46.35662 39.57698 33.24852 36.79187 36.33233 34.74260 36.24843 38.41111 40.89044 36.57379 35.73799 32.56009 32.81755 37.17807 44.42934 48.89077 51.85459 51.90223 48.19051 43.73077 37.18800 36.12698 30.95501 31.70325 28.00428 25.29767 26.79550 28.50142 29.73544 29.81136 30.41175 29.31914 26.93886 27.77742 27.33326 26.85335 27.46122 24.87516 26.48491 26.85648 25.14184 24.91890 26.80499 24.22813 26.70337 25.34844 24.60591 24.56977 25.69997 25.37531 25.10651 25.62016 24.75584 25.65089 24.64421 25.63269 25.39358 26.39563 24.84117
24.69813 26.01754 23.88514 24.92952 24.68076 24.44340 26.45276 24.52529 23.71945 22.74554 23.58862 25.04608 25.82688 26.89806 24.67921 25.00932 24.89280 25.71259 22.86691 24.25989 25.22074 25.24571 24.71543 26.58677 27.38309 27.85022 28.42858 27.36315 27.42996 26.90181 27.16363 27.78095 28.91176 33.37074 28.25132 28.53187 28.11234 26.80413 30.25973 33.98548 36.06594 40.10082 41.11379 40.16438 36.12449 31.49660 29.30580 33.61846 39.08552 43.40979 52.07096 52.82378 56.96135 56.57537 50.15758 42.64250 41.10894 41.04671 45.27295 52.36078 56.95791 59.20860 55.86320 50.36177 46.85001 43.31884 37.42134 41.17753 41.46835 42.23735 40.98755 41.54198 41.54196 41.77638 40.36662 36.77565 35.03674 40.72472 43.79046 49.56062 55.28905 53.31889 50.08097 41.54943 37.96616 31.81964 29.41630 28.34448 29.51635 29.05927 28.36996 31.24949 32.95741 32.57625 33.63046 27.75156 28.13163 28.12773 28.64399 26.28405 25.25377 27.89945 26.31672 28.35453 24.87164 27.11338 24.14648 23.71284 25.97567 27.71004 25.12484 26.48357 25.95895 25.73293 24.84941 24.48155 25.13398 25.34512 26.77133 24.94175 27.54861 24.47943 26.41430
24.60595 24.18302 26.43324 26.27091 24.47492 26.66050 26.93204 24.25488 25.84844 24.70384 27.04398 25.04514 23.47321 25.26279 24.50649 24.97739 23.43275 23.71355 26.85141 23.99321 27.62575 26.40333 26.48812 26.01466 27.09270 29.00812 28.60804 29.42589 28.46775 26.49493 27.59643 26.64766 31.62955 32.82779 32.65478 31.77690 31.96680 27.44511 29.64296 33.60793 36.19024 45.49339 43.12860 43.15425 41.02395 35.81519 31.81224 33.76518 36.09134 43.70765 48.59387 53.59632 58.46714 60.08999 54.33267 49.19942 44.25036 38.77653 45.23816 53.08085 58.86604 62.08398 59.59820 55.32873 51.41840 42.56966 42.24203 45.90013 48.58934 45.15643 44.04944 43.95940 49.87715 48.07868 46.63777 39.65490 38.10205 42.36282 48.95680 54.24195 57.89918 54.23538 50.36259 43.39719 35.97895 32.25862 29.31339 31.00012 29.13823 28.35609 31.55589 36.21038 36.58808 38.07152 34.40212 30.56896 29.28284 30.57003 28.56017 26.52319 26.42451 25.80439 26.45635 25.03666 24.34525 27.41508 24.73036 24.57989 25.99049 25.98509 25.06718 26.49958 23.95916 24.20849 24.78469 25.95075 26.31463 23.21290 25.59459 26.08135 25.02073 25.58818 26.38664
26.15716 23.51799 25.41951 26.77574 22.73395 25.24233 25.79142 27.46303 26.01954 25.74920 24.81105 27.32640 25.20893 26.21543 26.19226 25.05817 25.56281 24.13249 26.60114 26.75828 28.13212 25.02912 26.40305 28.19214 24.70380 29.34993 29.37143 28.12955 29.94105 31.71815 31.49439 30.97443 29.27162 31.83135 34.40064 34.66393 31.86842 30.11851 29.55197 35.16889 39.30755 41.40894 48.08873 49.52889 43.67177 41.20365 37.91749 35.24446 34.54432 38.16495 45.55321 51.27965 57.39001 60.89493 64.76378 56.77163 46.06852 43.04650 45.68479 51.90318 62.65911 67.80114 63.19337 61.06171 58.45864 52.21423 43.79468 49.22866 53.82280 51.49346 50.79805 54.29234 53.32429 51.91634 46.97394 39.92330 42.64909 44.62454 52.53889 58.79144 58.68680 54.06005 47.03900 41.97549 36.71356 31.17644 27.39331 27.58234 26.94903 32.64464 35.77480 34.67000 37.22484 40.01726 36.21399 35.39480 32.57533 29.44966 28.42911 26.63228 25.95394 24.89356 25.26021 24.64305 27.28289 24.66814 26.43918 25.04573 25.20568 25.29909 24.99667 24.29129 25.69171 26.25145 24.97665 27.92476 27.06510 24.72160 25.93267 24.25058 26.54185 25.34565 26.01934
23.81775 24.66225 26.41628 26.01632 26.07731 24.09081 26.03153 26.24218 26.97013 25.07940 25.24866 23.95423 26.38262 26.86532 25.02577 25.08753 24.77369 23.57329 25.82693 26.51660 24.87205 23.86982 25.41322 24.35630 28.28523 27.70635 31.02813 31.73695 31.09822 30.37283 35.44419 31.31385 32.02812 32.31570 35.59996 36.04649 32.82600 32.32406 31.29826 30.85036 38.47288 42.76559 48.75870 53.26835 53.01385 47.94455 41.70958 39.41299 37.74490 39.64042 42.88453 48.85351 60.17830 63.25109 66.11503 65.25757 51.43383 47.58511 47.24232 56.92484 65.27634 69.40444 69.74296 66.78102 64.54391 58.29502 50.40943 53.35602 57.15425 55.57346 57.78393 60.00897 56.62844 50.62475 43.15386 40.39233 46.06358 50.97936 54.28343 61.72954 60.06595 56.19065 48.21200 41.67903 35.32722 32.93347 30.58286 28.34647 30.92375 32.82445 37.65342 39.66821 42.97400 39.54696 38.65742 36.66337 32.23714 29.58525 30.80524 27.47505 25.23963 25.91378 27.02516 26.28424 25.30588 27.53199 26.12866 24.81330 25.26226 26.68080 26.73361 25.59861 23.56508 25.30035 25.89382 26.09800 26.41246 24.51939 25.50566 25.08259 24.38856 25.88591 25.03808
27.00819 22.52822 24.25391 24.46054 24.83311 24.13620 24.80877 25.44850 26.39003 25.57466 25.44755 23.65933 24.55110 25.81890 25.02370 24.19273 26.83284 27.75530 26.69598 26.06370 24.61189 25.48288 25.71297 25.26492 26.51763 29.16821 28.33841 32.34829 33.02503 33.39049 36.39012 33.85091 34.32280 34.76756 35.02111 36.69319 38.66645 36.12386 35.12722 32.96571 38.20816 44.41322 52.16134 55.76920 56.51220 53.69553 47.81324 45.29296 41.77337 38.46386 45.27086 47.31010 56.47845 64.73921 70.77740 63.94273 59.66964 52.28049 49.67150 60.23265 65.65682 72.83117 73.18908 72.24360 66.07681 58.57315 54.73354 57.32286 65.62654 65.25640 62.10390 64.99382 60.69663 52.62159 45.83992 42.70034 44.12062 52.73605 58.51909 62.21006 61.16424 56.61260 49.41111 40.32297 33.69271 30.62855 31.72828 30.07362 30.45660 35.12204 38.95462 41.45622 44.07795 42.03798 38.95873 34.28527 34.39051 30.90865 29.52397 27.66212 26.22807 26.27160 25.50883 23.98084 23.91568 25.14811 24.93994 25.29188 25.52380 25.59951 25.37990 24.98992 25.54646 25.97338 25.04096 27.49977 26.19265 24.10780 25.31071 22.86408 26.50054 25.19914 23.69147
24.82904 24.15470 25.38928 25.44473 23.85753 25.76771 25.14528 26.64491 25.72053 26.35509 23.37030 26.63717 25.38651 26.17534 28.66044 25.27885 26.04957 23.72194 25.35967 26.93373 26.22655 26.05396 26.67718 26.03899 25.26236 27.20299 27.82726 30.88677 33.40618 33.37947 35.36839 35.99636 37.29572 37.12727 37.56548 39.82683 40.11377 40.54894 37.34182 33.91075 38.04404 42.85108 50.57901 56.86400 57.67354 57.94926 54.34967 50.12703 47.83019 42.73080 42.64381 49.41857 58.96633 67.62661 71.87662 70.62614 62.95580 57.21635 57.37478 63.34380 69.68808 76.84263 79.89486 72.68018 67.65142 62.64342 65.11856 63.37095 67.67941 71.16481 72.22047 67.63516 61.65943 52.49785 49.27349 47.56166 53.07747 56.22548 59.35317 61.18447 58.88237 50.93596 47.69144 39.38611 35.09192 31.20516 28.26620 31.56720 32.62883 38.08027 41.72432 46.04293 46.84102 40.61458 37.88199 35.33578 32.50352 29.80783 26.26386 26.31729 27.43433 27.85376 28.17834 25.18226 25.70497 27.03117 26.97261 24.65659 25.97890 25.84745 25.03516 25.31254 25.72057 24.64440 25.02200 25.63263 23.80092 25.26448 26.59107 25.76907 24.79309 26.28801 27.22203
25.56900 26.22942 23.19997 26.08044 24.28767 25.87050 25.44069 24.99123 25.46292 24.12590 25.98799 24.01402 25.59464 24.25597 26.52294 25.09799 23.48433 24.40784 25.48967 24.00559 27.13629 27.95834 26.58007 26.75460 26.09972 28.44353 27.63783 25.76329 29.65826 31.62977 34.63116 36.55836 40.31567 41.26173 38.48097 40.87615 43.47879 43.84301 40.40705 38.68910 37.37745 43.22003 48.45318 54.13851 62.64640 64.21362 63.40221 57.48675 52.85793 47.84945 42.24810 46.86755 56.51628 65.10554 72.72636 76.47769 70.13019 67.57429 62.02205 66.36059 75.37162 79.50455 82.14885 75.55418 72.96187 79.22325 75.34458 73.57419 73.64583 78.73118 79.00204 74.51056 66.32627 57.92296 54.73094 54.26597 56.69018 59.35748 64.88652 65.30488 53.79810 46.61964 41.69806 36.53137 33.69911 33.32680 31.73514 34.39944 36.74762 40.68590 43.84787 47.81353 44.59200 42.85883 34.86287 34.45814 32.08186 31.34009 26.90973 29.60535 29.15086 29.24475 28.77087 27.71897 26.46415 27.68554 25.80876 26.18434 26.40045 23.93545 25.34895 23.44623 23.97805 25.00298 25.08261 26.58708 24.16448 26.25517 23.90382 24.81252 27.68439 25.40605 24.11130
24.59026 23.45965 25.95563 25.97691 24.34468 24.70724 24.05819 25.42293 24.92156 23.27816 26.00408 25.06759 24.99649 25.11937 26.95707 24.72798 23.98764 25.68548 26.50489 27.52538 23.88699 27.49224 28.44123 26.75398 26.65624 25.84066 25.45957 27.12537 25.38324 29.35709 31.09155 36.01037 36.76472 41.86261 43.52159 43.21197 46.82342 45.01244 45.43109 44.47443 40.06481 41.07169 48.03760 56.91556 61.00964 67.58806 70.09897 65.90777 56.31344 54.73036 49.41548 51.38666 53.57166 65.76586 75.50952 79.66515 76.71689 71.29995 70.41854 77.75046 78.43545 86.46759 87.32429 81.35965 81.55269 85.32314 84.09243 81.60371 76.74843 82.92461 80.83083 75.51556 69.90254 62.58417 58.97590 57.39951 63.27536 67.88428 67.99816 65.40344 56.58209 45.84427 39.74211 39.27305 35.73420 33.98853 34.65473 40.74972 44.81228 47.21830 48.78072 50.14851 48.86302 41.26668 35.30545 32.56103 30.84551 31.73130 32.35634 31.51799 30.84907 31.08458 28.88313 25.97801 24.97016 27.54728 26.55921 25.72979 25.77915 26.95744 25.08469 26.05442 25.36461 24.54314 26.13794 22.95112 25.76699 25.10156 24.73600 25.74518 25.37553 23.64597 25.75791
25.81614 23.49815 24.56854 26.55090 24.14153 25.09468 24.62865 25.14489 25.62684 25.86997 24.96102 25.30933 25.37809 26.82718 26.63637 26.08381 25.56475 24.17613 27.71769 27.01557 25.51319 25.71863 28.72500 26.04033 29.12555 27.58977 26.54746 27.44788 25.17951 29.89715 31.27227 31.81875 36.69220 40.20095 42.87946 45.11795 50.06089 49.64587 48.82046 49.56289 44.08943 41.62209 49.85403 52.25683 61.09203 73.56389 72.36064 69.81045 67.20546 67.53910 55.95224 54.79281 60.03844 65.96147 76.24872 83.98482 83.10506 77.66369 84.41701 84.10989 87.14289 91.47961 96.03685 88.15958 91.17821 88.02264 89.92471 86.54789 89.02364 91.70551 85.55325 80.02813 75.87828 73.90143 69.55266 66.66688 68.88608 71.90572 73.81821 64.92001 55.45260 49.63075 44.83833 43.71310 35.02815 38.91234 42.77590 44.77567 49.54446 51.84143 51.18039 49.56268 43.69510 39.96422 36.66836 35.58669 35.39855 34.49395 33.85521 33.27472 29.70023 30.34846 29.72768 27.73278 28.11562 25.76955 26.42907 25.46292 24.91744 26.26551 26.10987 24.31934 23.97669 25.44584 25.81082 21.45642 26.27673 26.01867 26.00942 23.54739 23.97674 23.60025 26.26819
25.28159 24.65429 26.14360 24.18921 27.31062 25.59010 24.66926 25.13323 23.63281 25.56189 24.66005 24.41762 23.88127 27.56188 28.01593 27.94581 25.67616 26.96142 26.43380 25.42572 25.58134 26.85832 26.17491 27.72126 29.81423 29.37332 31.79855 29.58841 26.81139 27.80614 29.04530 30.87246 34.27923 36.78120 44.53125 46.90058 50.90067 54.08423 55.43027 55.09696 50.06256 48.26910 48.52815 53.81310 63.88200 69.09667 75.20844 79.44213 73.20238 69.77333 61.42373 59.29596 68.39126 70.31349 78.03587 90.34777 93.58842 86.27083 88.09891 95.94058 98.21605 97.16284 99.03588 96.22388 97.53209 98.00203 98.98044 96.33690 97.50957 94.92377 88.01792 85.19252 84.94659 78.35749 78.77614 72.60888 75.59565 78.69222 74.60294 64.44701 54.70756 50.27777 47.65208 46.94776 39.08321 43.21693 46.69437 52.93278 55.68907 56.57671 54.05054 48.82454 43.32780 42.42340 41.23757 39.24237 37.29101 38.46360 35.55979 32.99101 33.42799 29.91309 30.50751 29.64196 27.91173 27.62991 26.10524 24.88780 26.54017 23.93991 24.26116 23.95933 24.57981 25.65988 26.32448 25.25867 25.17787 25.03118 24.74821 25.04445 25.06900 24.49579 23.52846
24.77098 25.53181 24.65093 24.45537 24.48031 23.86385 24.21030 24.66791 23.97532 25.11703 26.92818 26.88802 25.48042 28.04696 23.66237 27.88978 26.42035 24.55340 27.78211 26.80621 26.14821 27.15120 24.66402 26.18682 27.55981 29.83650 31.15503 31.75520 32.12694 31.43005 34.11059 32.36380 31.02459 34.44381 40.29409 46.22609 53.38149 58.13571 58.57315 62.08389 59.13046 53.74381 52.56607 52.16390 60.48127 67.46318 74.38924 80.80043 79.95882 76.22580 77.87624 68.51037 75.81380 79.45292 87.49150 90.84172 96.24997 95.16874 96.11032 99.55800 103.79215 102.98667 104.21661 103.64049 101.27247 102.48944 103.61816 103.62499 101.55526 99.52338 97.30513 93.12092 92.88367 87.19562 87.92845 85.91715 81.50090 78.30251 74.66230 63.73826 57.25899 55.50412 53.68510 44.02664 42.61270 46.52788 52.35777 57.98912 60.20128 60.83301 55.23990 51.28372 47.86467 45.45522 45.17095 40.90610 38.27461 39.91229 35.88354 33.11656 32.89645 30.73545 31.97417 27.92626 29.57526 29.77811 26.62065 25.70848 24.82016 25.23263 26.26559 26.51268 24.91751 25.43949 25.51736 24.19997 26.51352 23.60822 24.56103 24.16523 25.34790 25.67544 24.36962
24.63441 24.37765 24.64136 26.26341 25.64229 25.23344 25.99204 24.01062 25.28209 25.99453 23.74796 23.19811 26.01159 26.84532 26.22935 25.94730 26.37884 26.30764 27.26818 28.40236 28.10224 28.53129 28.21817 29.77018 28.04796 29.42917 29.79208 33.51196 33.94765 36.08996 35.98272 36.42363 35.92740 32.33148 36.32101 41.26347 49.37505 57.47820 61.27116 67.32599 69.97998 64.46563 61.94491 57.30936 57.19484 63.47183 73.93309 81.64753 87.35094 83.96732 83.45062 80.87991 83.80102 85.37918 94.89864 99.75287 100.11414 99.64855 103.66381 104.99523 106.24513 105.56075 108.27387 109.18892 108.20101 107.21704 105.98673 107.48002 106.39060 105.38925 102.23036 100.02488 99.49783 97.10735 94.70031 88.47262 89.75224 87.45172 79.46006 67.72812 66.61704 63.18894 55.44728 45.88827 46.87415 56.71093 65.00610 64.50905 66.09264 61.64976 57.37783 53.02725 52.20802 52.50515 48.92979 44.75327 42.81311 41.12386 36.15062 30.98788 31.40173 29.09118 29.41821 27.84224 27.55827 25.94497 24.17837 24.06215 24.66285 24.97364 25.59306 25.09574 27.19628 25.35123 25.52591 26.08638 24.40387 24.43415 24.99100 25.32438 25.31024 24.34853 25.69043
24.96206 26.46763 26.09368 24.86282 24.85220 26.31973 25.39046 25.48335 26.89738 23.65113 26.21643 26.79540 25.49238 25.96203 26.32148 26.14204 28.84817 25.65376 25.44831 29.09032 29.57355 28.32098 30.07462 29.49376 28.47873 27.89424 29.44313 32.84952 37.39689 37.20471 39.91453 40.36732 39.14135 36.11983 35.63745 37.74374 45.07118 51.88921 59.91050 67.33197 71.98755 74.36946 71.34319 65.84596 63.30178 64.40048 74.86613 82.40751 88.30581 91.41879 86.75974 88.83275 91.63882 95.48583 98.65406 104.33230 106.92519 105.26822 105.13908 108.91479 109.05108 109.89416 108.60480 109.09932 108.41513 109.73288 109.09808 110.41586 108.31127 110.07907 106.54910 105.26856 106.05639 102.52836 104.22317 101.72639 93.68405 86.73074 82.16972 77.99317 73.65956 63.51430 54.79936 51.27767 55.10798 65.97887 69.66797 71.71459 69.31348 64.90343 61.05974 58.94207 55.91677 53.11407 49.50764 45.71340 41.89041 37.47578 34.13376 31.69692 29.85099 29.75690 26.22606 25.84621 27.85479 23.99314 25.68563 23.84058 25.56275 27.37294 27.48506 24.56580 24.73950 25.61942 25.59415 25.61505 26.10582 26.57345 22.41764 25.46200 24.62175 25.67404 27.48448
26.02383 25.75894 25.83595 23.25543 25.04249 24.95166 26.19724 25.12901 25.83488 22.20345 24.46530 21.78614 26.75863 24.74154 25.41213 25.14891 26.22581 26.17405 28.16329 28.43580 28.83000 32.24615 32.90554 35.19995 32.54773 34.85422 31.81160 34.11543 36.64379 39.83277 41.26135 44.72614 45.34473 43.76776 38.79919 38.03821 43.04355 51.79509 60.12795 68.73928 75.22754 75.89094 77.77137 72.60054 73.95851 74.26268 75.26993 82.68097 89.94915 91.67964 92.40659 97.14618 99.35027 103.55714 105.71009 106.06178 107.67390 108.64729 106.80541 108.24910 107.00748 109.12393 109.96311 106.72737 108.31668 109.56330 108.78007 108.28437 108.82100 107.29220 108.00755 109.28186 107.66503 107.94068 106.07959 104.12958 100.42688 90.93175 92.47758 83.10901 76.64269 65.58192 62.93350 63.88626 63.24620 69.97647 75.68287 77.08599 72.50055 64.63994 58.35332 55.82039 54.88010 49.48124 45.69003 43.09426 40.26038 36.17480 34.11098 29.48722 27.79909 29.13151 26.04693 27.36491 27.33861 26.33816 27.29548 27.75905 27.99023 26.74832 26.57339 25.68243 25.09448 25.09728 25.55158 25.14592 24.60757 25.86337 25.86212 25.32638 25.79520 24.98333 28.13210
23.80024 24.92144 25.09519 26.06489 24.53662 27.17937 27.33690 23.82217 24.02767 25.14499 24.60801 26.01934 25.63726 26.92828 26.93898 25.68893 27.31000 26.47074 26.14428 31.61587 29.03143 31.88374 34.90915 32.41954 34.92421 34.53377 32.14219 34.23764 33.79165 36.04783 41.38908 45.53337 46.74014 48.59683 48.93866 47.41495 44.83472 49.04816 58.65138 61.31215 72.22854 82.06326 83.20730 83.76864 80.55916 80.63118 81.39554 85.03286 91.32926 99.24850 102.55193 102.90884 103.61707 107.93714 107.72241 106.33012 109.21463 106.58093 106.75991 105.23724 106.01092 105.56843 105.37616 105.28723 107.81995 106.19594 106.47056 106.68954 105.45142 106.01359 108.79859 109.30568 109.21321 107.78585 107.28625 105.45163 103.83882 100.42344 94.85938 88.15753 75.62344 68.96943 74.21594 74.48943 73.20457 81.05297 79.02586 77.38164 69.32589 63.89635 56.56448 55.19154 48.93528 43.86675 40.20002 37.62308 36.30424 34.28840 30.76412 28.24896 31.13267 28.79581 30.81095 27.27419 27.63832 28.01915 26.97047 28.03539 27.31119 27.94035 27.12893 26.70401 26.37650 26.26767 23.87941 25.75162 26.51065 24.03217 26.75092 25.12715 24.14669 24.59523 25.56505
25.24158 25.78508 21.61159 25.96325 25.92009 27.06651 24.54873 25.27866 23.33620 28.66404 26.29390 23.59023 26.23487 26.47943 25.43566 26.24232 27.82600 27.92824 29.85536 30.43199 32.27980 31.76002 34.71376 38.31219 40.44955 38.55363 38.60725 37.99618 38.66863 37.60588 40.65109 45.67082 49.04844 52.80510 53.94967 50.37218 49.84310 49.31557 52.42347 60.02747 70.04332 80.22188 86.57370 86.39284 89.70183 88.34760 89.26707 94.04208 99.06418 103.47821 106.16555 106.24788 108.60545 107.57455 107.84579 106.35015 104.76668 106.09198 106.79663 104.45889 104.57878 102.89894 105.77135 105.67379 105.19929 104.11009 103.58731 104.03406 106.46358 106.05368 105.88766 106.33388 108.48842 107.04979 108.58432 108.94608 107.58046 103.20097 99.00062 90.28842 79.54917 78.34025 83.00880 83.59970 83.71948 82.90887 82.70971 76.30891 70.48280 67.16365 57.19552 53.15573 44.30551 42.58015 36.69245 34.06304 34.65091 32.37913 27.71163 28.11978 29.02452 29.72761 31.07057 31.74669 28.63537 29.28242 26.34640 26.57457 26.30170 26.38508 26.33109 26.88020 25.24449 23.98881 25.92029 25.54403 25.87839 24.93452 27.66248 25.00162 27.17639 26.13085 24.92591
23.34574 25.61800 25.28284 25.76611 25.47801 26.57887 25.32533 26.05812 24.86172 25.27224 26.24634 26.37378 26.56261 24.80296 27.15682 27.73751 27.34698 27.95204 28.69483 30.82901 31.98831 33.19017 37.62981 38.61661 44.01624 40.95312 44.13132 47.08976 44.16739 44.34522 45.26686 44.80134 51.10323 59.89059 61.25571 60.66778 57.49273 57.12136 56.59342 56.22375 64.28765 79.68451 84.59271 92.03517 96.44858 98.79586 97.47045 101.08855 103.83743 105.48659 107.49953 107.44757 106.16097 107.78884 106.62685 104.45811 105.92981 103.61387 103.22677 102.89410 103.12912 102.97092 102.32799 102.28924 103.27441 102.05682 102.59662 103.72084 105.25138 105.15801 104.25644 104.30833 106.29694 104.28891 108.25466 107.55300 108.09672 105.28108 100.00765 95.73634 89.72790 89.27348 93.53829 90.29144 91.37298 89.61343 82.99021 73.25985 69.41055 63.04462 54.59647 52.51170 47.66357 41.77546 37.10660 31.33418 30.07169 33.81368 29.31962 30.31232 32.32076 33.42958 34.44663 32.63372 30.93991 28.06660 29.41837 27.22684 30.57324 28.63181 27.33892 25.94893 26.46262 28.02974 24.85509 24.74769 26.59068 24.94845 25.39414 26.01123 25.01928 25.18632 26.74576
25.29069 26.31541 25.64893 25.23781 24.08060 24.84151 27.72529 26.78548 25.84981 26.38126 24.97423 24.77155 27.45705 24.32561 25.34123 27.78199 27.72839 28.80410 29.51341 31.47825 30.46425 34.75786 38.94319 41.75425 42.37721 47.08382 48.33419 50.12602 49.78041 46.55760 50.21166 50.78901 52.38737 59.70648 64.91913 64.57256 65.50131 61.34709 62.98249 62.37502 63.93971 76.23888 84.80450 94.55164 99.45018 103.72196 106.10777 103.73545 108.52346 108.32739 106.12493 106.87204 106.44071 106.69149 105.34758 103.28077 103.84753 101.91635 101.34609 102.24354 100.66920 100.89936 102.77355 103.41127 101.96138 99.07958 98.66227 102.87860 104.07370 102.51783 104.24518 103.94370 105.31929 106.24718 105.47850 105.32206 110.09973 108.40616 105.97232 101.96131 99.51034 97.49352 98.14181 100.35215 97.05530 89.09922 83.39326 73.14240 69.49960 63.95575 53.86865 53.97927 47.44483 41.18450 35.53830 34.89997 32.15496 32.96728 34.87894 32.25573 35.78341 35.87751 33.64545 35.06268 31.21698 30.05652 28.93204 29.91684 29.32058 28.92361 27.64020 27.82820 25.47228 27.49458 25.82110 26.77149 26.85941 26.32813 24.55338 25.09574 24.67080 24.24005 23.95826
26.24781 24.76200 24.29878 23.94638 24.37049 25.73332 26.86170 24.27488 24.37484 25.40836 25.18137 25.42332 25.59159 26.48841 24.76625 26.14888 27.49836 26.95266 28.48388 31.22896 30.71933 33.58421 33.87477 38.99752 38.75025 44.01009 46.87795 50.24725 53.10675 57.10346 56.93506 58.44242 59.13235 63.81093 67.12634 71.55512 74.69262 70.64868 73.23762 72.83450 71.91361 73.08542 82.11472 92.68277 101.13327 105.16702 106.33520 109.59733 108.61393 108.01861 106.62120 106.52053 106.43085 103.77025 103.15791 101.63867 102.41578 102.72090 100.44798 100.98055 100.10266 99.40059 99.78022 99.72323 99.71366 99.29718 98.20996 103.28112 100.29781 99.50863 102.10866 104.07943 101.56454 103.17463 103.84997 104.58145 107.73420 107.99139 105.87705 108.51393 103.76982 102.60894 103.88905 101.92140 96.34515 91.73453 81.47541 77.25665 67.79206 62.13744 51.73885 44.30490 45.21278 39.45898 36.49733 41.93666 40.47898 40.06283 39.01703 39.98655 38.99485 37.26953 36.97352 33.59469 33.87267 34.22898 32.89425 31.58822 31.19582 30.38306 28.56305 27.64824 26.68355 24.79569 24.12000 26.56861 23.97166 25.85092 25.13619 26.56407 26.57749 25.63274 25.77686
25.20887 25.33391 25.23514 23.68616 24.46563 24.22414 24.10001 23.88120 24.67833 23.74561 24.18655 25.35125 24.87587 25.59556 24.86473 24.93149 26.18858 25.97615 27.92367 29.59581 28.40562 29.06317 33.22390 34.19715 35.26761 38.94048 45.47820 49.57101 52.79372 52.74353 58.99895 63.27359 66.31207 69.02760 72.35476 75.54451 81.17875 81.02608 80.58387 76.14074 79.47658 77.26108 82.77175 92.75824 101.51240 107.52365 108.09283 108.65628 107.96927 107.36274 104.42513 104.47583 104.08223 101.51527 102.25242 101.12301 101.29724 99.00238 99.56739 100.46512 98.80792 100.41811 99.88019 100.51267 98.90157 101.23781 97.84770 98.84608 100.07915 99.50214 100.19555 102.58367 100.92156 102.26836 102.08187 103.16534 103.67145 106.77322 105.87416 109.30450 106.86079 106.73071 104.48289 101.96456 95.19140 87.73467 78.40912 70.89164 61.93711 54.44378 52.10332 42.68748 38.04561 41.35555 40.08086 44.09161 42.42135 49.95137 47.57301 42.48404 39.98495 39.42874 39.72572 35.46794 37.01594 37.37107 34.46731 31.67497 29.90374 28.86966 25.97800 25.87669 25.70741 26.55122 25.79221 24.02210 25.17349 25.55736 26.13453 23.88024 24.23390 25.51186 24.87483
23.78657 23.85578 24.79227 25.32575 25.33545 26.26754 25.50684 24.43793 25.63178 24.69050 25.41751 25.14906 24.54184 27.62011 26.28390 25.99620 25.64502 25.42180 25.74068 27.30558 26.96111 28.56363 30.19932 32.22117 32.36629 34.54756 40.72503 44.24573 47.00925 51.21824 54.33559 61.09102 64.96617 70.32739 76.39770 80.45700 85.71837 86.89294 89.63144 87.45840 88.88173 85.79003 94.70542 98.93148 99.86536 107.10268 108.24892 105.77083 106.59808 105.32998 102.93120 103.62243 101.64398 100.22490 101.20071 101.67561 98.06122 99.81035 98.62918 98.69366 97.29315 97.29219 97.34954 98.43971 97.40682 97.41047 98.47624 99.95495 97.23138 97.90889 98.89617 98.59866 101.24210 99.77084 103.02690 102.10930 105.02827 106.34775 106.91012 108.24568 109.16963 111.21842 108.26533 103.14257 90.05304 82.92392 77.64231 66.00265 59.03096 59.09964 51.17068 47.11590 43.89912 46.01211 49.12875 55.25423 55.80480 54.52624 52.76012 49.49578 44.96033 43.31812 41.88768 41.55549 40.66100 37.36844 34.23001 31.24619 30.02011 27.75508 27.59402 26.14095 27.44428 26.32611 25.14429 26.55240 25.87679 25.47852 26.51851 26.17796 26.05908 25.36009 23.86203
26.10780 27.24009 25.77783 23.76862 25.33262 24.10290 26.29676 26.22873 25.91451 26.01093 26.66470 25.04010 26.33082 24.75228 26.50338 26.85330 28.19028 27.02413 30.02986 26.87804 27.57820 25.91133 26.26611 27.13229 30.04857 31.97794 36.32376 40.47915 41.02640 45.60805 50.47803 57.05726 62.97301 63.85818 70.65893 76.67299 83.09218 86.19148 92.97984 94.12953 97.19312 97.35337 99.65317 101.95344 106.35616 106.62519 107.87859 105.82817 104.90301 101.77782 103.45594 100.33942 101.49172 99.75292 99.91779 98.59980 99.11889 98.22558 98.05399 96.57481 99.51584 99.18528 96.82387 99.00908 98.95536 95.82085 98.00854 98.92248 97.75859 98.86289 98.31097 97.60435 98.94714 101.26010 99.28541 99.87106 101.07749 102.66320 105.12660 107.30505 108.83189 110.02571 108.36391 102.94796 95.16424 78.55522 73.42578 64.58048 61.90944 63.19927 62.46887 56.47464 49.58043 53.73021 55.93737 59.35309 60.52000 61.35762 57.12829 51.62433 49.08749 44.41397 48.29546 46.37174 40.87659 38.61938 35.03203 29.84518 28.49857 27.13197 26.58956 26.51418 25.75421 24.01907 25.97176 25.30415 27.15161 26.26926 26.81877 28.84724 23.27999 27.22935 25.50280
24.88449 24.67754 26.29892 26.25986 25.21282 23.78730 26.90287 25.24769 24.78876 25.83397 24.20229 26.96246 25.29939 24.89665 27.17894 26.26532 26.41361 28.30285 27.07641 25.93877 27.41775 28.97732 27.66916 28.80602 27.48965 31.86232 33.20053 36.41577 35.65654 39.47876 42.27516 47.71322 53.31462 58.49521 62.12355 74.34330 73.61176 84.67660 88.14520 96.86274 101.78149 101.92184 106.85424 105.98694 109.49821 108.80739 106.00236 102.29554 103.61028 100.63337 100.12947 99.86961 100.13597 99.83658 100.05246 97.19093 98.05440 97.25335 98.16190 98.29106 98.09215 96.97154 97.91544 98.43375 98.14512 99.61255 98.57334 98.05370 98.17150 95.10328 98.79053 98.05451 98.61587 99.83924 100.30241 102.09571 101.57545 100.68859 102.20455 105.11238 106.63150 107.19239 107.13009 104.10058 96.35793 83.84161 78.65776 74.48207 73.76351 70.16813 65.27589 61.18027 56.62483 59.39882 64.13908 65.10935 66.44773 64.05428 60.64738 56.06519 54.09529 50.90346 46.36144 46.09232 40.90218 36.30504 34.13002 29.88220 27.67607 28.43669 26.93098 24.53058 27.24978 27.05032 25.94490 26.41831 25.87976 25.59780 23.76619 25.64241 24.52530 24.74780 23.93606
25.91129 25.63753 24.59279 24.41047 25.98967 24.45906 24.41476 23.64497 26.15249 25.21709 26.44203 25.38042 24.76620 26.74314 27.05761 26.69129 28.30810 29.84433 29.17374 30.80285 31.28696 33.00729 30.67134 29.59686 30.15113 32.55344 31.07016 31.12701 34.28923 35.98555 39.59600 40.77421 44.82747 49.25012 55.48054 58.40518 68.93681 72.21970 84.91754 94.56697 100.83159 105.97568 107.99694 108.75712 107.37767 107.51475 105.83906 102.49890 102.91473 102.89269 99.80680 98.84027 98.66375 98.44887 96.56505 98.97230 98.65287 95.91690 95.98540 98.36512 96.99679 98.37221 97.12576 97.35691 96.72410 96.80991 97.52327 98.50249 96.72975 95.62724 98.07939 97.77356 97.47269 98.26901 99.23807 99.08962 101.27352 103.04306 102.37366 104.67727 106.26619 106.80437 107.50590 105.01545 97.51202 91.12468 85.95728 87.61227 83.31910 82.07798 73.35973 66.85856 64.11912 70.40239 70.08166 70.25678 69.67038 66.45845 62.83301 56.88964 56.55444 48.70571 46.12432 39.87622 36.68209 33.54746 31.25505 27.95583 27.69927 26.19967 27.21521 26.99457 25.32260 28.34309 26.94389 26.32166 26.40624 26.45702 24.63928 26.32398 25.21273 25.07755 25.50814
25.77898 25.42487 25.09276 24.20258 26.22833 27.16251 24.95396 25.46091 25.58733 24.61556 27.74882 25.50521 26.66515 26.62139 28.96768 28.58928 32.05725 29.97912 32.18571 33.48600 35.23760 35.22529 33.70527 34.36380 32.35979 33.08220 30.19928 29.93494 31.21870 33.26605 36.02570 36.72159 38.80082 42.24747 44.17523 53.52032 60.25753 67.12374 73.90826 90.18773 99.70590 103.96117 106.67611 106.56767 106.70820 103.35488 105.11415 101.60084 102.57684 102.85121 98.76190 98.17086 100.00289 99.24862 96.50628 97.83883 98.03349 97.13480 96.71150 97.71316 97.24276 97.69115 97.15620 96.85107 96.02032 96.52409 98.10038 97.08679 98.21666 96.27615 97.35184 99.35046 96.51679 96.90432 98.81002 98.79276 99.14319 101.37355 102.89275 102.04240 103.74181 103.09558 105.35157 106.26988 102.41188 100.46515 92.08060 91.22728 90.61503 82.76453 79.45264 74.75139 75.18002 74.51700 72.11267 68.14038 65.09618 64.01597 59.13069 56.17400 48.52165 47.93187 39.54527 38.84169 32.14555 31.28370 29.56720 27.81690 26.08673 27.63877 26.93070 29.44100 26.66064 27.96838 29.10933 26.59788 24.65424 24.74141 25.20841 25.03232 26.59665 24.68693 25.25798
25.34966 24.59533 24.05933 24.38856 24.78068 26.66729 24.50795 26.67446 26.24519 24.88989 25.74019 26.39800 27.60810 29.39486 30.72130 29.24888 31.78775 33.32423 35.86257 38.38213 35.65094 36.43074 36.27168 38.36571 38.01945 36.78662 35.94214 37.64772 34.75942 36.30447 41.21906 41.33221 42.89846 44.11835 51.47539 55.00489 56.20623 66.76054 73.37851 88.13466 97.98205 106.22790 108.62594 109.07316 105.37177 102.78377 103.15271 102.35212 100.72362 100.11506 99.78505 99.37038 95.13519 95.92200 97.14779 97.05726 96.46460 97.96707 96.59219 97.43053 96.83969 97.56082 96.72851 94.97191 96.15762 97.29536 96.98363 97.76035 96.25120 98.18232 97.42823 97.39945 98.25296 97.94761 95.31375 99.43115 98.92116 98.54753 102.84652 102.79819 103.57606 104.14299 106.80782 106.27446 106.36934 104.88047 104.09549 99.85334 98.20891 89.81030 82.65089 78.98600 79.69907 75.33098 70.21943 64.65840 60.69763 54.09871 51.16263 49.49486 47.14138 41.20576 38.64205 33.95321 31.72597 29.65033 27.48185 29.45444 28.72673 29.07910 29.67820 27.89780 29.19823 28.59889 27.87119 26.99190 25.77620 26.29476 26.14295 23.93875 25.52135 25.31618 24.68740
23.66070 25.53619 24.56597 24.38628 24.73143 25.91635 26.42645 25.62525 24.38353 26.62189 27.00900 29.79938 27.50325 28.65547 28.04296 30.61314 32.21586 35.28903 34.06217 34.30203 38.69957 39.67265 38.69232 39.70431 39.80648 42.38688 43.53240 38.18978 40.50487 39.89741 40.26085 45.54801 51.26928 54.28778 54.42604 63.23730 65.22501 66.92258 74.72447 85.99812 97.46589 103.46825 108.02996 105.91199 106.23978 105.35478 102.15380 101.33484 98.99922 98.56256 97.98252 98.11166 98.06740 95.65142 96.16903 95.88045 95.16304 98.61971 97.93517 96.89680 97.89741 96.56925 96.74279 96.14705 97.38694 95.03185 97.62241 98.73437 96.13704 96.78687 97.82693 97.08487 96.70540 97.26203 95.62352 97.94653 99.61998 98.96764 102.43847 102.99826 103.10720 105.60395 104.45317 106.63773 106.77866 106.39640 107.22164 102.53128 99.26375 95.19562 88.08184 86.26506 79.92997 72.31498 66.37307 59.97956 54.59286 46.69189 44.09782 44.88871 40.43950 38.66712 33.00797 29.57656 29.59852 26.61648 29.10037 29.75583 28.69313 29.61241 29.99611 31.03122 31.47743 28.78120 27.38115 26.60617 27.22679 25.34507 25.53173 25.58646 26.26870 24.63754 23.16433
25.55506 24.58673 24.91885 25.40385 27.40947 25.09545 25.96446 25.66918 25.54162 26.35473 27.41526 25.92851 28.08779 28.14687 28.70411 33.60670 30.69765 30.90629 31.84763 33.99466 39.06112 41.32871 41.01600 44.58958 42.70008 46.75443 46.48384 48.27670 45.26896 42.14536 44.57502 46.57426 57.60821 60.68797 65.14487 68.03029 70.23371 77.99460 85.78403 89.63522 99.66106 103.36378 105.94686 104.17510 103.16798 101.69634 101.61345 98.22103 99.50458 99.82376 97.30409 98.44076 98.89693 98.12762 97.62846 97.02439 95.23721 96.95953 97.64684 98.91128 96.85961 97.05195 96.46225 97.55462 96.45644 96.10444 97.52213 97.70504 97.14672 96.78755 97.56472 96.73552 96.59554 97.36633 97.91636 98.54951 99.42450 97.03527 99.38471 103.49754 102.27922 104.66364 103.64697 107.00429 108.77591 109.37522 110.50042 104.00992 97.80450 93.90772 85.30048 82.43743 73.69639 63.04947 58.53161 52.33624 47.39922 46.17079 41.47178 38.04347 37.58149 35.61577 32.34274 32.41165 31.97865 30.36209 30.19776 32.96745 31.03425 32.18539 33.91764 31.38269 29.99341 30.21688 28.36571 27.65109 27.40691 25.71447 25.65117 24.31803 25.36160 24.69719 25.86178
24.32140 26.80836 26.98435 26.58147 24.85755 25.39284 25.51480 25.05982 23.79106 25.86914 25.59638 25.95417 26.30903 27.49563 28.12708 28.03487 27.36254 28.98912 31.51863 31.66465 34.89482 35.07064 38.31446 44.76813 46.13055 48.54275 52.76543 53.42954 51.95228 52.02841 51.95323 54.66493 57.39277 66.34631 74.28005 77.30565 82.90627 82.63237 92.12844 99.70493 101.70449 105.28857 104.12096 104.96768 104.30033 102.38395 100.27946 99.20762 97.39132 98.85249 97.59539 97.15060 95.88227 96.90954 96.75342 96.82179 97.69293 97.73824 97.03937 97.87026 94.53445 99.54609 98.43300 96.48762 97.04265 96.73469 98.20850 96.51471 96.28503 96.62445 100.27239 96.11734 97.87186 95.63200 96.45397 97.83848 98.08536 99.94476 100.68588 101.48336 100.33808 100.63969 101.43153 104.10292 105.33167 111.38847 109.60683 104.87451 98.51897 90.56730 84.00838 76.73252 69.08997 61.77254 57.40756 59.08216 54.11598 48.33944 47.99508 42.01752 36.42400 32.93194 33.74450 34.43456 35.39784 34.81156 33.06751 34.06274 34.29349 32.89313 31.05135 29.92754 32.26997 27.14485 25.97338 25.82970 27.49821 25.50255 27.64902 24.37395 24.97067 25.78421 23.86786
26.90031 24.29320 25.46544 23.93352 23.45211 23.48485 26.19611 24.03834 25.44961 25.03231 25.37528 27.50312 27.06688 27.73786 27.35168 27.87628 29.16027 28.07843 27.78072 30.51921 33.15346 34.31662 38.80010 42.47416 47.27826 53.19745 54.85444 58.29725 58.14663 58.35246 60.08787 61.23853 63.17560 69.22220 78.22322 84.63720 89.33627 93.70535 96.82639 103.67266 106.65512 105.20202 104.14261 105.15803 101.24864 100.98795 101.28241 100.05527 99.45176 97.96939 97.87940 97.71574 99.60968 97.04892 97.68540 97.66545 97.33471 95.39601 96.97268 98.79892 97.81056 97.21870 95.81646 95.26099 97.23866 94.68175 97.51772 96.67689 96.83376 96.22971 95.84495 95.77304 98.74955 97.10121 97.13277 98.66825 96.60108 98.11304 98.83002 99.59455 98.86904 99.42280 102.43632 106.63103 105.80680 107.58839 106.73737 107.55882 100.29108 94.02227 88.40453 76.66005 69.92817 69.21176 68.03541 64.75446 57.70525 54.21717 49.37003 44.34559 38.77654 38.23120 38.21111 39.07507 34.76611 36.07128 37.22960 35.34410 31.90191 30.81260 30.22954 29.33647 26.38407 28.62022 27.89164 27.29906 26.73266 25.98601 26.72754 24.33374 25.28025 24.77959 24.31724
25.93206 27.27838 25.79050 27.53234 26.35126 27.53476 26.68423 24.22199 25.24747 27.18743 23.54528 26.88544 25.82912 25.21996 26.73178 25.63258 27.71753 28.39621 29.62736 32.78119 34.58632 34.19551 38.70283 44.84766 48.70060 54.69266 58.54151 62.55923 65.09410 67.22720 66.53416 67.64541 69.64304 71.91954 80.90338 90.27327 92.78524 98.44959 101.50255 105.69820 106.02088 109.95071 105.84413 105.73513 101.26274 100.04985 99.74200 98.22616 97.97283 94.87920 98.77331 98.96197 95.93070 96.18409 96.78282 97.21377 98.74629 96.74888 98.24449 97.96115 96.15765 97.14421 98.03330 99.36442 95.15162 96.38283 95.70178 97.34441 96.73800 98.45353 97.19550 98.25320 95.72764 97.00107 99.60922 96.89674 97.62792 98.03085 97.46670 97.07630 99.81384 101.37168 101.41418 104.93728 106.47536 106.24741 108.21613 105.39501 102.25051 94.68488 88.84208 79.58039 82.21736 80.19644 77.67305 69.72979 62.80205 56.80246 47.76684 43.59900 45.33829 46.35457 42.18744 40.03234 40.26103 39.06985 34.70129 33.90228 29.85061 29.29762 26.97250 26.47485 23.98682 27.85555 27.36393 24.32391 26.09723 24.47404 25.20301 26.22739 24.12863 26.23298 25.23966
24.40800 24.35863 26.91892 26.95465 24.33307 25.52986 25.35107 25.37693 24.02174 26.76912 28.16040 24.87577 26.17789 27.78335 27.85043 28.21979 25.91993 31.17559 32.06837 35.39185 35.61212 37.60759 43.38119 46.47808 50.90327 55.87809 58.15580 60.76988 65.53021 66.27034 67.58050 72.37111 75.09439 78.67914 83.70304 87.32462 98.74311 103.46262 104.91586 105.07712 108.30143 108.16780 104.63118 103.06756 100.82573 101.60993 97.88551 99.43622 97.70799 97.57567 97.29470 98.62005 97.36884 96.30364 97.24472 98.48426 96.81819 95.68391 97.26006 97.12765 97.79363 98.51001 96.78353 96.10332 97.60655 95.98842 95.24816 96.57329 97.40760 96.05180 94.80365 95.83703 95.00996 97.37577 95.73636 97.27596 97.44994 96.85969 96.88487 97.27246 98.89717 100.07760 101.35739 104.52505 106.77310 108.11023 107.02313 107.64838 103.05528 96.86387 94.62316 86.67706 88.39651 83.27453 77.34349 70.56919 62.00506 56.83306 53.92882 51.69550 50.93384 48.61439 45.28601 43.76829 40.42035 37.24126 34.39339 33.49490 31.04782 30.43718 28.13722 27.35950 25.28543 27.06259 24.29042 26.47531 27.20367 27.55076 24.58935 26.49659 27.43948 24.33060 26.25714
24.92182 26.00749 26.39679 24.50880 23.76176 25.86724 26.51743 24.24168 24.87086 24.95262 27.32690 26.89492 27.28405 26.64692 30.06934 27.64355 31.63668 30.88545 34.57426 36.14258 38.13432 42.60446 45.53571 46.34895 52.46474 54.16508 55.05413 58.30703 57.50121 60.10590 63.23593 67.79270 71.47820 72.12714 78.48367 86.69133 94.05260 101.16574 107.52661 107.33472 108.28884 106.81263 104.08454 101.75276 100.56845 97.60679 100.49515 99.28045 96.58995 97.53194 97.49876 96.82404 97.29333 95.47141 96.01363 96.07299 95.42277 97.42768 97.35989 96.04130 96.68073 95.04276 98.23700 97.92297 96.21755 97.87040 96.84050 95.64087 98.01877 94.48094 96.69878 96.36551 97.15753 94.55144 96.45040 96.44471 96.82864 98.38097 95.50350 99.17173 99.20148 100.98998 101.56688 103.03422 104.83410 106.95557 110.42522 107.17136 103.96894 103.37415 95.25581 93.32163 86.78221 81.82811 76.15348 68.51862 64.94141 61.70693 59.23220 56.17823 52.55321 47.45114 45.62704 42.42931 38.11089 34.91069 32.99879 33.69637 32.16827 31.77636 28.46925 28.10446 28.35213 26.00767 26.38843 27.23306 26.17911 23.37665 24.21201 26.92274 25.18705 25.68064 27.86950
26.31587 26.99789 24.19968 24.87405 25.83509 25.11802 24.33565 24.31462 25.95587 25.25529 25.19926 23.50660 27.10396 28.18512 28.94127 29.81773 33.35043 33.05128 37.33899 39.37783 42.83213 44.64278 46.26534 47.80308 48.91053 48.69097 48.31055 47.98016 48.49776 52.11374 54.46028 58.34370 59.16369 65.54047 75.71394 84.03010 91.79086 96.75687 106.29682 108.63859 109.94626 105.78144 104.95150 100.12999 99.90520 98.93000 100.47652 95.95634 97.63524 97.29803 97.82715 97.16557 97.91998 96.55353 98.75764 96.92016 98.06174 96.32633 95.64353 95.63280 96.34347 97.62744 94.80587 97.11665 97.17910 97.97418 94.44349 96.10883 95.25448 94.53621 94.26839 95.32142 95.04908 94.86916 96.45559 96.58029 98.14912 98.46491 96.78697 98.42506 98.72123 100.59632 102.35966 101.11390 104.55890 106.61884 108.54548 111.39233 108.07668 103.79011 96.07489 93.60325 86.65178 79.50108 74.36107 66.28790 60.89344 58.32879 52.43781 50.41954 47.36251 43.46991 38.46651 39.42530 34.26641 35.37602 33.38757 33.08957 30.51346 29.44424 29.06360 27.90590 25.66946 27.57380 27.04564 25.82358 24.70012 25.21719 26.05549 25.21825 25.11351 25.77706 25.31413
26.58454 26.31294 26.40870 26.70067 26.14393 24.42555 25.16910 25.03978 25.37328 25.47284 25.31216 26.07135 27.65305 28.25675 30.72575 32.72890 33.85222 36.07848 36.90714 39.32681 40.42278 41.88989 43.00383 42.24958 41.74960 41.73629 41.66635 39.25729 42.49420 43.81665 46.87179 51.06594 57.23722 63.52291 74.10722 82.54598 92.58545 99.45227 105.29561 108.32992 107.67080 107.13176 103.29120 104.49459 102.06353 99.73888 100.55891 96.81280 98.36714 98.50778 97.35174 96.86740 98.97072 97.44888 98.93390 97.35658 98.84070 96.08098 97.03336 98.63040 96.60963 97.22542 97.59796 95.61411 96.91745 96.95676 95.51822 94.73232 92.07532 94.24905 91.34353 92.88019 89.43218 95.42551 94.73685 96.23158 96.45703 99.12905 97.21690 97.89136 98.60544 100.37748 99.85829 102.05968 103.48967 106.31980 107.88369 108.28272 107.19037 104.60520 99.57767 95.81918 85.88080 78.11978 72.23989 64.13525 59.13709 57.37742 51.03276 48.55333 43.82381 38.39005 36.82396 36.26498 33.89224 32.72571 30.01405 32.66049 30.70471 29.01613 27.59663 29.04030 26.94409 25.79317 26.72130 24.28714 27.80782 24.79261 26.58477 26.90761 27.32656 26.98662 26.57845
26.38503 25.14224 26.61372 26.14096 26.38623 25.44047 25.28444 26.71212 25.40309 26.80378 27.27492 28.16207 27.61722 28.62746 30.28268 30.54103 32.26354 35.99130 36.15702 36.14188 36.45984 37.58398 38.52610 37.59138 37.52003 35.68238 37.30633 38.05109 40.06077 45.52789 52.43026 53.73491 61.08893 65.82328 74.17689 83.52923 93.87354 101.57505 105.64011 107.96868 107.97106 108.79093 105.38759 101.62299 100.67559 98.04011 100.15775 99.14320 98.40408 97.64316 95.20913 96.56506 96.36850 97.18726 95.63783 98.81595 95.94621 95.97756 96.71870 99.55389 98.21148 97.66301 97.15995 95.38534 96.42721 95.08533 95.86916 95.86726 92.40808 92.70520 85.62036 84.95911 85.89436 92.48268 94.20005 95.91829 97.46772 98.69800 97.12427 98.14073 100.24766 99.27124 102.13227 101.72687 103.33906 105.98732 108.13961 108.24406 107.19999 103.54080 99.03668 93.64247 84.24234 77.17133 70.54074 66.37207 58.21702 49.88468 45.75032 44.86985 40.91299 37.59769 33.96339 31.54464 30.25594 31.95503 27.98420 29.16581 30.85981 28.59288 27.85442 26.43845 25.22193 26.44716 25.75354 25.85648 25.70010 25.32465 27.27634 27.23841 24.86418 25.55689 26.13499
26.58070 26.95106 24.78614 25.65511 24.86201 25.37418 25.52867 25.18788 24.55071 26.66699 26.05174 28.24552 27.43041 29.58066 29.02218 30.33750 29.87977 30.48412 32.44493 33.75775 36.29177 33.13700 34.79596 32.93073 34.88548 36.11409 39.15642 41.99722 42.16968 44.49889 53.45506 57.84775 62.96068 74.08820 78.72437 82.64125 93.00384 99.57822 105.81858 108.35234 108.29426 108.17153 105.21396 101.39069 102.36687 100.02184 100.01875 95.60241 97.54009 97.85791 96.96065 96.31964 97.72655 95.37001 98.19639 96.97297 96.59307 99.98372 98.18128 97.95101 95.30814 97.40592 95.85488 95.32943 96.25120 93.17023 93.91990 96.74021 91.94106 91.27273 81.91410 77.80705 83.05665 89.30272 95.33183 94.51727 95.47003 94.55253 97.56594 99.75005 97.79185 99.21589 99.80003 103.44514 104.36498 105.27323 107.73621 107.55608 108.01137 103.30828 97.57467 89.79284 79.22572 69.34257 65.09650 64.75409 57.68879 50.71289 48.46881 44.40633 41.11938 36.58850 35.13939 31.23483 28.96104 26.65668 29.69887 27.04350 27.08095 27.53811 25.63739 26.89794 25.27671 24.99444 24.92205 25.32094 25.38124 24.11300 26.55680 26.52765 26.03411 24.58470 23.80795
25.26851 24.52489 25.22718 23.99395 27.26486 26.45667 23.50258 24.58589 24.88434 26.09465 25.69028 25.73403 27.97211 28.00233 30.68687 30.80988 26.71647 28.04099 30.51944 31.22184 32.18264 30.35084 30.86339 32.12571 37.27692 39.00478 43.23553 44.85889 48.78503 52.28288 56.66273 63.30201 68.40932 78.74734 82.71101 86.75404 92.46377 101.16278 106.48871 108.83441 107.20752 106.34999 104.60922 103.74506 100.54960 98.84709 100.19255 99.13283 98.19187 96.31115 97.70850 96.32254 95.74318 96.52670 96.90901 96.79379 94.41611 97.55142 96.25972 96.47156 97.33079 97.03588 96.51177 95.47217 96.37252 97.64116 92.12579 88.95980 87.04368 81.67122 83.36529 81.07844 80.97468 84.04451 87.50740 90.27102 93.74101 96.22804 95.91462 97.38855 100.99267 100.99984 102.15221 101.95451 101.54437 105.03853 108.24852 111.99248 108.63966 106.13316 97.98293 87.13884 76.52924 70.10567 60.48785 54.65182 52.39408 44.38346 39.64369 40.13992 36.13219 34.14430 30.71279 30.58029 30.42969 28.49117 28.73348 28.31352 28.47183 28.11878 28.03216 25.58077 27.57864 24.66477 25.89679 24.92069 24.75300 25.88079 23.64156 23.43744 25.90282 24.33567 22.99996
24.61497 26.00209 25.50637 23.97888 28.05770 27.52032 25.04536 24.41395 26.42112 25.88276 27.00175 26.44768 26.92652 25.89453 26.83582 26.89421 26.04982 26.23038 24.97018 25.91990 26.67231 27.42176 31.10352 32.64618 37.95385 39.65805 44.69667 51.97040 55.73773 59.46098 61.02185 67.67017 69.91220 77.87338 82.35663 90.93104 91.64000 99.00405 106.20681 107.33971 109.10572 105.36930 102.15952 104.43056 99.24612 100.84778 97.02342 98.61541 97.36955 95.97048 99.86554 96.99996 97.82572 98.32577 96.29787 96.97374 96.64637 98.65698 97.60803 97.82286 98.29959 95.43397 98.48907 97.61171 97.01144 97.02512 94.47777 94.21202 91.23332 83.74764 77.32885 73.95626 71.60004 74.04600 84.78110 91.53201 95.22779 96.68495 98.35940 99.28859 97.94526 101.51071 100.12921 101.85410 103.32360 107.38970 106.84237 109.10826 106.58351 103.51689 97.90890 93.73203 80.51039 74.10849 67.69682 57.63940 49.20112 45.40998 39.16800 41.43653 36.51750 36.07127 34.06487 35.23522 34.70652 34.18693 30.33517 29.41506 29.63380 30.24044 28.41375 30.18760 28.06973 26.98060 26.26102 25.82263 24.56220 24.16711 24.48272 24.29441 25.34313 25.48691 24.43045
24.19108 23.99571 26.76276 25.68367 26.53522 25.11737 24.67930 24.53874 25.37501 24.67210 24.88734 27.12681 26.36763 25.40016 24.74300 27.37929 25.62793 27.31476 29.47884 29.06616 31.64053 30.55788 31.35711 35.77617 38.76212 42.13689 48.94249 52.55529 55.60030 60.25134 64.72762 71.38967 74.98513 76.14357 79.16311 82.40034 87.27047 95.64435 100.74411 106.91679 107.23912 108.59949 105.74192 103.53248 100.98380 99.46630 97.38233 98.51976 98.26595 97.26935 98.93322 97.74340 97.46735 97.30757 99.87883 98.87748 97.58403 97.91892 95.56372 97.32250 97.79687 97.78359 98.50939 95.53462 96.04180 96.64877 97.52898 95.19260 94.23873 88.88785 86.05380 82.40681 74.99064 69.35726 83.73508 87.56592 92.00074 95.10466 96.93940 96.76094 97.12936 100.02370 99.93819 101.54454 104.42680 106.03974 107.05940 109.33468 108.77474 103.97780 99.85936 94.63774 89.17258 78.38202 77.15306 68.09302 62.56848 51.39944 47.40025 45.76696 44.19245 41.05018 39.21890 40.70801 39.89900 35.00716 36.97850 31.74343 31.27254 31.69705 29.68348 30.03459 28.01569 29.79076 28.31514 26.79575 25.57948 26.57125 24.56589 24.97011 24.59676 24.99003 25.70498
25.67135 26.81104 25.57284 25.72890 22.51329 24.76508 23.98205 25.02789 25.90791 24.68057 25.95767 26.10031 26.06891 25.60725 27.91127 26.02117 28.20548 29.04025 31.13847 30.11903 33.97165 32.37077 34.66788 37.10984 40.56439 43.88789 48.67513 51.13779 52.24724 61.84520 63.07537 66.18129 66.37787 70.01169 68.59910 75.44592 80.85101 89.84784 99.28615 102.70881 107.37583 105.46246 105.00911 105.07291 102.32146 102.02030 98.47024 97.98441 97.70372 97.31095 97.09446 97.25961 96.30384 96.44183 98.12571 97.73593 98.12748 98.10226 95.87061 96.15003 97.46742 97.57706 98.58575 97.11054 96.43993 94.92957 94.66096 92.79844 93.73335 92.98088 88.79542 79.89851 77.39756 64.07436 66.68374 81.58612 85.78467 88.52387 91.42082 90.56701 95.14182 96.58454 98.17247 103.76816 103.59684 107.69512 106.97851 110.69584 107.32142 105.20707 99.89229 95.23973 90.85430 82.81226 79.16545 72.26913 64.71994 61.70774 56.04963 54.23827 51.36843 44.15652 45.20635 44.08836 40.30680 39.91375 37.22033 33.69559 32.24826 33.18848 31.34969 30.35364 30.35551 29.21618 28.38898 27.33726 27.93039 26.65388 26.21608 26.86726 25.09442 25.83437 26.10821
23.59900 26.61561 25.54443 26.26945 22.63005 25.04392 26.01917 24.23790 26.32579 26.22781 25.92937 25.55270 26.84327 26.92313 27.28623 27.24015 28.33105 30.44586 32.73082 30.80416 32.22773 36.56802 35.77865 38.46288 37.79790 40.92462 41.74963 46.00201 46.34894 50.85014 56.12548 57.66764 56.12660 58.23741 62.77541 72.96158 78.69701 86.26870 94.90541 101.05575 105.80037 107.72534 106.79139 104.39539 101.49304 101.22285 101.26486 100.27200 98.80496 97.49321 97.80438 98.16805 96.83610 96.10468 97.49790 96.21911 96.46466 98.44542 98.23631 97.11610 99.79614 98.21392 95.77432 98.59459 96.46621 95.62295 96.56048 93.92153 87.18550 84.52332 81.11593 79.81158 71.06477 72.53461 72.44734 61.70889 76.33247 81.24529 80.10372 79.04508 84.93831 94.83871 98.94612 102.15723 103.78322 105.07668 107.02699 104.33287 101.67582 97.25603 95.38513 88.91986 85.79925 81.12538 76.57802 74.38446 68.53214 66.00298 60.94028 58.04692 52.59645 51.89207 47.12491 44.70493 41.95388 37.31268 35.36626 32.27508 31.17178 28.11909 29.96914 29.52004 27.78851 29.41460 26.41832 28.18223 27.07452 25.93877 27.12860 23.30702 23.36850 25.76064 24.77454
26.61182 25.29870 23.78424 25.82067 23.10393 25.40780 26.52110 24.89639 26.10623 26.22839 24.59396 27.74767 26.84225 28.65101 29.21583 28.65746 30.67322 31.06098 31.21543 33.63458 34.52599 36.57056 35.30889 34.94143 35.77081 36.12459 40.00306 42.46613 41.18854 43.42192 48.60682 48.83648 50.09402 54.92876 61.30613 68.99092 76.38182 85.24001 92.19669 100.64501 102.55211 107.27514 105.58120 101.67352 102.88507 98.87461 98.84160 98.95101 97.78512 96.52698 96.75233 97.28213 98.54421 97.38427 97.62159 99.01048 96.43123 95.80493 99.05336 97.70098 97.86707 96.47866 97.45478 98.03262 98.28260 98.42400 96.91395 96.14460 86.58295 82.03780 87.90151 86.81869 82.88741 90.80179 85.77386 66.60079 67.04961 73.75748 63.39799 65.14853 81.81587 90.86155 92.73911 99.12867 103.78736 104.07595 102.57193 99.24616 102.18288 91.18436 87.30957 82.14836 79.10748 74.85159 69.52511 70.61132 63.67337 64.63846 58.93071 57.87540 54.90844 49.79005 45.74091 42.76587 37.74821 37.31586 33.75982 31.37089 30.07543 30.81355 28.65406 29.27769 29.73275 28.32741 28.26214 28.46858 26.88165 26.48975 27.92393 26.62454 25.62808 23.88250 26.96321
24.48789 24.18776 26.84259 24.34504 26.23580 25.74285 26.10040 23.24986 24.10719 25.30056 28.25822 27.15532 29.12166 28.90147 28.78915 29.53795 29.81919 30.20379 31.30116 31.46676 30.62653 33.03710 30.99130 32.91315 31.39346 32.93365 34.95746 35.94119 38.22273 40.98069 45.32548 48.58826 54.36146 54.71402 62.11640 71.36990 80.74016 87.41845 93.98169 103.72494 107.33424 108.15957 107.88411 102.79144 100.43683 99.82664 100.74849 99.37783 99.53062 95.81921 96.78213 96.65779 97.36198 98.38121 97.87398 97.06113 97.48103 96.25292 95.11286 94.39751 96.62852 94.72859 96.51140 96.31209 96.26434 98.26113 94.89044 93.25921 87.17983 88.51802 94.58560 92.32658 90.47335 91.00571 79.90855 69.82227 61.11449 61.31384 58.11513 63.21598 77.12436 81.49216 84.60083 90.96100 94.59989 100.63804 93.41723 93.46664 89.03306 89.84776 80.24162 75.29347 67.84351 63.79929 60.93960 62.12933 62.67044 59.50739 54.00252 51.18956 50.60497 50.56483 47.29838 45.07191 41.15602 35.87000 34.78301 32.51343 30.00400 29.10720 28.59906 25.15176 26.37346 28.87793 25.38191 26.77367 24.99946 26.14216 28.52631 26.30922 25.29235 25.80863 25.74799
24.39659 24.24478 25.79005 23.28487 24.82022 25.00917 27.38806 26.04034 24.75301 26.85985 26.87127 26.24581 27.53051 25.12949 26.78965 28.09942 29.11159 26.59692 29.58472 27.91068 30.89756 28.33560 30.29948 30.42799 34.02865 34.48360 38.31795 43.79678 42.21326 48.25840 52.40032 54.71861 62.14187 65.16583 72.52058 78.46218 85.02975 90.97574 97.11570 101.29589 107.05970 107.47118 105.44226 106.37142 103.54155 102.43773 101.05251 98.36046 99.41856 98.51969 98.14600 96.10432 98.43376 97.71117 96.95668 99.71682 95.97127 96.97022 97.17981 96.76116 96.45494 97.34998 96.59421 96.40917 95.76944 96.11558 93.08316 89.20462 90.80771 91.76364 93.48848 95.40241 95.37849 91.33321 84.93945 81.83033 78.12821 75.09000 59.93469 57.29990 61.79485 58.63367 67.19201 69.56575 77.81916 81.10993 75.18630 71.64585 76.77238 77.41588 79.07458 74.11119 63.53790 58.35254 52.23477 53.57924 51.72339 52.43547 50.81713 46.46188 45.80191 48.36448 46.86305 42.27453 44.23309 40.58974 36.18026 34.48247 33.07522 32.08404 28.29833 26.11504 27.36988 26.79586 26.55921 25.39538 27.18353 26.14684 25.87473 26.31789 25.01340 24.65132 25.14670
26.25044 24.30047 26.54255 26.14368 24.73538 24.68007 24.28421 24.68472 24.81595 26.76980 27.54871 26.31977 27.24269 26.69641 26.57596 28.55471 26.87180 27.05698 26.39953 28.62534 27.09799 29.81609 30.51616 31.37968 35.49443 41.34550 43.43621 48.09939 45.43408 49.30066 56.21586 60.09190 68.29289 72.88258 76.52864 81.87562 86.45648 89.32617 93.79751 99.82907 104.39430 106.55888 104.67000 106.52244 103.88426 105.16174 101.83433 98.83090 100.74229 100.75202 96.50705 97.89587 98.55201 96.48619 97.30040 97.61677 97.02555 96.06872 97.28708 95.34258 96.79249 98.32691 97.57449 95.23346 96.85560 93.79763 93.95549 94.44570 96.85387 94.23846 95.77081 96.88115 97.38489 95.55788 94.19037 92.02727 90.20484 78.37985 72.07540 61.86107 51.93927 44.77859 47.51090 55.41927 59.18799 57.87836 61.11191 52.65831 62.16536 59.40434 65.76684 69.79296 65.55993 60.96056 53.64588 47.50610 45.85136 45.18323 43.83491 40.21812 38.31491 39.87236 42.05571 41.14179 41.71262 41.37306 40.51096 37.88428 31.13524 31.64387 28.75354 27.89618 26.09166 28.14154 25.97132 25.14347 26.37905 26.58340 25.61991 25.82315 24.58900 26.51058 25.23264
26.18222 24.02689 24.21760 26.02210 24.36539 24.28120 26.37070 26.27034 26.28513 26.94749 25.13639 25.82899 25.79698 25.20540 23.65017 24.64499 25.82531 27.58766 26.36630 28.39895 28.16083 29.73941 35.98072 39.75033 41.88342 47.09563 49.33249 54.73578 56.32658 55.94175 61.60256 68.61464 70.70016 74.24150 75.10548 75.53841 80.40783 80.59298 90.41043 94.82635 99.87992 105.86604 108.71262 104.99466 106.80143 106.25536 104.11558 102.14286 100.78268 98.19269 99.18176 95.67314 96.36071 96.70067 96.68967 99.37349 99.75450 96.03430 97.27696 97.10278 94.42325 96.82537 95.95776 96.16502 96.77695 97.48558 95.29154 95.71721 96.67809 97.50599 95.98552 98.13783 97.71800 98.31760 96.70953 96.74964 96.88890 89.73719 87.83105 75.56090 60.22368 59.40812 56.28190 52.36882 45.85478 41.80478 43.55975 37.35736 32.27637 38.30954 53.14402 60.46824 57.99595 57.53744 53.12862 48.07380 41.45125 35.49819 34.52342 35.31166 35.03084 35.35513 39.63115 37.57955 41.10610 42.47215 42.32332 37.63751 34.87853 31.40679 29.38017 28.43357 29.08507 28.02339 24.73521 27.90100 26.46960 24.32916 24.21330 25.53970 24.21687 25.86056 24.49834
24.82960 24.01505 23.71744 25.72068 26.26075 26.08714 25.77183 26.26906 24.32515 25.39175 24.02604 26.53905 26.76351 25.38068 25.70242 24.21471 27.50730 28.68986 29.58773 27.77868 30.69319 32.71577 36.70352 39.07864 46.18844 48.49425 52.59854 58.02504 61.20240 60.46827 65.25333 69.27836 70.84882 70.88498 66.29872 67.43603 71.63279 75.59637 85.62688 93.68728 98.91306 105.28012 105.59319 107.52370 106.18533 103.53842 104.38658 102.54089 100.35737 99.79536 99.15982 98.71746 97.20694 98.05474 96.69738 96.77678 96.69727 96.18317 98.24206 96.30723 96.61837 96.77950 98.06294 97.35885 97.56012 95.13151 95.84001 96.76602 97.07527 98.02973 95.47994 95.94992 97.96610 97.17575 97.03373 99.00202 97.36619 96.46138 92.28152 83.26487 80.83632 82.17669 77.64624 74.23289 71.26950 68.52345 61.10062 50.76114 47.36661 35.47443 34.89536 46.28775 51.28168 47.48004 47.09638 48.91621 42.40593 40.62200 35.76480 32.86438 32.34053 34.35753 31.23517 33.92617 36.10917 38.68274 38.76965 37.07388 36.76147 32.96093 30.89205 25.83895 28.88868 27.32578 25.85235 25.25226 24.17904 24.71235 25.20390 24.84810 25.73565 26.82801 24.21012
24.57217 25.12146 26.06949 24.86165 25.62528 25.73821 25.81730 25.63136 25.26652 27.55141 27.11116 24.84216 26.79897 26.66696 27.86890 27.47619 28.53740 28.46581 30.02812 29.67898 33.27505 34.54932 36.35130 38.91037 42.36186 47.70798 52.91653 57.33260 58.39034 60.51665 64.09285 63.10669 61.40440 61.14396 59.33196 59.80708 65.70010 71.36517 77.13901 89.68882 97.25648 104.30037 105.58567 109.17163 108.61465 105.98226 103.63668 102.54738 101.89155 102.06031 97.84434 99.89065 99.21839 96.42079 95.68219 97.62389 97.75241 96.56548 96.37405 95.93565 96.57396 96.86258 96.61620 97.04477 96.64559 98.16353 97.13162 97.49684 98.48931 97.62567 95.60436 98.10186 98.99309 97.84103 97.60003 97.95532 100.12409 99.77195 97.87001 95.68557 93.10977 95.39788 93.15404 89.55311 90.91054 82.16229 80.68192 65.62200 61.22842 45.21584 32.38609 32.45341 33.92802 37.82115 40.80001 42.22259 42.25336 38.79729 35.57267 30.71040 28.95851 29.21183 26.40973 31.23667 30.98606 32.63852 33.20423 37.56051 34.01968 33.77264 31.11913 29.77667 26.61948 27.08104 26.03503 25.16400 25.67082 24.35915 26.58427 23.99315 24.09421 24.04590 24.75696
24.76713 25.71187 25.19966 25.74878 25.30971 25.37606 25.62277 25.90839 26.94525 25.66031 26.38884 25.92045 25.69511 26.26472 28.31276 29.31429 26.43388 32.15512 30.18463 30.48018 33.19278 32.64145 36.63581 39.04152 40.89757 46.33613 53.57709 56.49037 54.95485 55.66345 55.47334 54.61641 54.77849 53.17542 55.47770 53.16731 61.29701 69.92499 76.55967 85.25332 94.68811 102.11748 105.79422 106.30056 106.56869 104.68619 105.90639 102.54046 100.97201 100.83379 100.20680 99.56705 99.24389 99.59579 100.20361 98.62436 96.60714 98.19092 96.80580 98.15401 96.96212 97.95502 98.01406 97.10511 96.63024 97.16427 97.64666 96.01864 97.55954 95.70974 97.23964 97.57885 98.73125 97.95367 98.95259 99.25682 100.69533 99.83251 99.71124 97.58447 100.76887 101.38885 103.46356 103.05667 100.43459 96.03456 89.00176 77.53864 71.10588 51.86830 42.91404 36.30140 30.82232 31.96876 30.43982 32.76523 34.76092 33.42552 34.57370 31.61590 28.55304 26.16297 26.88765 27.80549 27.44397 30.03542 33.26638 33.89532 34.83003 32.08810 29.52855 29.17887 27.26896 27.43305 26.45000 25.35536 25.21490 25.72811 24.86775 23.08153 25.87180 24.70123 25.11451
26.26157 24.09527 24.91756 25.36013 25.49191 25.85557 25.56931 24.50796 26.15187 26.10063 25.19943 27.18018 28.35174 26.91808 29.11110 29.45910 30.92276 29.97910 29.05537 33.30532 32.04730 33.08235 35.86642 37.55134 42.57887 45.86230 49.79152 50.03912 49.69391 47.26304 47.01578 51.01907 45.70193 46.75115 50.22925 58.61718 66.87604 73.10207 79.55637 88.99038 95.63554 98.72570 104.48323 107.37220 108.31208 109.20217 105.55501 105.63731 104.51103 103.56238 101.17106 101.05541 96.88970 99.17696 98.32102 100.77139 98.19867 98.12805 97.30431 99.41796 97.30886 96.74252 97.87290 97.63898 97.10995 96.88888 96.87401 96.85364 96.79120 96.40408 98.01980 97.58257 98.02794 97.64016 97.78434 99.62767 99.23462 101.14013 103.12345 101.20570 104.19559 104.48678 107.17705 106.84189 104.60279 100.84515 93.14112 83.90606 75.71913 71.15363 57.06448 50.92043 46.66120 41.87945 36.74559 32.80300 29.43168 28.90398 29.80137 27.35690 26.97416 25.35862 27.99221 27.73727 27.28036 27.63834 28.46389 30.08298 32.01382 27.72099 29.40514 28.60111 26.60746 28.76099 24.80091 25.93800 24.43531 24.32843 22.96294 26.66572 26.77333 24.66140 25.19547
25.37645 24.44945 26.18610 26.42481 22.43509 26.42065 26.14362 24.34097 25.30430 24.65684 26.52159 26.20616 27.86603 26.01973 27.29313 28.35152 27.95424 28.23275 29.27095 30.96417 29.59564 33.37168 35.54606 39.26580 40.55666 48.27612 46.19771 43.62109 41.11721 42.80106 44.27790 41.36763 44.34165 52.31883 57.90041 63.40876 66.90585 78.10703 83.91122 85.55381 90.58311 95.47548 102.97981 106.01878 109.23604 108.22827 106.63504 106.62259 103.06600 104.18678 103.89707 101.51712 99.05940 99.05391 99.18518 96.60554 98.46782 98.33442 98.74289 96.09048 98.67088 99.59195 98.03502 98.52460 97.17450 97.89367 98.70161 97.24831 99.02027 97.01749 99.04320 97.78000 100.26968 100.02184 100.17722 102.23226 101.74305 102.07685 104.65392 108.28778 105.95618 109.69534 108.50080 107.21268 101.65072 96.93579 93.35393 85.96898 81.27765 72.65561 71.36601 60.72019 58.55463 51.15051 45.15603 38.87595 34.35552 28.67608 28.85965 29.42409 29.16645 30.49408 27.92020 26.25690 27.89948 25.98381 28.19221 31.17656 27.44189 27.76438 26.46303 28.25444 27.83642 27.19050 27.44892 26.79764 27.74326 25.48405 25.66277 23.25837 26.07527 24.62860 25.73275
24.30758 24.82117 26.33268 24.13586 26.24728 26.75220 26.40278 24.41387 25.53284 25.93682 24.03697 25.45262 26.30340 25.11574 25.43035 26.23775 26.93288 28.17499 27.28574 29.34542 31.89813 34.79086 35.62984 40.59470 41.12699 43.80776 45.28535 43.09291 38.46213 36.66149 39.53089 43.02644 49.71095 56.10247 63.28384 67.59091 74.67627 76.15123 80.35769 80.17725 86.93632 88.99195 97.70706 103.37988 107.31801 108.83048 108.44728 107.95620 106.93079 105.84410 103.01472 101.94067 101.06203 102.38903 97.67253 100.83822 99.17257 99.65604 98.83280 99.00932 98.61369 96.07055 98.99625 97.07533 99.24262 98.60721 97.66397 97.97364 98.69293 100.35702 98.86164 96.32417 100.00201 100.86146 102.24152 104.14438 102.55630 104.87103 104.85926 104.82242 109.84560 108.70955 106.19294 104.32163 94.77145 89.02216 84.38808 79.97614 79.80621 76.07673 71.21450 67.08634 63.39813 60.19874 52.19507 41.16179 36.72748 34.47680 32.06279 33.43354 32.47285 31.58838 27.72871 29.34250 27.31189 24.04581 26.26336 27.23816 27.14062 27.30645 27.34344 25.66090 26.31439 25.67739 26.66681 25.63019 24.09368 23.81782 25.59085 26.51788 24.68624 24.88125 25.26391
27.73655 24.26487 25.35191 23.68527 23.34053 26.78345 25.98439 26.16830 26.91700 25.84896 25.63061 26.25120 25.97355 24.34831 25.87657 26.64961 26.22294 26.62560 28.08945 30.13953 31.64775 34.27162 38.93306 40.11973 41.29338 40.42957 38.20113 37.25994 34.25024 37.54679 43.10952 46.52409 51.99059 57.10683 64.06736 65.83266 68.17533 71.27284 70.46674 75.41714 80.30391 88.36402 96.80239 102.53949 108.04014 109.64245 107.33305 108.59688 106.67562 107.26820 107.73335 103.39797 103.36513 102.11764 101.07675 101.45961 100.97130 98.41119 100.28288 98.88330 100.08338 98.74854 101.24854 99.61607 99.37466 99.65347 97.15995 101.12945 99.58983 100.33407 97.34397 101.00455 102.30239 102.80084 103.34994 104.76089 104.78291 106.82249 108.11359 108.23219 105.93154 106.36458 104.22893 101.39019 93.17741 83.25248 79.77381 72.45053 70.29703 70.23140 65.94288 65.25015 66.29985 60.33956 52.13876 46.61764 42.59425 40.31538 38.77700 37.75295 37.66817 33.55658 34.31776 30.58510 26.42321 24.33315 27.75105 24.30359 27.64704 25.50178 26.40381 25.26976 26.70116 25.25310 26.12056 27.06990 25.00083 24.48196 25.19683 26.51155 25.20169 25.87766 25.34545
25.25934 23.74028 24.06439 25.45043 26.79212 24.94195 26.42477 26.56081 24.05506 26.15077 24.63040 24.26883 25.08292 25.16133 26.70475 25.10841 25.06781 27.03906 27.90345 28.36401 33.33408 32.45916 34.75910 36.35551 36.20599 36.10202 36.01099 33.28778 35.53203 38.77920 44.88374 49.46092 54.07504 58.87399 61.07580 60.91486 58.34856 63.13950 68.78255 73.39467 80.27082 88.83461 96.13511 101.15646 103.41414 107.75553 107.96489 109.36990 106.91700 106.06606 105.64462 106.89340 105.74449 102.11052 101.46959 101.81622 101.67647 101.27751 100.87750 99.79600 99.05076 100.73190 99.92552 98.80301 98.15487 100.67322 100.21306 100.77997 100.29728 101.04956 100.67098 101.30075 101.72309 101.59819 106.03785 104.77417 104.05937 107.27108 106.05894 105.94357 104.87957 103.10208 100.64447 97.99753 93.86900 87.17420 74.69591 64.64604 62.58763 58.88907 58.11623 58.75165 59.70975 56.37256 57.51545 51.24537 48.04996 46.44702 45.51283 43.12238 41.66733 35.91701 37.53927 35.41423 30.60477 28.68798 27.74587 27.77960 27.47763 25.67017 23.24235 26.05546 26.15390 25.66460 23.24421 22.89769 25.50218 26.56445 25.65597 27.29716 24.53740 24.59469 23.95119
25.54389 25.49958 24.32130 25.32325 26.89063 24.57211 27.14230 26.20272 24.50657 26.08163 25.38391 25.30621 25.38144 27.79514 27.54090 27.87747 25.56893 27.00026 27.41818 30.42129 33.64753 34.36097 33.79129 34.47188 33.49958 32.72722 31.06377 33.47700 36.33704 41.04537 43.91995 49.76889 50.57647 52.16112 52.89603 52.71181 57.18016 63.93027 70.73208 74.08686 83.23017 87.47073 90.31895 96.33994 101.28165 101.74379 103.26076 106.37934 105.80302 106.72591 108.20646 108.33274 104.54258 106.22778 104.13443 103.25172 103.01342 103.21939 101.48722 102.31315 100.28744 102.74013 103.73296 101.23987 100.81554 100.01062 102.47706 102.78572 101.06545 102.89345 102.37116 102.12411 104.51973 104.36679 106.06095 106.35774 108.61684 107.60359 106.12100 104.62305 99.59719 97.58740 92.18056 91.61614 84.09716 79.24191 72.27985 63.45055 58.06213 51.89055 50.13042 50.59622 49.89883 53.18778 55.64130 54.14761 53.85569 52.53451 50.79701 44.31397 42.70505 42.28374 39.66236 36.83700 33.56333 32.01111 29.31092 28.40861 25.80559 27.72594 25.74849 28.06961 25.33377 25.64393 23.15069 25.41640 25.95760 24.74606 23.10564 24.91091 25.18675 25.43581 24.33820
24.90426 25.61931 23.81339 26.70466 26.63795 25.10242 24.99738 24.34903 25.93019 25.61399 25.49030 25.55731 24.46111 27.78399 26.98716 25.69540 25.13090 27.14834 29.59758 29.28043 30.03789 31.31297 30.87731 28.23001 29.40835 29.90266 32.32556 36.19554 37.90070 37.17570 40.09072 44.50810 42.72003 46.01333 46.60196 51.96009 62.60017 68.43855 73.21308 77.10963 78.18329 80.44917 84.19161 90.31303 94.87007 94.60085 97.13747 98.96695 100.17222 106.17161 107.66436 105.61388 107.11562 108.42701 107.40805 106.21444 103.49688 104.04414 103.29750 103.85625 101.96436 101.87971 104.82372 103.81473 100.27678 103.43728 103.60107 103.08065 103.62869 101.66134 105.55840 106.83057 105.95157 105.99357 108.84502 109.81518 106.17506 108.63169 105.00288 100.64867 96.58868 88.08713 85.35349 85.11853 83.45839 76.78132 66.38746 57.19772 50.15974 48.27491 45.68493 42.57253 44.51662 44.26659 48.71058 48.88093 52.56054 53.35245 52.06348 48.01804 44.89234 42.28841 37.50885 34.70660 34.30128 32.76107 30.86919 29.19951 28.90499 24.97187 28.24263 26.61832 26.92632 26.48368 24.36693 23.65386 23.62402 24.04220 25.61130 26.13412 25.58461 24.10674 25.02000
25.41771 22.28270 25.92093 24.00083 27.32664 23.71485 24.98157 26.53857 21.79555 26.14193 24.85615 27.69677 24.60216 26.32904 25.08301 26.42893 27.60223 27.93592 28.24381 27.38586 28.67110 27.82339 25.87188 29.06813 29.44267 32.30659 34.10197 35.44054 34.74053 36.39052 39.05373 38.94488 44.07170 45.00982 50.93913 58.81486 64.22438 67.12667 71.57703 72.36162 70.81539 76.50276 81.61809 86.26012 89.33909 88.05494 86.00093 85.97483 93.92933 98.86879 104.03421 105.85970 109.99730 109.15790 107.92663 106.55033 104.50994 105.26380 105.45768 103.56983 104.72627 105.21216 107.13818 106.78856 104.02946 105.49656 104.03464 104.45704 104.24970 105.72773 105.27062 105.68177 105.43123 108.84441 106.46422 110.49715 109.75195 107.11643 105.11303 99.29925 93.06116 87.59653 78.98914 78.16484 77.48692 74.76855 64.34828 60.96200 53.49589 48.04257 42.91441 39.49446 38.91302 39.99724 40.93629 44.78232 48.97283 50.31892 50.94820 46.38537 44.23828 36.30614 37.13632 35.86813 32.09723 31.10378 29.61558 28.76798 27.83581 28.18028 27.89039 27.33134 27.58032 25.49896 27.02406 25.83994 25.36450 24.98436 24.66002 26.33641 24.78788 24.36012 24.90333
24.70865 26.80643 26.98157 24.84731 25.46429 26.73066 27.32451 25.82596 24.85849 26.63324 26.33549 24.65668 25.05236 25.91047 23.52746 24.01504 26.97980 24.04955 25.80523 25.46787 26.06034 26.95470 29.48549 25.83307 28.94729 32.96183 29.79714 35.95587 32.39181 32.00656 37.33078 40.87880 45.46921 46.99950 54.92475 62.69255 67.99384 67.48620 67.19322 66.99213 66.29044 70.40691 77.70788 83.21242 82.34626 78.98435 75.23549 77.74090 87.13940 90.62671 99.64636 104.93750 107.77198 108.42499 110.31944 108.81733 107.76640 108.40223 106.72723 106.39564 106.10055 105.88090 106.46532 107.03633 106.94677 104.62490 107.64716 107.70449 106.47181 107.13853 106.78422 106.24681 108.30855 109.89008 108.08146 107.93696 104.51678 102.11454 99.31767 95.93132 90.21786 80.28446 73.75410 70.15082 73.42833 71.03131 68.32808 64.14646 56.60388 51.87252 46.98715 41.34325 35.60784 34.96005 37.15897 38.65127 44.03880 46.81699 45.21082 45.22748 40.17961 34.21451 33.56945 31.77219 31.96790 30.89192 28.58884 28.73818 27.77606 28.26652 29.66009 27.27694 27.83083 26.42265 25.26240 26.56421 26.40824 26.44728 27.76923 22.70826 26.26473 26.29475 26.27389
24.97163 27.39137 26.41009 26.15897 25.67441 26.19167 24.99713 25.92153 26.05539 26.03895 25.75950 24.36584 25.73514 26.96804 23.59428 25.73583 26.88116 25.64424 26.62167 25.61529 28.07954 27.66499 29.44170 31.52382 28.88163 30.62504 31.05130 31.65610 29.75829 33.57816 35.46173 40.62471 47.76538 51.42006 58.04251 62.08830 62.12355 61.68760 59.61785 59.77605 61.99066 69.27568 73.38020 74.65060 76.26146 68.11793 68.89357 68.39411 78.62273 83.34589 96.34680 102.84597 105.18698 105.57255 107.76667 107.97651 108.98331 110.13955 110.08110 109.98387 108.88942 108.34013 109.56636 107.43233 107.42337 106.86388 108.72715 105.43591 108.03535 106.44761 105.96371 106.92299 105.03651 105.71299 102.43927 103.41791 103.87779 102.05227 97.61246 87.58098 83.87620 80.77238 64.96759 66.82489 65.85529 68.33572 67.32302 63.98312 60.00716 54.92541 48.61393 42.52867 36.82992 34.83072 33.79245 34.74062 37.92345 39.73832 43.92024 42.46216 39.95342 34.62756 32.73407 31.13967 28.66842 28.53276 29.28232 27.66437 26.44625 28.52498 26.60033 26.36046 25.47110 26.59245 24.32105 25.09699 23.69838 25.33975 25.48091 26.01805 25.62366 25.46265 24.43731
24.90603 25.98458 26.09381 26.07584 24.80026 26.28410 28.42527 25.15939 25.79804 25.87593 25.50069 24.73914 23.39793 25.65734 26.50531 23.58432 25.10989 27.04071 27.04450 26.88480 28.72501 27.47310 29.12015 29.72089 29.56796 29.15379 30.49035 30.33034 31.87529 33.14876 38.87150 40.68526 50.19414 56.46620 57.71681 56.93531 53.63241 55.36651 53.70021 60.32392 64.88863 71.30853 73.64037 70.51204 66.17100 61.58801 58.70829 65.59400 72.63204 86.23136 90.65716 97.99673 102.06262 102.29846 103.56719 106.86667 107.72269 108.96127 108.81751 109.92141 109.11627 108.45464 108.88201 108.06099 106.31437 107.46340 107.53829 106.24081 103.76196 105.31573 100.43050 102.83172 100.96137 103.15083 97.35850 95.31559 96.04393 94.42847 90.83640 84.60767 80.08906 76.31015 63.87732 58.05811 60.79358 62.25018 63.05178 62.94410 60.24968 54.91089 47.91028 43.37930 38.21045 34.83857 31.87909 32.14417 36.62579 36.81717 38.65640 41.10129 40.64239 38.45535 31.35640 30.77212 30.09920 27.12289 26.55346 30.47875 27.27249 25.70232 26.59357 24.61447 26.33905 25.20198 26.56516 25.49721 25.48547 25.37508 25.57255 26.45102 25.77515 27.30245 26.22268
26.80937 26.00737 24.37973 26.34953 24.57856 23.82218 26.35528 23.76157 24.79858 25.40086 25.61160 24.97173 25.53716 27.54116 23.18239 25.17534 26.61953 26.01715 26.71313 27.04446 29.61712 26.94069 27.51153 27.80244 27.25290 27.73351 28.87830 28.95153 33.14449 35.53443 41.93842 43.77309 49.60578 52.08673 53.79241 51.33006 51.11410 50.88457 48.36143 54.80130 63.39554 68.70476 65.37635 59.06578 57.02407 56.71315 55.08360 66.14207 75.66409 81.22799 91.74609 96.11342 97.40222 98.07285 100.66209 104.55063 106.44532 106.05627 107.69828 106.23111 107.20029 105.06062 102.47486 101.21402 103.18881 104.57046 103.74119 101.82725 101.60986 96.78839 97.58240 95.36674 92.23736 92.06782 90.29798 89.82114 92.56506 93.70228 87.68674 79.16770 77.07499 68.77121 66.56916 55.88740 51.63379 52.71936 54.36066 51.18517 52.63679 53.48701 50.67709 46.02598 39.85059 35.20637 31.83450 32.59231 29.36129 32.16663 34.35868 36.32125 37.32987 35.87111 36.93072 32.21554 31.96935 29.41411 28.91426 26.49801 25.87724 24.43733 24.75268 24.67385 26.12151 25.31210 27.27865 25.87275 24.55831 25.85296 25.41537 25.17740 26.12046 26.34797 26.66235
23.92274 27.48587 28.97754 25.90026 25.91469 25.69098 25.36591 25.76699 24.89869 26.11811 25.09174 25.83255 24.76627 24.42143 25.61305 25.07882 27.19941 28.47686 25.97123 27.43836 28.46876 25.95978 27.61924 25.70783 26.91256 30.89239 29.98046 34.72666 34.86463 37.34631 41.00758 45.13589 45.82536 50.17636 47.83075 43.57378 43.15956 42.93344 51.56024 55.98672 59.93185 61.31875 60.26781 57.60981 51.68323 47.04078 52.54395 65.40402 75.14803 78.08704 86.99551 86.77109 91.73110 88.79054 93.99874 98.43511 101.05526 100.88257 101.95246 105.81714 100.60367 98.06429 96.88246 94.68565 96.56088 96.74318 101.18465 95.08076 93.63170 90.23315 88.26113 83.86078 84.46820 82.13251 86.52037 82.03408 80.88346 86.80311 84.75120 79.97046 71.81272 67.66106 62.10180 57.43872 51.28992 50.29581 46.92965 42.49665 42.47050 47.35231 47.41048 46.41344 41.14665 37.81807 34.57019 29.97501 29.19220 30.20513 32.36078 33.09993 34.15442 33.95516 34.64652 32.84153 32.05624 28.99254 26.49286 26.48975 27.92045 23.80774 25.75433 25.16585 27.59486 24.50171 25.40669 26.27986 25.52613 24.80141 26.82311 24.74669 25.17927 25.74930 25.04606
24.34466 23.59661 27.09945 24.23796 25.60164 26.63445 22.44091 25.18589 25.61342 22.91844 25.21009 26.16534 25.95151 23.57549 26.99025 24.50030 25.48452 26.50551 26.08252 26.63171 26.65383 26.89548 24.76932 27.90650 29.11071 31.49271 31.94099 34.98395 36.07568 40.22792 41.36364 41.59798 42.31355 44.61444 41.90011 40.60424 40.84981 42.83311 49.92605 55.00620 55.55549 54.01412 51.14616 50.83968 43.64192 44.93605 53.52043 60.69313 72.98885 77.45600 81.37226 82.68898 80.12860 83.15945 88.40318 92.74801 93.95740 95.36749 95.87030 98.93871 98.35605 91.97395 88.05354 87.33885 96.09294 90.94046 90.05052 88.03307 87.19791 83.14494 76.32705 74.01762 72.71169 71.61321 75.02913 71.30611 74.15781 78.23913 77.43479 77.06765 73.59940 63.07193 57.82736 57.93919 56.66582 49.79859 46.90457 42.99491 39.52579 40.27884 44.16611 42.73145 41.69774 37.91755 35.61592 29.89654 28.55292 28.03011 31.59469 30.18809 31.19312 32.73815 32.14760 31.44197 31.52497 30.77299 26.61451 24.72538 28.29456 28.41301 25.65801 24.53494 25.91302 25.28256 26.71747 27.20773 24.17397 25.10357 25.58121 25.01928 24.29421 26.99845 25.62455
23.88862 23.58395 25.87448 25.53914 27.38369 24.76575 26.07249 25.81480 26.18363 24.99253 26.12278 26.13300 24.61510 24.68154 27.13479 27.07367 27.53167 28.03337 26.96819 26.28994 23.85880 27.32316 26.58480 27.60379 29.42808 31.26535 33.88298 35.09594 34.92599 38.26663 38.43396 36.95624 39.62499 36.03374 36.43758 36.06578 38.55908 46.50841 50.12752 53.13138 48.13217 46.88099 44.73858 47.11791 43.09266 48.95635 52.74942 59.55695 67.58166 76.42205 76.92552 74.28418 74.51704 76.68027 87.12745 89.19883 89.57500 86.47686 86.59892 86.96918 95.04247 87.54728 81.84218 76.09326 78.29203 84.66871 87.38871 78.79514 72.20564 70.57830 66.33221 64.40450 60.74861 63.20358 66.06288 64.04852 65.26385 70.79124 77.84269 75.61295 71.71594 61.41122 55.78745 54.26213 53.09455 51.21721 49.20011 45.39910 39.53117 37.78779 36.08769 36.31531 40.61964 37.77904 34.65728 31.93887 31.85065 28.24042 29.83418 28.93493 30.63139 29.24932 28.77302 30.62542 31.51633 28.15489 29.49543 27.88629 25.63561 26.09400 25.98147 25.54974 26.59326 24.73642 24.64097 26.05391 26.26571 24.36113 26.50121 26.60929 23.90474 24.28792 26.07505
23.95736 24.65496 26.35078 25.45581 25.40173 24.20582 26.54300 24.71845 26.94984 25.39224 26.20321 27.68662 27.22358 24.47496 24.48533 25.94438 25.16463 25.84196 26.36872 24.94296 24.45511 25.93577 27.62124 28.81266 30.56792 31.55088 30.04119 32.65000 33.96114 35.78957 36.79326 35.34171 33.12807 31.81021 33.75899 35.23857 43.53416 48.75319 47.68518 46.75180 43.25089 40.97959 43.09576 39.52458 45.78866 48.90995 56.04970 62.38597 67.30262 68.65055 70.34393 69.51753 65.76140 71.82190 79.42347 81.79609 83.71518 80.44120 78.31172 83.83183 86.74495 83.27142 77.39845 72.02132 69.11151 78.45977 80.98515 77.97065 64.46284 61.92632 56.90953 54.41652 51.34903 51.76693 57.68944 59.25995 59.44169 63.44717 68.75842 74.04237 65.98473 64.25621 55.65395 48.15687 44.26318 50.18977 48.91909 46.80938 41.93315 36.91354 31.51593 33.75428 34.60188 36.00247 35.33332 31.57111 31.04159 29.53865 27.81008 27.77864 28.17468 29.14322 28.14176 29.17422 27.81798 28.85971 29.77672 26.42846 26.61744 26.47571 26.74664 25.93875 25.69474 25.19883 25.63232 26.74847 24.68398 26.33227 26.26331 23.57819 25.22154 24.89415 26.05046
26.59644 26.01367 24.80456 23.89477 24.83444 25.40166 25.75847 25.05207 24.93038 25.70747 26.35778 24.08727 23.39862 24.49786 25.48438 27.09192 25.60975 25.02893 25.83705 24.57424 26.19425 25.78627 26.50085 27.06971 29.93030 30.20225 29.67866 30.94306 34.84986 35.85570 33.94182 34.74143 27.89351 33.01463 33.26439 39.68481 44.90643 46.78784 46.15856 43.01597 38.91603 35.64354 36.35449 37.82664 45.19558 52.26344 60.37458 60.78287 60.80535 63.76511 62.23077 62.21005 62.24468 67.29430 73.97032 74.38284 73.60867 71.44704 74.02996 80.18374 79.97797 77.32290 71.75638 66.91432 62.94560 72.24690 77.34036 73.17058 67.25643 60.40793 45.36317 46.06644 45.94232 48.57334 50.40359 50.06769 51.72574 58.05922 65.32020 71.06455 71.18651 63.07086 56.34950 48.74162 39.84578 40.16082 44.60157 44.99538 42.30372 38.45142 36.27826 31.51540 30.52332 31.86292 31.74400 32.92069 33.03768 28.81586 27.26958 26.77650 25.63684 26.28371 24.95363 28.42936 25.92827 28.12074 27.51181 27.08388 27.32167 25.85814 26.89870 26.11042 25.14999 24.55459 24.73304 25.42447 27.59856 24.63504 25.31939 25.11161 25.94062 24.75633 23.57558
23.52684 24.29058 25.27254 24.46178 24.47480 25.58411 24.45672 26.79254 26.70420 25.04935 26.46466 25.61952 24.81803 25.95970 26.09923 26.42458 24.92475 23.48417 24.24521 23.18427 24.57355 26.13980 27.25216 28.42685 28.25621 28.88807 27.91538 29.07286 33.52392 32.94633 34.01317 31.46305 30.30321 30.92534 35.45327 37.72211 43.75325 42.92364 43.28349 38.43878 34.20572 32.41718 34.96608 42.54384 46.50578 56.55429 57.00048 55.05487 54.80994 55.62748 56.88414 55.83439 56.36040 63.40334 66.15101 72.14880 68.08858 66.04199 63.29428 70.64399 72.13330 71.42889 59.08041 58.55260 56.39966 62.37868 70.76409 73.82627 61.43052 54.56799 44.80090 38.57940 42.75345 43.35215 44.87962 44.50316 48.18747 55.12258 61.82899 66.91002 68.04463 60.44049 54.00681 49.66719 42.93600 39.84714 42.42780 43.44362 43.23867 39.05062 37.86358 33.85001 29.68335 28.93578 29.98068 30.12204 32.11800 30.43055 29.14941 28.25813 27.95929 25.73571 28.43209 24.37337 26.38005 27.78344 24.94812 26.53018 25.82320 27.96899 26.24329 26.28378 25.11840 26.14056 27.31816 25.21020 24.58589 24.91733 23.61295 25.47584 25.01399 25.52876 24.50016
24.64277 24.24703 24.04340 23.39353 26.37397 25.04292 25.17080 26.49189 22.19556 24.94190 27.45102 26.22074 25.55950 24.21920 24.39350 26.53975 25.17724 24.32287 26.46259 25.16232 23.81924 24.08317 26.81179 26.99085 26.84339 27.28561 27.95965 28.19419 29.94525 30.26592 30.47938 28.23850 28.19493 29.05745 34.06602 38.04468 40.13727 38.59021 37.62822 33.53869 35.45806 32.06373 35.68835 44.85217 49.27342 52.40214 52.25733 49.19585 48.20101 45.98190 47.83716 52.44852 53.11039 61.11803 66.24398 66.30415 61.32390 58.81918 62.45126 67.32044 69.55696 65.56867 61.51018 52.23200 50.23351 56.39061 65.94033 67.62841 65.15249 55.58372 46.87203 44.54863 37.50313 37.84242 39.25891 41.30653 43.08449 51.73219 59.52186 64.99251 64.42353 64.65133 54.28525 49.84899 42.20314 37.38029 39.66704 39.21215 41.74362 41.87834 38.62925 37.61728 31.38639 30.48945 27.94563 30.48121 29.17399 30.27116 30.36996 27.80331 28.05039 28.16505 27.10712 25.68447 25.86786 27.11311 27.60866 25.15437 23.72405 26.85280 26.96595 25.52191 27.48358 24.80965 24.93510 25.15094 25.21460 25.66018 24.68435 26.06957 24.34944 25.17104 24.32422
26.21870 23.88563 26.62665 24.98296 22.81061 25.08922 25.43353 23.13713 26.80854 25.82330 24.92484 27.01240 25.24019 25.28331 24.00799 27.12644 27.48639 25.81154 25.90507 24.74729 25.47977 25.27441 27.02206 26.14984 26.72226 27.51233 29.91711 29.52049 30.34899 28.53970 28.33099 28.89235 29.61824 30.29634 33.18402 36.73698 37.70024 37.33744 35.89557 29.89821 31.36997 34.11141 38.11490 45.32379 47.99480 51.32057 48.71188 42.14470 40.11082 43.33332 42.17799 45.01802 51.60646 57.39969 62.09632 59.50617 57.61750 55.84611 59.30159 65.69567 63.00445 60.15559 54.90384 49.82611 47.73425 52.99444 62.86746 66.55416 63.90145 55.50164 47.55802 39.87893 35.86127 33.66599 35.44108 39.00424 40.72216 49.43831 57.13556 61.48317 60.95609 61.33859 55.97039 46.38325 41.81487 33.88625 34.77001 36.56507 39.68968 37.97200 40.87881 36.68392 32.93380 29.91488 28.20698 26.40398 27.46041 26.91136 29.12801 30.14436 27.67624 27.23860 26.16671 24.47085 25.56669 25.98155 26.10146 25.28011 24.61515 25.82827 25.91794 26.36774 24.24583 25.33597 25.22061 26.39421 27.38969 26.06739 25.71140 24.17132 25.86064 25.70643 26.76628
24.80347 25.27692 25.03589 24.79155 27.09395 25.14596 26.10493 25.69497 24.55616 26.39112 25.53906 26.15110 25.14358 24.65326 26.24545 26.13201 26.90823 25.05898 25.85644 25.46674 24.94534 27.14368 25.18270 25.05283 27.81308 25.81354 27.54983 29.25699 28.27628 27.08865 25.79903 28.99878 29.42360 32.94606 35.09652 36.47832 35.58772 33.28244 30.60824 30.68949 31.80645 34.93655 37.46112 42.43624 47.35933 48.80720 42.51498 40.02879 37.08937 35.19047 39.60347 43.03238 49.21167 55.20694 59.92084 56.89408 54.10817 50.03391 56.06220 57.83930 59.68007 54.44850 49.90749 47.44724 41.71793 45.42910 59.42364 64.70993 62.52931 57.75394 47.11270 41.09365 37.92216 36.73527 33.87890 37.89141 41.93573 50.49903 53.96203 58.91319 58.70715 55.88851 53.55068 48.33789 40.28105 35.11933 34.20606 31.10248 33.48715 37.45537 38.98266 36.81166 33.82396 31.83412 29.71138 28.87280 26.17172 28.61506 28.06191 29.39470 28.57657 27.61962 28.51122 26.51476 23.24680 24.81109 25.56152 27.10589 25.99134 27.04212 24.18448 23.40373 25.78283 25.55331 25.00065 23.81975 26.30749 26.43035 24.12400 26.30143 25.62897 24.10393 26.26315
23.71405 25.38239 24.77969 24.61762 24.67294 24.25283 25.02877 26.35817 26.91354 23.58668 26.76932 25.77310 25.69369 22.36247 26.12333 24.26430 26.07040 25.75797 25.28850 25.77166 25.30237 26.53428 25.89077 24.75070 26.78567 26.83617 28.15791 29.06695 26.78710 27.33914 25.60082 27.65327 30.41288 31.35550 32.61014 33.15270 32.71770 29.83489 29.50587 30.00324 32.10777 38.04337 42.35904 45.44146 45.92509 43.03885 40.04542 37.74233 32.20143 32.36290 35.86965 40.96306 44.40563 52.59026 57.38123 56.42324 50.04944 45.76215 50.55179 53.14918 53.82039 47.56971 43.62106 43.45439 38.66770 42.92321 51.22198 62.67783 59.93577 54.52491 49.05943 44.20294 35.39335 34.21728 32.20453 40.69181 40.16405 48.31276 53.63986 51.68188 55.08052 54.47970 51.00433 44.08021 40.08635 36.12315 29.99029 28.70029 29.90797 33.51611 33.55603 36.48384 33.88251 30.15199 30.02604 29.37263 27.16337 26.33843 26.69808 27.35684 28.68315 26.51214 26.17200 25.12892 25.91951 25.84641 24.26854 25.80969 25.18794 25.47774 23.20545 26.01273 24.54216 28.47702 24.98527 25.67629 24.79775 24.95267 24.91702 24.78551 26.51577 27.66003 24.53853
25.97019 25.29700 25.87958 24.18057 24.76320 26.57797 25.02655 25.43515 23.78546 25.13207 25.28494 25.89865 26.80037 24.64944 25.92072 23.86096 24.41757 25.35306 26.00700 26.33486 24.00890 26.02668 25.98587 25.24177 26.73654 26.30061 26.22119 27.39892 26.65707 26.75470 25.58026 26.15679 31.51370 31.17741 32.39819 32.15133 28.96058 28.95159 27.92336 29.13105 34.52528 39.28597 40.86332 43.45465 40.08344 41.12055 33.14792 31.37897 31.24555 32.44147 34.63646 40.13978 44.19230 50.22637 54.23359 53.49819 49.03622 41.98629 45.22264 49.71021 49.07559 44.77117 41.51468 36.65287 35.55029 38.99619 50.31062 54.43269 60.25678 52.67083 49.11615 39.70833 33.73573 30.89621 32.44528 36.34081 41.16984 46.36082 47.45948 46.21197 49.52239 53.44684 49.57906 46.70888 39.90451 34.44801 31.29112 26.79526 27.47158 30.63233 34.90831 35.06288 32.92528 29.18793 31.32107 27.62396 26.60165 27.53220 29.19984 28.25184 27.45719 26.39527 28.18321 27.38420 26.65611 27.18594 26.53975 23.43200 22.45214 26.22276 24.91940 25.01754 26.43150 25.99703 26.14071 24.97330 25.47791 25.10153 25.59293 27.31110 24.24972 24.86506 24.08649
24.05335 26.98224 25.81763 26.14005 24.96997 26.25843 25.41608 26.22519 24.16929 26.61216 26.38052 23.52980 23.55108 24.23040 23.10825 25.09802 24.15300 26.82157 23.95808 27.01505 26.43318 26.49307 26.57998 25.98464 25.40469 27.68559 28.00508 26.00353 26.50384 25.63499 25.20475 28.23817 29.03353 29.82965 30.68628 27.78990 27.20458 27.53790 28.91138 31.71050 34.55861 38.06061 41.16842 42.43339 40.96522 37.50138 34.09356 30.89097 31.39882 30.87618 34.12027 40.89144 46.09480 48.29036 50.91230 50.44405 42.12940 40.87215 44.46176 48.10540 48.70045 42.04957 38.71431 35.67258 33.07625 40.13604 47.62845 56.30770 55.07942 54.55931 44.09936 41.87866 34.31232 30.77363 29.69734 34.27993 37.66869 41.63427 43.60636 43.38316 46.75701 45.61622 46.37957 41.05467 38.08462 34.98393 31.89218 28.67357 28.27911 27.81678 32.01182 34.52231 33.26202 30.96748 29.09032 28.24736 27.65851 25.07889 24.52751 27.42326 24.95903 25.78108 26.48551 25.57788 24.22434 25.30695 24.88054 27.13078 24.07013 24.31496 25.70447 26.12718 25.34081 26.15577 25.38969 25.34900 26.13557 25.18976 24.33484 25.35644 25.46773 25.03012 23.53193
24.53082 26.61181 26.48964 25.86501 26.20538 26.72225 23.12871 25.28609 24.66577 24.86216 24.36548 25.06773 26.70236 25.26242 27.13297 24.61692 24.41223 23.54236 25.76056 25.82970 27.68505 25.40052 24.65423 25.61419 25.07322 25.80051 25.52701 26.33931 24.62252 27.67647 29.78762 28.69049 28.50919 29.46701 28.92669 28.63803 27.87869 28.82998 30.14670 32.80151 33.00036 38.81938 41.38993 37.35576 34.67648 35.11463 33.91127 29.26401 29.69490 29.06178 36.61435 40.04092 42.71975 46.30506 48.03735 44.04943 38.35653 38.23249 39.53466 45.95208 46.18265 42.00295 37.60947 32.74520 33.41809 40.46146 47.60910 50.57320 52.17379 51.96742 45.15266 35.75899 35.60868 30.61230 29.24496 32.08647 34.86986 40.12049 41.26194 38.44797 41.36277 43.21356 44.35589 39.67032 36.26780 32.11649 30.77620 28.48608 26.53505 28.07912 28.43774 29.81366 30.62312 31.32191 29.25117 27.61859 25.64049 25.96770 26.87099 24.76618 25.59822 24.92500 26.59051 25.90468 25.68163 27.24724 25.83459 24.44360 25.97177 28.56894 25.06780 26.18556 26.24824 25.60863 25.22513 26.04616 26.63526 26.20684 23.78860 24.10957 24.93116 23.69710 26.30796
26.51205 25.06965 25.63696 27.01188 24.83631 25.81046 25.20654 25.97800 25.52721 26.86833 25.33052 24.52917 24.25621 26.51617 25.71054 25.67068 25.92604 27.01865 26.12307 25.61838 26.68854 24.84958 25.16705 25.12329 25.83863 26.87993 28.37912 27.61122 26.51680 28.08470 26.81726 27.61985 28.21614 26.69348 27.25922 25.99390 27.53547 28.86135 28.42907 33.02156 35.13591 39.77415 36.88499 35.70962 34.50648 32.35302 32.62877 28.61673 26.89130 30.18718 32.39568 37.72167 42.22614 45.45842 42.43193 40.11492 37.11864 35.99865 38.48069 42.29184 43.19065 38.93995 34.06828 31.42226 33.39093 39.66884 45.65877 50.95640 47.83776 46.35089 39.81260 34.58338 32.27266 31.60368 27.68796 31.60509 36.00764 37.88933 37.70956 36.14935 38.63817 39.55042 39.54297 36.01832 34.40610 32.43441 29.03056 26.92943 25.58792 27.36719 28.37400 29.46317 28.85586 29.64325 29.42543 27.32384 25.51235 25.74827 25.31405 24.80845 27.16380 25.02778 26.01099 26.18226 24.31358 26.20179 22.65766 26.16284 25.78141 25.39205 26.01218 25.46186 26.70108 24.15587 24.09471 25.61363 23.97547 24.48370 24.63929 24.71131 27.20567 25.05268 24.97188
24.28193 27.25338 24.05244 27.15873 24.89303 25.22491 26.11433 25.88110 23.81332 27.22037 24.90443 25.69526 24.83120 25.23274 25.81773 25.24524 22.79324 25.65646 24.87097 24.41414 25.76367 25.56563 28.39409 25.02313 24.54614 25.65235 24.39525 25.08112 26.51523 28.49075 27.48710 25.67514 27.35871 26.57275 24.80618 25.03283 26.82307 29.49704 30.87342 31.51167 34.01657 38.24065 36.96464 35.85005 31.97902 29.49445 30.20892 28.60500 25.52859 31.84850 32.67053 36.74506 41.31722 42.32402 41.55674 35.80649 33.65355 34.51968 38.36024 40.35203 40.08270 36.25518 31.39994 30.44088 36.41501 41.06891 46.82324 49.21904 47.16602 40.02747 37.41978 35.40654 31.50418 29.57815 26.25411 32.20725 33.29461 36.39294 35.69698 32.60662 36.30728 36.19870 34.38173 34.72502 33.53197 29.47659 30.93783 26.51287 28.07100 27.21057 25.83166 26.76842 28.97364 29.72883 30.15630 27.79566 27.40740 25.67123 24.83188 26.16721 24.98762 26.53962 25.32971 26.73265 25.85985 26.18187 28.10222 24.49128 26.64272 25.03831 24.04789 25.19001 26.96165 26.76854 27.49139 25.24887 26.44652 24.18697 26.38542 25.32323 25.66534 24.21506 24.35355
24.55272 26.26307 25.14290 25.03339 26.10076 23.35263 25.25231 26.24122 25.06830 24.24740 25.34284 24.16686 25.97786 23.62335 24.96499 25.61410 24.98671 24.65577 23.65330 26.36124 25.95076 26.04451 24.36707 26.04899 27.81960 25.30221 25.62982 26.84003 26.11105 26.36673 26.27815 28.02776 27.09455 25.31419 26.60718 25.89657 26.65458 27.79203 29.96713 32.39615 34.22472 36.31204 35.77620 32.04174 29.56278 27.77693 29.31600 26.81909 28.48375 32.36547 31.87295 38.17831 38.59183 41.28764 39.83948 34.57625 30.91271 32.84174 34.90122 38.94966 36.44824 32.52734 28.38024 30.21915 34.45696 38.32669 41.74885 45.67522 45.75285 40.18313 35.07751 30.52045 26.81394 28.13398 28.42517 31.84253 31.83553 34.64865 32.25223 33.31105 31.20821 32.12158 30.82769 32.35506 31.19018 31.19096 28.92357 28.05247 27.07882 24.64639 24.46511 25.96677 27.82813 26.24800 29.38775 26.20127 28.21377 26.39560 26.92094 27.13718 28.41507 25.94371 25.03247 25.37500 24.97677 25.85171 25.97087 26.82301 24.47529 24.25133 27.01304 24.97385 24.97148 23.33511 24.50858 26.81418 25.93063 26.96133 25.79466 25.77380 25.03591 25.79176 26.82330
26.47664 24.14139 24.96463 26.16509 25.71725 25.78228 25.92085 25.17907 26.51202 25.86946 25.38172 25.64103 25.97538 24.89222 24.08241 24.18019 25.68725 24.94336 25.28001 25.81245 26.75418 25.67135 25.46721 24.86348 23.76889 25.90832 25.45549 24.22257 25.00618 27.83284 26.39370 25.34035 24.47598 24.98350 27.39584 25.60685 27.59566 28.06395 32.17782 32.80827 34.59236 32.98457 31.22713 30.05870 27.56974 27.64018 25.70002 27.33730 29.56971 30.27950 34.10053 37.80369 39.25208 37.01318 33.35495 32.28527 30.81106 31.25126 34.65805 36.11102 33.91644 31.83235 31.04697 29.73204 34.05222 35.34725 40.65682 43.90077 43.52781 39.57706 36.31041 33.60682 29.43661 26.46208 29.18287 29.85546 30.81243 33.78076 33.61488 32.05875 30.73725 31.68449 29.71794 29.66793 32.79875 30.08587 27.55479 27.89231 25.61515 24.96797 28.01946 28.05011 24.86155 26.62014 28.92100 27.29138 26.17591 27.37322 24.51541 24.55416 24.59703 24.93578 25.36238 26.51207 26.38484 24.36022 25.11317 25.21180 26.81266 24.55684 25.41599 25.22402 25.86512 24.70710 25.45664 25.84489 24.79481 23.69015 26.29270 24.03798 26.41927 25.00324 25.22597
26.59343 24.57453 24.97774 25.90301 25.58624 24.15363 25.31812 24.26747 25.04005 24.26170 24.63740 25.38776 24.84237 25.93532 23.63571 25.21319 24.29012 23.00962 23.52148 23.70855 24.46163 26.31624 25.95188 25.94625 24.34878 25.65908 26.03072 26.22596 26.09252 25.85680 26.61647 26.05814 26.02983 24.34760 25.76589 25.43536 27.62364 29.44311 30.56900 28.48628 35.65661 32.66928 32.11847 30.91812 27.55545 26.39169 26.37046 29.32630 29.62527 33.69325 35.06073 37.97690 38.19385 36.88825 33.36761 29.84926 29.00983 30.99048 31.65196 33.89501 30.16487 30.60978 29.14870 29.05835 34.22031 36.33828 39.68083 44.33261 42.38817 42.89525 38.01609 32.41960 31.04311 29.38979 26.05104 29.32549 30.86440 32.93499 31.44573 30.36663 32.08406 29.62192 28.41394 27.20467 27.72312 30.92490 29.17186 28.21180 27.18830 27.82037 25.42477 26.24225 25.52435 26.45799 25.58554 26.61872 25.84957 29.53312 25.47585 24.39791 26.00903 26.12228 25.58977 23.92339 25.19053 25.69523 24.76178 25.22049 23.97792 25.72781 25.65886 25.51964 25.99857 25.13240 25.47742 26.11050 27.01279 24.91117 25.03279 25.66740 26.28623 24.73427 24.62820
