-139.77459 -139.73626 -127.98265 -132.66552 -131.79929 -117.60293 -132.10680 -140.19533 -151.73426 -141.51621 -96.20935 -100.18863 -97.43668 -110.17874 -123.97746 -129.57890 -139.24752 -149.24444 -154.13050 -166.57466 -169.64528 -160.08411 -154.35426 -156.94882 -153.60331 -158.64376 -164.37526 -167.02296 -171.43336 -167.64141 -143.73132 -124.74164 -107.45052 -115.04677 -119.87768 -131.66660 -126.34965 -125.38455 -115.32733 -120.58855 -110.35089 -108.06493 -98.93914 -65.15637 -51.69631 -59.57726 -59.92662 -49.19476 -31.23039 3.53532 28.82544 47.90152 32.15422 11.68294 -9.19590 -29.73531 -43.83378 -65.69524 -45.20715 -25.89354 -29.66712 -25.38743 -21.71251 -23.48590 -29.33877 -38.15574 -66.65657 -102.92815 -82.66572 -64.53895 -50.30369 -64.29981 -55.90542 -62.13010 -74.00439 -65.57962 -47.54440 -30.35803 -24.39859 -22.35430 -47.30773 -75.79564 -63.16418 -35.93894 -10.29598 7.80490 42.41616 45.94445 35.36996 29.53375 6.29580 -22.09958 -33.93852 -54.47400 -56.09733 -60.86371 -62.16142 -50.71344 -46.61768 -45.17883 -57.07146 -40.79141 -47.00283 -67.55456 -71.90695 -60.66431 -52.15294 -34.45578 -23.14186 -0.72587 2.62104 28.53825 60.03355 105.16883 104.90856 90.90993 36.37537 14.67647 0.64102 -6.25636 -24.07294 -19.98558 -19.31261 -11.60971 -27.81826 -32.87816 -38.14874 -43.27960 -43.86392 -44.26794 -50.23892 -49.92661 -56.34773 -56.41346 -53.78541 -56.58578 -61.04180 -50.16858 -52.42971 -63.81577 -52.19730 -36.74694 -22.65828 -18.64693 6.13285 15.85853 4.67095 -20.01630 -42.97656 -52.25268 -68.49980 -60.08954 -59.28000 -35.29263 -11.50621 -6.69148 1.69938 -6.69884 -12.90783 -25.53032 -35.53251 -49.90619 -66.77766 -67.70274 -70.35788 -74.27630 -62.53746 -58.00231 -59.30515 -59.83062 -66.67346 -67.70276 -86.64233 -77.83090 -92.59371 -97.43349 -96.13492 -84.57503 -77.52269 -60.83103 -46.40255 -46.47005 -52.87479 -59.25374 -36.61515 -43.81780 -22.72691 -13.92205 -1.66387 11.37398 9.79018 9.15996 -1.83128 -8.03688 -27.57160 -35.52111 -35.02676 -21.66561 -19.93879 -21.20989 -22.24448 -31.02153 -47.37383 -54.00496 -38.80093 -37.79315 -28.57832 -16.20663 -12.68452 -13.52458 -12.76729 -17.50284 -33.19963 -43.65667 -52.09947 -41.84744 -39.27648 -7.47139 -18.05595 -21.54089 -29.98480 -42.18976 -52.68275 -62.97501 -56.02864 -43.24081 -35.37667 -25.14244 -31.26661 -24.19325 -40.30538 -34.54060 -51.99964 -57.98531 -71.32975 -83.90640 -90.46274 -84.47892 -68.98632 -56.77009 -59.25303 -50.83586 -58.94448 -72.24072 -85.34640 -89.69495 -94.43829 -101.01382 -99.72556 -106.98364 -96.16140 -83.05665 -81.39215 -85.76901 -84.25438 -77.89337 -75.75208 -81.51199 -81.10446 -98.16301 -105.57764 -111.18276 -110.49473 -101.96125 -85.01870 -81.39876 -72.70282 -76.19027 -61.61504 -50.44289 -51.20317 -53.75944 -66.19873 -58.83992 -59.71920 -50.21778 -47.15967 -35.80758 -29.77792 -32.97941 -44.31217 -56.13796 -58.27836
-120.96315 -117.68723 -121.93970 -115.30570 -113.35953 -115.14248 -123.19010 -143.59971 -149.32845 -141.59800 -129.90648 -104.50110 -96.87446 -102.93732 -115.75530 -114.34745 -127.51371 -144.54879 -152.17971 -158.34726 -166.09720 -166.19233 -156.81340 -154.46220 -150.22541 -152.07396 -152.21282 -158.57887 -171.18225 -162.45145 -160.67080 -132.10300 -120.13782 -120.80209 -117.73835 -121.53154 -107.76324 -109.03727 -114.37132 -96.76546 -88.22628 -81.05261 -75.63724 -66.18471 -58.72965 -39.00576 -29.21665 -16.14082 -10.17867 17.39424 40.82425 42.99406 31.27513 -5.67176 -33.86532 -37.97330 -54.29025 -52.73685 -46.84091 -18.47799 -15.16027 -4.51271 0.14012 -29.78360 -30.83572 -45.66623 -76.31809 -88.00073 -87.47347 -61.52458 -51.39141 -47.14860 -45.44157 -46.58486 -56.57087 -65.48498 -24.23343 -19.02839 -7.31221 -9.09916 -21.10076 -46.91754 -55.89216 -48.58249 -13.61962 9.44545 24.68750 45.02153 43.78306 27.79965 22.11850 -5.92743 -31.99176 -44.63958 -41.90755 -43.00549 -48.88819 -23.33773 -21.27303 -43.93523 -24.80105 -33.55243 -47.91798 -63.57999 -71.28535 -68.20013 -46.72427 -22.60282 -13.06028 18.52211 34.12982 46.24341 78.19825 106.03579 113.21601 90.16273 58.12217 30.28535 20.86496 3.03902 -12.24397 -23.89795 -0.45273 -3.67600 -6.85373 -21.98586 -33.75123 -37.21203 -37.21874 -49.91588 -49.01520 -48.83998 -47.31298 -45.74225 -45.54927 -55.53933 -55.91077 -61.51141 -59.37766 -55.19489 -45.90728 -22.91201 -15.61529 -6.61932 1.41159 10.23595 9.08811 -15.30232 -43.47048 -48.15812 -63.02801 -58.72074 -54.74798 -23.67854 -13.01518 -0.27698 0.75235 -10.67834 -24.04183 -25.84888 -25.98270 -38.72601 -51.53425 -64.64771 -71.08656 -72.84523 -77.35916 -69.54611 -64.69340 -67.61524 -71.99433 -79.51316 -84.03285 -81.55965 -91.48678 -95.32463 -93.08681 -90.43259 -82.19994 -60.32832 -55.82241 -66.22874 -66.86279 -71.85884 -67.90466 -53.28381 -40.57625 -31.71948 -18.33487 10.95073 15.58559 9.33398 -3.54900 -6.11742 -22.65907 -40.40688 -34.63974 -28.23027 -13.73436 -14.90618 -17.57074 -38.10698 -47.12547 -48.98223 -49.52053 -40.66681 -24.35724 -19.51680 -12.81466 -20.32960 -23.95776 -32.51475 -44.03973 -43.69545 -54.18084 -50.81416 -29.35504 -17.41498 -7.94755 -21.05134 -33.98912 -40.97759 -54.29359 -66.45314 -62.58554 -49.49081 -30.86418 -30.58600 -27.06719 -27.85802 -33.31961 -44.43244 -53.86001 -68.55751 -73.07515 -87.52428 -87.46868 -77.67965 -70.11017 -55.36934 -49.61152 -53.45175 -57.99341 -73.31008 -82.89110 -95.49756 -101.18899 -99.99513 -100.20411 -96.24989 -93.85549 -79.29350 -78.83623 -73.79006 -74.75317 -71.54440 -75.39323 -81.41368 -91.18727 -100.78819 -108.21886 -110.38379 -103.82646 -93.72650 -84.94038 -82.24825 -79.75809 -78.23631 -73.03906 -66.38647 -63.25391 -71.06773 -71.09804 -69.54703 -69.38791 -73.02613 -54.08832 -45.03247 -22.69502 -22.69708 -31.32648 -38.18912 -48.14839
-104.18071 -99.42349 -104.26391 -95.09245 -93.86143 -105.19642 -109.33264 -139.28517 -139.94803 -152.66976 -136.03921 -131.87272 -109.06085 -101.06542 -99.12691 -99.71526 -121.60120 -140.62393 -140.94203 -150.74325 -160.02000 -168.45254 -161.92043 -149.30087 -146.37913 -143.68553 -144.87202 -152.87413 -166.65996 -169.59240 -157.50827 -153.07098 -147.84145 -129.96367 -128.31621 -116.91769 -112.25101 -109.10675 -110.64978 -95.97686 -76.57646 -56.07548 -57.59870 -43.90894 -38.35665 -41.59244 -22.60150 -6.72070 17.41950 27.49326 49.74694 35.41353 4.56811 -6.88017 -30.55692 -33.84596 -42.11734 -32.29499 -26.54660 -14.40813 11.66002 16.72885 10.89338 -4.69394 -18.34170 -37.31093 -75.69021 -87.97524 -65.09387 -53.42705 -39.37421 -35.27317 -20.53149 -41.86421 -54.30702 -51.06873 -41.83756 -12.73107 -5.27963 -12.81902 -15.07672 -53.23213 -75.13831 -61.13598 -34.26339 -11.06976 6.93958 25.43754 37.21239 33.44207 22.51400 8.47751 -5.50159 -17.93202 -14.79773 -35.72351 -34.26516 -26.67097 -9.71021 9.88436 7.86142 -27.44160 -50.68507 -64.57405 -66.84375 -57.08030 -36.98255 -28.26866 -18.18366 32.56706 79.37825 87.29510 104.65657 140.16945 129.20363 113.24381 45.05555 35.91460 32.02454 5.41512 -10.39052 -6.75242 17.93074 16.61463 14.52945 -7.00238 -28.61529 -34.67179 -29.99780 -39.02875 -36.23608 -42.49899 -42.60938 -38.10051 -37.76617 -40.33980 -45.44865 -53.65787 -61.33774 -56.65709 -38.85369 -16.39414 -10.85847 -1.14430 8.89808 10.03333 -8.54835 -42.26086 -41.25220 -47.48195 -65.47052 -67.00483 -43.01210 -7.86690 -9.82300 -9.67977 -15.46023 -17.86265 -20.78135 -19.41231 -14.63452 -24.35649 -43.14310 -53.53512 -65.16788 -79.93456 -82.82559 -73.92003 -70.27396 -72.18458 -78.40531 -83.80876 -89.87109 -88.52306 -97.11955 -93.61519 -86.75683 -94.23958 -88.59588 -73.11081 -70.27316 -70.48528 -81.08117 -80.90049 -66.93747 -58.68384 -37.11755 -47.15938 -34.24731 -9.13404 13.66732 11.91596 1.18077 -14.93997 -36.56140 -43.90279 -39.38008 -30.86231 -15.30912 -15.58478 -17.72628 -26.39518 -47.07602 -55.69738 -39.20178 -41.62040 -33.50415 -20.21523 -17.38266 -27.85593 -40.30636 -40.56399 -42.82614 -53.74264 -65.97835 -47.90595 -29.04595 -20.07961 -21.50711 -18.91423 -35.01017 -36.50405 -58.43282 -67.69504 -66.41111 -50.59094 -37.69748 -36.26354 -33.54383 -30.78320 -38.82244 -48.19718 -56.38506 -71.65962 -76.09930 -88.84532 -79.14414 -70.77619 -59.82018 -59.60302 -50.33370 -51.64254 -53.46771 -72.19863 -84.31297 -89.73388 -103.01996 -98.06432 -99.10161 -90.76853 -86.54690 -82.00821 -69.24970 -69.49320 -62.25001 -60.47676 -77.59787 -85.11330 -97.96971 -101.09370 -107.60693 -109.50988 -108.86609 -105.31680 -93.27747 -84.59435 -83.14637 -82.54431 -82.13891 -66.57462 -74.75588 -72.62157 -82.28328 -83.05752 -72.77329 -63.68793 -54.27928 -41.76044 -29.08507 -20.31685 -30.03884 -24.97764 -18.76078
-91.77295 -91.66430 -88.27507 -91.71643 -86.60142 -91.79620 -98.45021 -113.53395 -132.52213 -132.07214 -138.42691 -134.58125 -121.02839 -105.29941 -90.38637 -90.67465 -97.62773 -106.22420 -129.18050 -147.89988 -159.99531 -164.60339 -158.81953 -141.71823 -139.35959 -139.58297 -151.83362 -159.09508 -161.54811 -166.66267 -160.03916 -160.04922 -151.96176 -136.07382 -129.29663 -112.97975 -111.41497 -112.39899 -110.76686 -101.55744 -88.70315 -57.33502 -43.69277 -28.42057 -30.88697 -23.45096 3.87551 -1.87113 12.16979 31.85139 28.95869 25.21066 2.43100 4.18107 6.52965 0.81160 -4.89410 5.88156 2.67038 17.87514 22.33596 22.27494 16.23496 14.83578 -17.93251 -63.16478 -72.44087 -86.81667 -67.11448 -45.73268 -36.43657 -28.29180 -23.86871 -39.55157 -44.68685 -49.84582 -29.30542 -12.09958 -4.24946 -18.78867 -45.54780 -50.19261 -71.69950 -58.83926 -40.00881 -17.49303 -10.57521 -5.03859 20.07744 26.15870 47.28594 34.25281 11.04362 8.18766 -1.30772 -3.00862 -27.94074 -8.41989 28.74801 20.92488 12.58876 -22.87117 -40.84056 -52.63887 -47.74490 -64.80238 -43.74516 -23.99987 21.82865 42.18765 93.60345 100.05153 124.96144 143.65897 164.17873 95.55340 61.70997 26.56914 16.44199 -1.13891 -23.73306 11.68125 27.32202 39.06591 23.94476 21.13120 14.78046 0.76142 -18.68360 -27.76449 -29.49046 -20.04302 -27.93869 -23.70162 -25.01560 -29.55443 -36.12517 -46.69384 -61.20934 -64.98229 -41.68604 -30.58978 -13.60871 -2.07430 -0.08841 -9.53555 -17.50934 -37.04798 -53.18017 -50.57853 -64.97190 -54.66441 -32.94672 -11.03969 -14.94229 -12.05858 -11.40595 -27.93283 -28.70195 -32.68918 -38.00024 -37.85626 -47.70090 -60.70179 -63.57547 -73.24421 -82.43053 -75.69223 -71.29179 -83.02409 -92.96788 -90.98113 -87.37593 -87.44276 -85.21656 -84.84783 -83.32786 -92.40124 -94.13363 -88.99796 -75.54365 -85.51583 -89.22533 -78.65447 -78.17393 -70.28880 -64.28041 -46.82836 -40.05095 -6.15090 2.11449 7.97788 -2.40494 -20.89766 -33.21646 -50.84774 -40.16952 -23.59675 -14.25831 -9.19419 -15.44174 -27.60689 -41.99946 -57.37921 -49.18927 -39.44665 -36.38460 -32.23837 -33.66086 -40.41448 -49.05733 -46.63206 -49.07804 -58.34366 -63.67496 -49.19681 -32.09603 -31.52368 -24.49262 -26.34031 -38.61974 -39.06114 -56.35643 -68.50083 -72.81525 -50.34387 -51.80186 -47.34181 -40.14544 -38.03423 -32.22874 -48.56791 -69.45426 -80.41945 -90.37330 -92.80076 -90.55735 -69.87181 -54.74470 -52.42009 -56.46605 -60.38715 -63.48340 -74.60802 -82.07796 -90.93211 -99.11019 -100.70799 -92.85757 -85.47337 -83.94153 -70.37075 -69.10173 -64.29244 -61.78259 -60.43956 -67.91743 -78.12502 -85.15595 -92.43366 -107.27095 -107.38063 -108.82377 -108.18387 -97.99418 -92.25742 -90.14786 -90.34719 -82.35990 -74.62520 -88.75324 -87.08214 -86.16380 -84.74065 -64.37507 -56.33780 -44.01740 -44.35463 -33.94458 -17.90754 -4.72801 -5.64776 1.53848
-89.11996 -87.16077 -88.10790 -83.00554 -83.41500 -82.32740 -87.99805 -96.84907 -102.95034 -123.98008 -132.10602 -126.17167 -124.27844 -103.09734 -91.15339 -89.30021 -89.24293 -96.87312 -115.28510 -145.01310 -163.71743 -166.91325 -153.72049 -138.97562 -139.71440 -129.30836 -146.28000 -159.58772 -172.41225 -170.26562 -166.06642 -166.49341 -150.16869 -143.03773 -132.02758 -123.25550 -119.54342 -120.95284 -127.40734 -124.13160 -90.85381 -78.09163 -59.01393 -37.78075 -36.34135 -17.27137 5.21529 -3.85993 -11.88895 -7.15766 6.28256 1.70315 4.57386 7.72377 23.66847 29.11373 27.94159 34.66382 30.72285 20.19805 21.54371 9.92093 8.91908 6.79699 -17.13375 -41.40490 -78.65535 -73.39424 -67.75452 -45.11471 -36.76437 -26.77292 -27.76029 -37.49766 -40.25674 -38.42035 -20.96239 -8.53994 -11.96449 -34.99273 -48.79351 -51.75101 -58.89309 -61.25346 -58.50322 -45.87581 -24.97383 -9.76282 5.41599 41.06641 50.95379 44.02263 39.71974 22.70104 26.84316 -1.75951 -9.99543 -1.46709 36.44278 37.30409 23.31358 -17.47215 -29.20133 -37.98159 -40.07085 -38.46814 -42.59898 -17.68878 23.79024 54.55666 74.73980 95.75506 98.90824 124.77172 138.92603 124.55913 103.52421 59.05263 30.01848 20.38408 6.78911 32.77398 40.54226 47.80962 36.08987 46.38789 37.12382 22.92802 -4.24587 4.76503 0.70257 -12.11220 -8.69819 -12.57257 -22.76947 -31.20274 -25.81885 -37.34026 -61.98913 -65.56295 -53.76517 -26.06361 -21.18585 -6.04622 -7.16126 -8.69490 -17.69936 -33.06726 -43.93768 -63.30937 -69.53889 -73.99573 -40.61547 -21.73367 -16.26548 -11.73897 -21.54203 -28.77971 -44.71055 -44.48768 -50.57273 -48.91974 -54.06762 -60.10551 -66.50363 -86.99412 -92.93694 -91.71292 -88.44476 -93.26813 -88.54930 -87.23130 -90.51009 -85.38799 -85.75546 -80.84575 -79.46107 -86.14272 -97.82386 -93.02355 -89.56854 -92.02628 -83.64708 -88.24739 -82.70626 -71.67236 -63.67483 -52.83137 -38.37363 -11.79376 -1.59562 2.94827 -5.60041 -18.79372 -36.41738 -42.69311 -32.45172 -26.03049 -8.83404 3.13057 -11.86053 -28.02338 -40.24537 -60.99926 -59.13758 -45.95482 -42.60322 -35.30859 -38.85493 -56.50787 -57.84482 -58.32596 -69.42089 -69.96775 -64.66976 -59.38590 -57.58675 -37.12652 -34.95473 -31.50051 -48.46480 -49.59277 -53.05622 -65.36383 -84.65792 -72.16351 -62.05263 -46.11687 -48.69801 -44.35061 -49.70026 -64.15671 -70.68142 -76.54536 -85.66054 -90.41424 -88.32064 -77.18868 -72.05484 -69.61652 -69.35626 -61.82386 -71.49996 -77.64243 -88.28045 -94.58227 -97.37310 -95.04175 -93.83432 -76.98989 -72.61655 -67.16388 -53.19990 -50.77454 -51.68917 -57.04499 -64.24647 -69.07051 -69.69008 -90.18344 -97.36592 -104.76577 -108.20175 -115.65007 -107.13790 -96.51245 -96.42920 -97.12140 -94.15347 -83.11961 -84.69490 -88.41196 -80.17658 -75.69814 -62.55419 -47.67784 -42.99767 -40.83686 -24.02540 -12.09870 9.21159 6.40850 11.55832
-92.78811 -90.81952 -89.98183 -95.42153 -82.72919 -75.65976 -73.97348 -86.59542 -101.43841 -107.37465 -109.47424 -107.80076 -119.54112 -107.88336 -84.01003 -86.60617 -86.05276 -109.07696 -118.98230 -139.19505 -162.67872 -163.51020 -155.44919 -145.38817 -134.28628 -135.26225 -141.19842 -160.42280 -166.25374 -167.33782 -170.48620 -158.40076 -149.74421 -137.85742 -131.03879 -121.04070 -119.97059 -125.36692 -139.44370 -132.85628 -104.56020 -69.29821 -71.52348 -42.06997 -49.25663 -35.16369 -13.94110 -20.44513 -38.81139 -37.35146 -28.60908 -26.40526 -12.00993 0.08825 25.00063 30.51785 29.38499 45.74188 48.80221 39.83477 36.40778 23.56787 2.16171 0.87613 -23.88428 -52.15575 -58.86856 -67.26285 -69.96029 -61.62909 -40.63128 -35.69189 -26.93516 -37.55827 -39.44098 -18.56429 2.86327 -0.65673 -2.28387 -34.16118 -35.03081 -41.91263 -46.00482 -56.20182 -58.31931 -48.91509 -34.89712 -1.65588 29.74405 42.24091 84.65638 73.33321 66.59596 54.76753 50.18402 12.84244 -1.13266 3.55417 29.17271 43.86934 17.62188 -0.30562 -29.23328 -34.94159 -35.14078 -40.38616 -38.88694 -24.27153 2.12718 28.25368 70.30241 68.94443 71.39899 93.68507 116.23484 141.48473 120.59427 85.62234 70.66262 23.43612 18.82913 35.26232 65.35508 64.70084 48.05753 44.98885 37.81901 16.93891 -1.00189 8.37352 10.24107 12.05751 4.73464 -7.50468 -14.43436 -23.05210 -26.22961 -40.98788 -50.37666 -68.77294 -47.99817 -42.43310 -25.84192 -10.25716 -4.36360 -9.55672 -19.25260 -19.99448 -34.74146 -63.26684 -68.59214 -68.82484 -53.23059 -24.44038 -21.79411 -10.34174 -15.03521 -37.87224 -58.40936 -60.30389 -58.98478 -57.03989 -62.74216 -75.53481 -80.84553 -85.82760 -93.01396 -93.01459 -92.49198 -84.02941 -72.93751 -81.15543 -79.43510 -72.52675 -73.24640 -81.66221 -91.13789 -88.56359 -99.95342 -96.66498 -99.61912 -97.91832 -95.37670 -90.22285 -91.40996 -83.59342 -67.28579 -57.94222 -31.03565 -5.71658 -2.32680 -0.50577 -11.87256 -27.32864 -41.55019 -46.62144 -29.53751 -24.15075 -14.87826 -4.39860 -10.80554 -23.40151 -39.59766 -49.48838 -60.87145 -61.28907 -47.89019 -46.00334 -49.76312 -70.85620 -72.67156 -81.36887 -81.43307 -79.34784 -70.25464 -61.24816 -68.60264 -56.78159 -43.28463 -51.37828 -57.85616 -59.86470 -56.77820 -68.48996 -76.46227 -79.53840 -64.18072 -55.61082 -50.29548 -50.98821 -49.04811 -57.49257 -69.38972 -71.96057 -83.60765 -87.61900 -90.21170 -90.35810 -87.45642 -87.04328 -80.65174 -81.07389 -71.26492 -80.58476 -96.29964 -101.73054 -99.33021 -97.76982 -87.58889 -81.02136 -71.33805 -56.41597 -50.45873 -45.39745 -48.40140 -51.76381 -53.51817 -59.04195 -72.12790 -82.58861 -92.70658 -103.23172 -108.59243 -107.37502 -113.98477 -106.39941 -105.69740 -98.10786 -95.42802 -91.46052 -92.42577 -83.59500 -85.71597 -61.50426 -54.22878 -52.63803 -47.21187 -46.57510 -23.60361 -12.82617 12.00595 13.20964 13.46748
-121.89697 -105.05102 -105.27728 -86.51897 -79.26908 -74.01387 -72.44920 -72.37139 -84.25965 -88.53328 -87.85015 -100.83321 -106.31298 -92.07632 -81.77028 -82.96973 -86.16346 -119.96199 -126.24150 -141.19713 -161.90645 -163.93200 -159.90640 -137.88902 -135.95227 -130.23062 -131.95662 -148.65559 -158.01942 -160.97358 -166.14197 -160.79702 -138.58474 -134.30674 -130.75090 -132.13977 -133.27660 -135.84059 -163.15420 -144.05356 -131.49352 -89.15535 -70.41281 -74.87830 -74.13427 -49.39386 -22.91264 -30.00676 -52.81687 -67.62135 -52.21228 -47.38586 -40.73174 -12.73194 -1.63250 7.51405 32.79470 36.91158 58.55337 53.66263 60.55425 47.67104 23.17793 10.12165 -6.27694 -26.63315 -60.85110 -69.38034 -64.61599 -59.11820 -50.29509 -27.88304 -27.96144 -29.33514 -21.05047 -10.58492 4.63964 13.40999 0.64170 -14.37146 -18.12501 -18.13286 -25.91449 -42.81310 -57.67329 -48.72743 -26.86466 -2.70289 34.04604 62.61794 88.37953 90.82553 101.96822 63.15881 47.43270 34.43993 8.83206 20.62831 21.93386 54.93373 22.89083 0.16719 -25.14364 -17.51538 -19.17267 -28.72340 -43.16043 -27.56051 -10.34132 23.82015 42.20726 62.83347 64.24282 78.26639 115.31751 142.81758 151.72582 120.17992 113.73864 60.10121 23.09371 39.11650 62.46858 78.89895 70.68427 43.34543 20.62281 -2.13381 -4.06240 -0.13696 17.40319 14.27204 10.71145 -4.18410 -15.30585 -10.69792 -26.57911 -43.59256 -52.31059 -64.01502 -46.81284 -33.75481 -24.79607 -13.28378 -10.24162 -10.77154 -12.58213 -19.46263 -25.25563 -52.48811 -68.53253 -75.78534 -65.35910 -40.97790 -29.14424 -15.93427 -22.97347 -38.59412 -58.54906 -64.67390 -69.31887 -62.91741 -71.95274 -83.17039 -86.14092 -91.75879 -96.12199 -94.73648 -82.23113 -74.33948 -58.68525 -68.25210 -73.57256 -61.47974 -64.10550 -77.33770 -88.57361 -90.29520 -96.60240 -88.63322 -98.33188 -99.20191 -97.58219 -93.57844 -88.52426 -85.93323 -65.89214 -48.89454 -36.27036 -15.16550 -8.34827 -14.98701 -13.09344 -40.36413 -45.05508 -50.51492 -42.53816 -36.02906 -22.99108 -15.43643 -13.89587 -16.06353 -31.89046 -32.49944 -57.54764 -58.51273 -72.63357 -67.15921 -70.27931 -77.64301 -76.56732 -76.72267 -74.04342 -76.77558 -78.55178 -78.06419 -81.28180 -71.88159 -65.86639 -59.93939 -55.91353 -65.38483 -59.18855 -68.55221 -88.51440 -84.02827 -76.13251 -58.19463 -52.13288 -57.63928 -66.88630 -59.85630 -66.46605 -74.70055 -79.41725 -88.45402 -97.40475 -94.50673 -96.38316 -79.69829 -85.22758 -83.57769 -82.15099 -85.35131 -94.68064 -102.25386 -99.49497 -90.63610 -78.90259 -80.82557 -64.09765 -47.19529 -39.28282 -31.67931 -35.03852 -44.57766 -48.87738 -58.38130 -78.11953 -85.02008 -101.97874 -99.67695 -107.55672 -113.85152 -116.59655 -104.19706 -102.63196 -101.37005 -105.26341 -97.16804 -78.49951 -73.36747 -59.52780 -52.87445 -51.40863 -49.62967 -47.71772 -39.37163 -26.60879 -20.36005 -15.39328 -2.87422 7.28650
-122.84076 -123.10001 -110.15136 -93.56026 -81.14814 -70.76590 -70.16871 -64.13547 -66.37374 -78.83194 -81.90962 -81.75047 -102.03499 -90.77157 -71.24255 -85.92515 -97.37814 -126.48497 -130.29705 -148.32866 -163.84590 -163.64068 -164.68985 -144.84231 -127.32876 -118.22364 -123.70760 -123.82415 -137.97658 -156.09786 -163.00240 -166.00197 -144.79832 -143.08321 -138.16565 -137.50522 -151.38179 -156.14893 -158.40353 -147.25790 -127.35126 -109.92003 -98.88307 -110.84989 -82.79060 -71.30779 -55.20960 -58.23374 -79.49397 -89.36786 -81.96681 -72.17116 -45.40626 -47.46176 -32.23435 -22.13297 27.13039 27.24373 39.24757 56.09219 68.94128 77.48761 46.09637 12.90901 -2.00349 -30.52966 -49.87757 -47.23221 -58.88994 -53.08752 -42.45119 -14.42243 -7.97619 -7.29877 -10.76378 -3.08385 22.63269 44.96230 29.49220 14.58671 -2.13479 -6.13227 -16.44407 -33.09397 -44.29794 -45.98524 -36.07251 -14.75979 35.49482 49.74297 87.88398 99.83046 116.00670 92.77100 59.61340 52.40657 43.91071 41.26894 44.49749 57.09407 45.61210 13.96169 -4.01518 -5.44076 -11.36279 -25.46703 -35.76941 -32.14079 -17.22783 -11.78146 25.03972 21.78957 27.06594 57.71242 112.38225 141.68540 155.63396 151.13478 136.91624 138.37647 60.09474 54.41326 85.97388 83.15556 65.72718 45.77023 28.96507 4.00654 -16.24190 -13.98059 0.45374 11.61351 17.64722 5.18785 -9.35816 -13.91717 -42.32871 -52.79901 -64.19159 -68.75350 -53.45708 -47.88031 -34.77994 -23.57103 -11.71776 -2.72048 -2.12241 -25.41256 -27.41431 -35.02766 -67.22114 -76.69515 -56.95343 -41.96378 -31.22981 -28.76612 -30.75927 -45.43201 -62.80741 -60.91384 -68.04915 -75.27095 -84.32302 -92.31453 -84.66763 -79.86371 -76.94192 -83.23261 -81.80152 -63.37967 -55.44686 -58.47150 -53.88369 -59.49547 -50.09539 -62.92947 -66.10660 -66.31515 -71.29583 -83.24376 -96.12898 -98.20958 -101.65056 -90.67229 -91.99333 -72.33919 -62.09624 -58.04391 -32.35239 -25.78302 -24.27560 -24.49766 -25.83361 -45.06808 -42.70204 -49.80186 -40.12098 -40.22879 -38.26136 -46.32051 -22.25591 -26.51805 -27.57142 -29.05345 -38.75773 -64.28039 -69.41658 -65.00187 -74.79719 -77.60482 -73.60055 -64.76347 -53.94718 -73.71056 -82.53628 -79.53231 -81.77490 -67.43062 -59.37366 -72.47967 -73.26523 -81.10249 -81.02123 -84.73392 -90.71891 -83.68527 -77.20383 -71.06916 -72.73106 -69.89232 -63.77265 -72.74831 -79.57325 -87.95609 -83.74914 -88.03529 -95.82481 -99.81893 -93.53142 -88.82820 -87.95632 -92.94956 -81.12664 -91.71880 -90.85596 -93.34870 -98.63465 -79.69037 -76.44391 -64.21904 -53.33603 -34.94814 -30.92645 -31.21741 -36.54130 -41.52060 -44.99359 -63.63605 -88.53238 -92.72362 -92.47833 -111.21643 -108.75335 -114.55609 -115.10900 -97.44687 -92.23395 -91.87074 -88.86801 -91.22543 -82.58526 -60.08037 -48.87508 -50.62609 -51.05309 -50.11314 -47.56111 -52.97571 -45.12583 -35.84012 -38.22945 -35.56854 -19.99152
-126.52207 -119.01982 -106.60075 -99.84045 -90.08927 -70.68913 -65.77938 -58.17106 -57.56319 -59.61498 -80.11510 -88.01839 -104.46082 -76.77511 -61.93834 -71.73029 -102.44448 -124.36510 -136.48665 -121.05474 -152.36266 -154.49965 -163.51794 -130.92200 -122.32786 -118.07296 -103.93974 -115.01153 -133.89646 -157.32888 -163.22926 -170.59379 -166.28052 -153.68217 -150.86640 -149.73968 -163.39379 -161.68760 -159.49916 -151.27211 -136.96230 -118.08980 -108.61365 -115.27036 -104.62501 -88.36370 -82.66178 -76.58310 -85.99592 -92.77114 -95.27752 -96.75934 -69.24451 -66.50081 -54.62857 -59.31219 -8.40895 -2.48714 -6.74797 29.59114 60.92793 70.26597 50.70393 21.09438 -2.88914 -30.61108 -45.45149 -44.48470 -44.78995 -46.36746 -38.81720 -12.35976 12.78071 22.48346 9.86936 19.31730 35.14216 62.66844 61.98800 56.63582 17.96095 4.58496 -2.08261 -11.09669 -40.77854 -45.46357 -11.46465 0.11428 27.19844 48.59902 68.67727 103.14963 115.09171 123.11296 84.65503 85.17937 68.20923 65.27717 72.17594 78.41796 49.91916 26.42475 27.69139 23.21958 -2.75064 -14.37684 -36.04348 -26.89182 -19.60392 -12.70466 -6.38545 40.21316 42.57908 38.05689 103.52957 128.90692 185.18055 172.77724 179.18811 134.33883 82.95886 65.55657 70.01408 70.61530 53.30923 42.76227 34.79987 5.04933 -8.74806 -22.20527 -20.60384 -2.10848 -0.89714 -4.61666 -17.88017 -32.93830 -55.80971 -64.74699 -65.00442 -76.46288 -70.96613 -45.92213 -39.56882 -22.33206 -1.59314 3.46765 -0.70415 -8.79874 -33.42873 -46.31133 -64.38989 -68.88721 -58.71194 -27.66032 -32.63638 -34.04427 -44.74004 -68.88594 -71.43272 -77.45561 -74.11976 -70.61499 -86.85266 -83.63727 -82.47132 -70.88983 -65.14604 -64.05085 -59.29951 -51.37922 -53.51212 -37.81477 -40.10905 -41.30712 -41.28307 -43.06628 -57.01371 -59.20373 -58.72114 -72.72212 -85.63066 -96.06088 -108.39718 -96.26949 -91.02851 -86.32298 -72.27169 -59.35564 -47.93168 -27.04549 -25.06498 -21.92009 -22.18872 -30.02094 -45.58103 -48.70695 -55.21192 -56.09119 -56.54278 -53.18314 -43.07159 -32.89521 -28.93637 -36.94225 -45.81662 -61.78885 -64.89663 -57.64755 -59.38100 -66.37396 -67.15306 -55.49499 -50.36779 -66.14697 -68.18488 -75.55317 -77.08840 -81.08055 -76.01610 -81.87113 -86.67231 -81.97564 -85.71383 -87.88950 -89.25057 -86.68498 -86.43339 -82.60638 -87.15583 -85.17507 -85.86117 -85.13287 -89.82719 -89.94080 -91.99242 -88.73238 -99.21830 -100.47712 -101.32304 -98.17294 -92.60996 -88.68181 -77.56635 -88.51725 -101.67790 -92.32724 -89.69038 -77.27712 -66.75416 -58.11977 -42.34455 -34.87584 -34.00745 -30.57885 -26.54718 -48.51333 -50.13214 -53.48734 -86.68420 -92.96555 -99.56316 -112.50876 -113.04657 -109.86973 -100.60397 -84.95219 -80.36894 -84.76278 -89.16931 -89.33391 -69.17990 -59.14494 -57.05638 -53.60648 -63.62411 -59.79285 -60.09987 -64.55570 -62.69817 -60.24070 -45.68735 -50.32863 -44.91388
-116.18485 -109.21393 -99.15205 -89.38793 -86.72821 -77.98400 -57.74059 -54.49059 -50.69430 -61.11830 -66.75038 -83.37462 -87.00867 -71.30204 -63.72822 -55.27312 -70.76360 -98.33009 -113.28794 -112.01532 -122.45415 -144.51598 -149.14701 -131.87199 -111.94140 -102.30427 -99.29884 -104.21158 -136.46902 -160.39179 -170.27470 -174.62220 -173.55934 -158.30010 -162.85638 -167.43364 -158.14725 -159.23540 -162.15597 -163.73203 -146.38283 -146.22874 -129.36744 -114.30759 -106.41855 -92.13440 -96.76239 -97.03955 -111.19166 -115.95250 -117.27945 -103.67417 -79.55426 -75.96689 -73.02404 -58.50305 -48.30392 -33.58949 -18.30876 7.38263 39.14547 46.87882 52.18035 38.08704 -6.03643 -22.97636 -24.12553 -39.12822 -40.17724 -22.50722 7.54312 38.38817 30.07394 29.62786 26.98215 29.30025 51.98708 70.86536 77.92092 70.62654 61.17679 7.68848 11.75317 -6.36038 -16.68035 -35.97477 4.00423 23.02763 7.28258 17.69051 55.23673 109.25445 115.46081 116.01061 130.43434 132.10784 113.40955 84.91983 85.97872 100.45683 73.20349 74.72846 58.91257 42.48363 27.72557 -8.97587 -12.37432 -12.93899 -11.23223 -7.76179 -2.54930 50.67150 64.82485 84.64285 84.60353 180.23757 196.89866 211.04963 199.20973 157.47509 95.79195 59.42885 56.78120 56.18377 51.81045 37.73142 25.93864 1.69299 -12.30644 -25.78635 -37.50596 -33.06396 -14.56912 -27.72886 -31.13453 -51.72570 -59.64906 -60.60411 -74.72096 -70.96698 -69.23298 -55.62530 -37.55688 -18.66184 -3.82393 13.64051 7.13296 -4.15098 -30.38565 -50.45959 -62.40139 -75.98318 -57.68008 -45.60978 -43.32789 -49.96245 -61.65578 -81.57696 -80.47045 -76.33514 -79.31782 -77.23316 -79.03386 -72.12862 -77.70185 -68.25119 -57.38523 -62.00057 -47.63966 -41.76651 -38.29511 -29.44486 -29.60761 -32.65876 -33.48299 -39.34192 -49.84934 -47.87895 -63.59287 -69.58887 -89.42151 -97.46890 -99.18576 -104.91460 -93.80283 -87.47987 -80.00345 -62.01704 -51.80693 -39.69781 -35.72834 -30.88416 -13.91123 -16.75115 -39.04911 -45.42758 -63.03186 -57.37966 -60.81673 -61.39353 -54.38270 -50.45139 -50.75443 -55.65941 -65.20119 -67.05592 -53.12936 -43.87351 -54.00084 -66.25338 -68.23465 -51.39088 -46.01184 -50.48389 -56.41650 -71.71894 -77.00024 -81.39023 -65.51238 -70.29398 -82.34817 -75.85222 -68.46082 -81.04069 -71.56430 -75.38700 -74.21801 -78.53510 -95.37945 -95.83094 -95.30263 -88.86278 -95.13084 -89.48214 -82.27963 -84.65033 -86.96218 -102.57773 -91.01390 -91.65356 -88.73661 -92.93911 -91.39388 -101.57231 -100.37786 -90.94525 -88.84449 -65.81637 -54.08209 -49.86826 -34.59180 -31.05077 -31.00648 -35.10823 -45.93477 -57.95264 -62.15701 -70.80020 -85.48523 -97.32264 -97.21576 -107.45977 -110.62231 -114.64054 -95.44647 -85.53494 -81.61470 -81.73168 -79.75782 -82.97639 -64.07041 -57.94712 -59.18051 -72.24220 -72.24974 -65.54025 -68.58377 -73.31620 -74.19717 -82.08899 -76.36487 -68.35759 -61.24083
-104.59838 -92.92796 -85.11111 -84.59028 -73.75193 -65.72819 -55.26521 -46.44912 -49.12131 -58.00267 -76.18021 -82.68942 -82.71027 -66.12627 -56.49340 -49.76163 -66.14280 -93.53764 -94.56652 -107.08336 -106.87418 -126.47263 -145.57444 -121.21295 -105.21059 -90.53203 -86.44591 -89.71623 -139.59109 -158.39660 -163.46221 -172.41653 -167.14650 -162.59583 -151.22104 -152.66024 -142.27702 -148.23648 -150.08786 -163.86924 -168.56016 -159.23232 -146.74985 -128.41618 -108.72357 -97.32763 -102.47101 -107.62280 -117.82701 -127.42892 -115.91650 -116.06956 -95.44905 -90.38218 -81.12400 -71.46995 -70.83026 -50.42696 -35.57238 -3.04582 27.29543 40.22150 61.32036 40.63867 29.57534 3.70606 -9.10156 -15.58078 0.29900 34.55098 48.24717 37.45757 46.81277 67.01934 57.54626 77.86462 77.86317 101.86571 85.71648 109.95338 99.86058 37.86363 19.99899 7.27362 1.25604 0.60314 14.72539 36.82728 27.54986 24.00348 39.18941 95.02831 114.86908 139.02729 154.05736 175.48047 176.15563 160.71234 130.68059 150.84397 140.73616 84.39730 86.75855 44.64707 20.45100 16.94304 10.11449 1.39341 18.71496 13.14968 26.11547 51.98631 96.64202 99.14396 99.61251 153.38104 206.01157 216.36196 203.49892 167.01314 108.60227 61.99981 37.25538 27.37616 27.38906 18.16689 8.47661 -7.76206 -24.58977 -28.72568 -36.41678 -38.60242 -43.33025 -44.50055 -45.45820 -53.56997 -60.66119 -62.80590 -67.10500 -72.50309 -57.30142 -49.38227 -35.19375 -22.14660 3.28392 11.93750 -1.76706 -13.89916 -41.04132 -43.10359 -60.46368 -65.18817 -80.53543 -73.34080 -67.67451 -78.43071 -76.22989 -80.25868 -74.45648 -72.57202 -87.15350 -85.36338 -81.33304 -73.96200 -57.10164 -66.75761 -56.96607 -44.30859 -39.57037 -27.58476 -21.89393 -21.15973 -27.95720 -33.81048 -34.71478 -44.65107 -50.39428 -51.72582 -59.92387 -73.06202 -79.78132 -97.66488 -102.58850 -103.86611 -99.60017 -88.73778 -83.03488 -64.09573 -68.80145 -48.46456 -30.06205 -15.97855 -4.55537 -7.95545 -20.40863 -40.40279 -39.55944 -48.74828 -49.53732 -64.34551 -59.50886 -66.40818 -58.88240 -72.48065 -65.19106 -58.95476 -39.95623 -41.33978 -51.02072 -59.19009 -53.78569 -36.91568 -29.78084 -44.60876 -42.09135 -73.96104 -73.30736 -65.00454 -60.90380 -63.46705 -74.71695 -56.78781 -51.02713 -50.81634 -63.40242 -61.97428 -63.58413 -78.87508 -73.31801 -88.20069 -91.64489 -85.82802 -78.30217 -76.03302 -76.31071 -79.83871 -81.28755 -80.71319 -84.66014 -75.10618 -86.94239 -91.31654 -101.55577 -96.80409 -94.25636 -98.02818 -68.88250 -69.16318 -49.96814 -39.66025 -30.45918 -34.68269 -34.91089 -56.07648 -64.04928 -66.85147 -61.60963 -69.41226 -81.33792 -92.07401 -103.81426 -110.55932 -104.72034 -104.78606 -95.05217 -78.93745 -77.99635 -77.05332 -75.95686 -65.43090 -69.77367 -69.48994 -75.54664 -82.26561 -78.84126 -68.09714 -64.30542 -85.10725 -94.62720 -82.33225 -84.13324 -84.96252 -80.40717
-95.75978 -86.40594 -80.77445 -80.86480 -77.34580 -63.49499 -51.65206 -40.96685 -46.35139 -56.77154 -64.83910 -65.83765 -63.54151 -54.01393 -46.62086 -50.24016 -55.17145 -79.96048 -86.09337 -107.27007 -118.62120 -117.92395 -130.31844 -125.11978 -109.65853 -92.54483 -93.43254 -101.26553 -130.93952 -143.93781 -161.31590 -166.40377 -160.87792 -150.54147 -138.78788 -126.98303 -125.36546 -123.99879 -138.61079 -138.35523 -155.09519 -161.24843 -158.41068 -129.56589 -126.73271 -122.74097 -129.06065 -143.69189 -136.02954 -131.98365 -126.94722 -110.70448 -93.25594 -96.35441 -106.30103 -99.07951 -74.68428 -70.57508 -45.72916 -0.96391 23.65986 44.11290 65.72224 73.43181 46.91195 31.73511 18.83630 17.28856 30.06067 45.03869 49.35650 61.41064 76.49052 98.89387 108.30258 97.70208 113.44262 102.83488 139.17757 146.75374 152.73308 120.26045 63.54612 53.89195 10.63364 -1.82059 4.80546 15.90703 27.79191 39.30754 63.24002 105.12894 149.93301 172.19532 195.57886 218.19036 196.91918 196.32481 202.51515 172.99268 136.35267 130.70214 115.64456 75.68124 41.87307 41.13466 47.28965 38.87123 34.47928 16.78805 33.23506 57.39712 106.89110 137.55995 123.23358 163.18943 203.20099 228.35633 214.14701 129.58730 81.79822 44.61778 29.28151 4.00258 1.53888 -0.07338 -26.73119 -26.83732 -30.37925 -26.75635 -27.56525 -33.46004 -41.39371 -39.21665 -45.64211 -45.50929 -56.39219 -57.94388 -64.67913 -73.85067 -65.20626 -41.50131 -32.88857 -19.04692 -4.27424 4.74574 -10.14343 -19.81225 -33.56330 -32.85838 -44.70454 -60.11928 -79.55135 -81.44844 -87.32224 -82.82145 -83.35370 -75.91949 -67.51321 -68.07272 -74.44749 -79.69084 -77.57211 -66.53562 -55.65971 -47.31491 -28.69850 -32.46698 -31.83350 -25.99140 -14.59932 -14.03627 -30.70069 -41.11810 -42.68811 -50.39641 -57.18771 -74.39776 -72.54684 -75.41370 -89.02847 -98.29675 -100.15966 -101.76883 -89.93599 -87.33505 -83.68561 -65.00858 -50.55886 -47.33159 -28.99304 -7.73544 5.79902 4.63107 1.50704 -6.48748 -31.86365 -28.08797 -36.65098 -52.74069 -60.79289 -69.76856 -62.66195 -58.77373 -58.45844 -41.96093 -35.39219 -39.04584 -41.40316 -46.80474 -32.75959 -21.91837 -24.55233 -28.52569 -43.07489 -49.77050 -74.29467 -64.18053 -56.12735 -61.49596 -54.84373 -49.54285 -46.44247 -50.92978 -56.35762 -59.27236 -60.98415 -60.49238 -63.38091 -78.05076 -90.02067 -82.19951 -61.67244 -55.16107 -63.29734 -76.98359 -71.43999 -72.81078 -75.08442 -66.08670 -70.20917 -84.94938 -89.06511 -94.79300 -92.35212 -85.55010 -69.37446 -55.61454 -44.61267 -29.39961 -32.88855 -40.48062 -55.53964 -73.24346 -76.69145 -75.90074 -76.03321 -72.79234 -79.50977 -87.37680 -96.73207 -107.90421 -113.74986 -106.03777 -89.45436 -86.73611 -78.91023 -79.51798 -79.31683 -74.98919 -75.60802 -77.76428 -93.00253 -94.92111 -84.46631 -81.21405 -75.47801 -86.69492 -91.84939 -93.93433 -93.94551 -88.47254 -94.31955
-96.88852 -94.08443 -86.43854 -81.11647 -81.39396 -64.57564 -48.91958 -47.94913 -46.19648 -44.02031 -45.99373 -56.67664 -58.52978 -54.99465 -50.95207 -35.89394 -55.31373 -65.86271 -86.67221 -103.65690 -114.43002 -136.05405 -153.20737 -145.33610 -122.00182 -96.62134 -92.47789 -91.22495 -118.93917 -140.41439 -150.50583 -161.44380 -165.06070 -159.30000 -140.75839 -129.54574 -129.92212 -122.40520 -123.18186 -128.19195 -142.76971 -151.87924 -155.46010 -150.80507 -148.74002 -156.78922 -162.01323 -151.27746 -153.53643 -142.56597 -135.43969 -114.24612 -90.52663 -110.24007 -102.91534 -101.31232 -90.99298 -73.51566 -48.20172 -12.98818 15.32521 36.90316 50.91951 58.82283 63.19977 60.17534 22.51719 28.33124 74.53312 76.79471 81.30370 90.49144 98.58276 124.39844 136.20067 136.81049 145.30240 154.33977 177.07015 176.55492 165.91620 147.42732 116.93333 81.07562 39.86081 40.05527 25.84241 36.33159 61.76849 92.64569 94.40132 121.45165 183.17519 209.93197 235.66905 229.54781 220.34482 214.21637 212.75524 188.56812 136.03312 121.86513 121.00681 90.18858 70.88271 51.21780 57.92099 63.16145 53.54567 43.62528 49.15076 72.53941 123.92856 157.10275 149.82048 169.51639 201.92496 220.61871 194.46407 105.57660 54.61695 44.37536 4.04705 -3.78925 -4.67873 -0.01848 -25.17197 -18.68296 -17.75990 -9.82888 -13.53367 -19.35646 -34.57626 -37.73100 -36.29414 -42.85500 -50.52613 -60.03429 -70.60968 -73.22172 -62.56890 -38.78574 -32.93939 -17.83347 -19.49878 -2.34336 -11.66639 -16.11183 -14.42892 -25.79279 -37.19770 -57.78474 -67.83135 -75.01244 -74.28719 -79.84656 -71.64838 -70.94373 -45.61535 -46.74103 -62.34514 -62.07006 -55.28091 -42.81297 -33.83036 -26.92402 -26.24880 -39.29153 -30.78749 -22.05518 -26.39238 -21.77404 -37.35624 -42.71849 -49.42345 -67.70574 -76.29346 -76.50354 -81.39168 -94.60539 -98.20443 -94.80667 -102.97705 -93.16402 -88.71446 -74.64341 -64.56299 -57.62073 -47.24807 -31.14537 -27.17725 4.31669 6.60180 4.46686 -3.48755 -6.51156 -12.14412 -21.22232 -39.36483 -53.91260 -65.77794 -54.98575 -55.75897 -52.43916 -36.00426 -22.03473 -32.67789 -28.21429 -34.76154 -31.81375 -34.39632 -17.57924 -12.39806 -21.82949 -43.66633 -48.11548 -65.03459 -53.18226 -62.98881 -60.89685 -51.51586 -42.78662 -35.85860 -41.69874 -48.55238 -52.64648 -59.83915 -60.21580 -68.72602 -83.64150 -83.35806 -76.35380 -51.73623 -55.97360 -60.45046 -63.60090 -60.18053 -55.05035 -58.62686 -56.99316 -58.33433 -72.31559 -72.79588 -86.69160 -80.42926 -75.53188 -65.72546 -51.20295 -37.19873 -29.96175 -39.98778 -57.25622 -71.00517 -69.00487 -75.59443 -83.17454 -86.26689 -88.30222 -90.11938 -97.19570 -104.51199 -111.17928 -113.79797 -106.00060 -99.13393 -90.73160 -84.62436 -91.97062 -86.92524 -86.50046 -93.82937 -98.58525 -99.03262 -98.48638 -91.67191 -85.89082 -87.52383 -92.12258 -97.50705 -92.51888 -102.07251 -96.14757 -93.53345
-103.17650 -103.77072 -95.90577 -77.01426 -74.80911 -72.97729 -53.29503 -49.95696 -44.36630 -37.63825 -32.05422 -41.26579 -43.09888 -42.98042 -38.19638 -33.57422 -52.88233 -66.88812 -86.94616 -112.10359 -123.01931 -142.35462 -154.57294 -147.06618 -129.44215 -100.42774 -91.80152 -88.69059 -109.16486 -128.14741 -143.67994 -154.45555 -157.26499 -168.65594 -150.13100 -141.12301 -139.70150 -122.50206 -122.23646 -120.56089 -119.65863 -148.26580 -166.01262 -159.08841 -158.39969 -156.47595 -165.48259 -147.19474 -158.60877 -151.79173 -148.33181 -124.07199 -121.80738 -117.65773 -124.23658 -105.34916 -95.35724 -82.53232 -68.42129 -31.56912 -10.80240 -2.91948 27.60685 38.73481 51.39536 53.53938 41.01748 73.64870 86.28957 108.11445 117.16748 135.53196 134.08717 133.58225 146.14919 155.07362 163.45336 172.77808 197.87810 195.12542 192.85668 180.13299 137.49188 101.14155 83.66025 51.30928 54.04856 61.16630 118.47375 122.99761 171.38047 178.89619 198.98438 223.98696 248.91937 241.31780 218.50544 202.31480 203.47158 153.17752 120.90974 92.67385 120.22838 121.60949 104.85097 75.69288 73.91048 64.52024 57.42506 53.41238 53.15975 76.99282 95.28075 132.23379 132.42805 177.35802 179.96719 177.80990 126.72385 73.27602 50.83472 34.94251 24.91134 11.61533 24.73892 1.83271 -9.05821 -17.33246 -15.33733 8.56037 3.04352 -9.10356 -8.73325 -23.82900 -21.97337 -29.72324 -43.82098 -58.02325 -61.64186 -74.11419 -65.69759 -40.86186 -44.52041 -39.66948 -26.62403 -13.72555 -6.32242 -8.91579 -11.17524 -12.25183 -32.85174 -31.35727 -57.55718 -67.06049 -69.49677 -66.83539 -57.66419 -42.49290 -36.88404 -36.03351 -45.02313 -43.07026 -46.55743 -44.12699 -30.98897 -26.59265 -31.92725 -34.21046 -41.63118 -35.45128 -44.12928 -49.35243 -56.20742 -62.80364 -74.77171 -74.77687 -79.41957 -89.40345 -99.13506 -91.63104 -104.90849 -102.47439 -92.48888 -79.34802 -69.13652 -73.45178 -55.90971 -52.20872 -49.45678 -39.27447 -30.62251 -12.37215 -2.30650 5.91885 4.34302 7.92677 2.25234 -22.18163 -38.64437 -46.77886 -38.30392 -32.24849 -26.90708 -26.50813 -20.33268 -20.20345 -13.67442 -23.79283 -26.20143 -21.61034 -21.45721 -16.52249 -14.95200 -23.19745 -33.32515 -52.93661 -49.42451 -36.70256 -38.99164 -43.76508 -44.01953 -38.34378 -32.57386 -38.39612 -45.74807 -56.15899 -72.98023 -75.43958 -79.01267 -82.80847 -87.55426 -77.50380 -62.33269 -52.91726 -49.66282 -53.67441 -56.66231 -48.97086 -41.41190 -39.93058 -50.70295 -59.91756 -60.64890 -69.44065 -71.33665 -62.48841 -53.91088 -48.60562 -41.64482 -43.93193 -49.60474 -68.12001 -75.10287 -71.92639 -83.76028 -91.65567 -100.55943 -99.41879 -98.68678 -101.58797 -105.92697 -112.36504 -113.98820 -116.41954 -110.15315 -100.13986 -95.53850 -99.77152 -100.97457 -98.06152 -102.73640 -101.86343 -101.60519 -104.17606 -99.67787 -92.43138 -89.82806 -99.42054 -97.42173 -104.86380 -97.63331 -95.96609 -98.14938
-99.86577 -93.43524 -91.40698 -76.07947 -66.64398 -61.44378 -58.76054 -53.36461 -45.79700 -26.33685 -20.70918 -26.41661 -36.75715 -29.53690 -16.09253 -24.54123 -27.73929 -62.52852 -80.52947 -87.65584 -114.61758 -138.62491 -153.39154 -136.92684 -123.33543 -99.13267 -94.98414 -78.21932 -95.80660 -103.84762 -128.85256 -150.56562 -157.39993 -168.65964 -156.91785 -151.26746 -137.16420 -126.43664 -120.00515 -115.49012 -128.13873 -138.66449 -165.30780 -168.52143 -167.24042 -151.99201 -142.19164 -137.37343 -131.98730 -139.64756 -153.87174 -140.98713 -143.33776 -136.83086 -134.42749 -118.85973 -109.90167 -92.32075 -70.14314 -46.77315 -32.97499 -13.14295 -3.26212 19.72112 49.56179 58.39917 80.27025 86.50861 115.85155 121.60801 136.08781 146.71604 144.77310 147.88088 150.73423 151.76420 154.22196 156.84435 176.26614 212.57920 207.97064 185.82608 176.92007 141.89152 131.94500 105.84255 105.72550 151.73081 182.25570 185.03767 192.87555 216.75137 216.80653 242.44693 239.39480 230.68945 179.62500 173.76821 133.69732 99.65777 74.50662 89.18048 95.72105 108.20257 90.37075 70.25648 62.57413 52.75289 53.94996 47.64408 39.62357 27.95925 74.55868 89.56515 116.34502 129.67654 166.61136 153.97509 119.88212 76.23937 65.58680 51.62723 39.05253 32.59247 45.83181 28.46169 14.26831 8.68370 26.33247 25.32533 20.03098 12.40178 -5.58535 -4.86729 -15.62284 -28.01789 -41.96045 -59.46182 -63.52326 -65.02891 -71.71301 -62.62309 -52.38951 -53.84134 -37.96139 -24.92628 -21.01064 -1.72392 -11.29326 -5.86118 -3.46056 -25.79733 -21.13040 -42.62657 -39.67142 -59.29743 -39.48131 -28.24855 -25.15984 -21.45799 -35.08923 -42.59437 -44.91840 -37.22251 -37.94631 -34.28341 -29.78185 -47.71446 -50.24444 -54.73198 -52.42410 -72.27995 -74.80663 -79.45527 -75.77537 -77.89252 -89.43704 -100.81111 -101.02199 -107.82690 -109.40044 -93.97579 -72.81976 -70.65646 -62.83379 -57.69137 -57.37804 -57.36536 -53.25940 -56.02418 -43.21245 -27.82802 -9.84142 10.15331 13.16595 22.88048 11.27776 -10.16087 -26.06984 -31.52484 -31.32800 -26.60418 -21.78099 -19.97817 -9.33629 0.51278 3.51256 -4.10969 -3.35800 -9.48353 -6.50243 8.80379 2.36301 -13.17234 -31.14252 -40.90445 -35.26962 -33.27651 -29.75173 -27.49148 -27.51292 -37.94585 -40.14444 -44.00026 -55.91831 -66.16426 -80.79787 -77.95454 -82.58500 -83.26889 -79.06589 -78.96017 -63.15402 -61.83882 -50.82865 -45.54255 -43.61520 -40.33958 -30.52902 -29.54173 -35.21940 -41.36117 -49.85769 -55.00750 -57.45675 -58.50298 -56.50507 -53.42411 -49.30006 -56.06910 -72.80478 -70.46071 -87.38515 -88.92778 -87.52921 -101.93288 -98.55169 -102.82442 -107.78580 -107.33305 -113.16999 -111.79731 -112.38556 -107.72538 -105.71636 -107.45284 -109.44031 -109.21032 -103.97272 -94.73009 -90.16244 -93.57262 -92.76316 -96.38400 -99.80725 -101.38914 -101.17985 -98.54130 -97.15472 -88.98158 -91.27130 -89.92836 -85.08936
-100.62838 -101.27932 -89.25232 -84.18389 -70.91430 -70.97445 -62.50553 -50.03857 -36.00511 -23.26557 -4.43390 -12.86784 -25.63277 -13.05501 -7.05058 -16.51716 -31.40603 -53.82180 -72.23979 -85.70693 -110.76898 -105.27605 -126.41576 -137.21662 -129.65247 -105.06485 -88.85964 -73.31134 -79.58295 -101.58894 -119.03770 -144.21931 -137.55038 -138.59495 -139.56560 -148.72439 -150.26712 -132.93720 -125.74059 -112.04282 -112.31926 -128.15885 -150.82446 -155.22959 -153.68099 -146.97901 -126.74053 -113.10746 -110.64291 -125.29163 -135.26339 -129.51578 -117.86818 -123.82640 -112.50326 -112.97477 -118.29966 -93.06378 -79.83302 -73.07533 -57.29389 -50.53706 -35.37224 -4.57393 22.69025 41.57220 83.03364 97.30593 106.66819 126.19566 129.96282 147.64046 139.85251 118.34995 121.72888 112.67095 110.69564 125.31500 145.48336 184.80913 214.90785 219.07400 208.88176 202.55358 157.12732 157.50393 172.48440 206.09776 223.05339 208.22165 247.84137 230.74284 234.88058 240.86121 217.92506 183.81189 151.50302 136.23647 112.34076 99.33433 51.13480 68.45935 89.41874 56.84472 51.60648 44.35404 34.39549 24.27338 32.14761 22.90513 14.23960 24.36116 35.41325 56.03774 88.21518 102.39173 123.51345 131.14790 111.41708 82.26450 57.66417 51.65611 59.09422 52.01240 49.08517 43.55084 38.31599 63.64884 60.67407 44.17543 41.93948 18.21586 15.14094 5.28474 -11.72468 -24.47275 -41.34524 -53.41407 -58.41750 -65.82675 -77.06651 -68.58165 -64.51708 -61.44041 -64.59564 -22.87156 -6.88176 -1.31696 -3.31802 2.14534 -1.82153 -0.92195 -10.96423 0.99398 -24.03683 -29.59511 -21.40623 -12.34414 -15.11389 -18.42825 -27.90940 -31.60774 -40.36635 -40.18889 -41.75591 -44.83639 -47.75208 -44.55822 -65.78918 -77.14530 -71.02843 -76.23786 -81.25261 -78.38441 -82.01250 -92.96634 -96.23895 -100.77324 -107.57358 -105.31467 -103.01748 -78.75273 -74.42507 -66.50868 -56.93862 -56.21804 -58.68236 -64.51915 -57.36357 -54.28184 -42.96297 -39.65717 -11.85944 2.75868 14.57368 21.32210 13.55071 7.76863 -20.56514 -28.24737 -29.35215 -22.22290 -15.04062 -17.17619 -11.02544 14.72086 16.56644 10.16393 -0.91904 8.25522 12.37765 18.01171 9.10302 -8.87008 -13.42250 -28.54208 -37.36702 -29.32807 -25.91809 -32.92259 -29.80128 -34.60155 -40.52509 -52.31199 -62.53370 -71.17096 -83.14252 -87.07453 -77.81716 -73.36303 -76.70511 -64.45349 -61.98499 -55.15673 -55.84104 -43.60372 -39.49876 -35.72719 -24.30468 -17.19905 -17.67755 -31.49807 -40.89474 -54.44583 -52.79051 -53.95742 -57.43418 -56.02148 -54.18842 -66.68603 -76.80679 -79.47320 -90.30049 -92.91131 -98.53765 -104.05784 -103.54476 -109.56398 -112.34436 -107.60042 -106.66150 -100.59341 -102.18189 -99.05456 -101.67873 -93.12682 -101.16800 -99.08317 -92.51686 -88.43583 -89.91849 -88.74927 -86.07526 -91.54910 -97.26912 -106.40227 -103.48309 -94.00410 -83.02044 -77.00327 -75.16420 -82.41093 -75.02005
-112.24409 -108.63557 -106.31425 -87.13287 -81.30928 -69.32703 -64.45190 -49.45346 -35.77351 -27.12713 -14.24429 -9.37701 -8.73869 -13.11617 -6.39279 -14.58090 -29.33521 -53.44071 -72.63151 -79.46210 -85.88735 -94.59243 -126.00386 -125.44977 -108.83193 -89.59887 -83.77657 -57.85928 -74.02787 -89.91490 -118.75419 -121.81361 -128.92768 -110.85906 -118.12942 -120.38352 -142.35181 -148.49646 -130.38218 -117.56333 -115.60107 -125.51813 -132.13799 -142.82235 -142.46043 -119.37924 -102.52945 -94.35421 -91.87759 -111.21237 -122.71400 -117.94057 -102.58907 -94.95846 -90.66737 -106.34191 -107.21964 -101.50661 -94.35898 -79.15236 -69.79113 -65.40333 -51.90210 -41.79368 -14.33245 29.87583 63.77107 90.52480 102.54641 113.19842 127.62331 109.96289 98.91297 84.58460 71.19047 64.79841 87.69576 93.68658 142.59071 183.81482 214.33904 231.48372 225.02459 206.86607 207.18404 186.03825 219.77285 209.32901 211.60275 213.54499 216.34022 224.84603 219.49215 207.22511 167.50450 153.88175 144.02859 90.67137 66.09773 47.65319 22.95741 39.37778 44.13695 48.40791 40.26292 18.69955 16.17649 4.36176 9.80523 17.82988 8.59693 7.79468 13.99432 50.84454 66.41443 107.45989 119.81847 109.84546 102.37829 96.29895 68.93696 68.23477 59.86103 63.00384 53.76613 42.29753 57.86824 73.60672 64.65283 58.83602 45.04677 27.29038 10.09737 -10.33311 -5.90358 -20.20354 -33.82839 -50.42489 -56.52594 -65.16541 -80.72104 -75.95898 -73.13384 -62.84425 -60.69185 -13.57007 0.78565 -5.47096 -9.99102 -8.82830 -10.80389 -12.80653 -8.59050 3.75097 5.17482 -11.35670 2.53047 14.02392 8.21288 -12.22007 -28.41695 -36.66156 -44.93452 -44.41041 -56.82522 -50.73622 -51.72835 -57.38825 -64.47584 -79.65678 -81.44208 -90.93557 -86.91807 -83.48596 -92.53308 -98.23719 -97.69988 -99.83254 -98.86500 -102.04961 -89.10533 -75.32824 -65.33862 -58.17690 -64.06855 -60.92685 -66.68058 -64.88432 -60.49027 -39.50499 -25.05694 -18.82945 -7.26635 -0.82345 17.13135 27.55634 20.03055 16.68075 -5.08930 -22.21923 -33.71057 -26.97866 -19.15249 -10.63935 1.33076 19.08028 30.45848 26.27497 26.11665 26.59168 27.32888 38.52679 15.19571 8.75515 -8.98537 -26.85765 -36.89985 -36.73829 -39.91262 -41.05742 -41.78332 -52.42392 -54.81145 -70.60974 -65.01862 -79.06579 -80.28174 -79.65260 -76.58005 -66.05211 -64.65228 -58.85835 -52.82628 -47.09076 -52.06334 -44.16340 -29.36266 -12.14220 -18.53122 -12.79497 -27.36333 -34.46035 -43.96328 -48.52074 -61.88732 -57.94159 -63.51327 -67.32399 -66.07150 -65.00496 -73.73518 -83.97507 -89.83613 -101.84803 -98.40616 -103.94168 -108.50824 -116.38124 -118.35485 -108.12889 -93.42573 -92.11037 -91.05669 -90.40193 -86.51136 -84.26797 -83.10758 -93.45748 -84.68489 -82.03278 -81.85478 -83.85986 -78.16302 -84.87357 -93.85927 -99.64072 -102.02045 -88.82824 -80.89948 -74.74333 -71.46268 -56.52754 -56.53652
-123.26690 -110.88122 -112.34316 -103.63565 -98.88130 -93.89421 -77.04157 -69.49901 -48.09306 -35.30459 -20.13327 -16.00226 -18.58574 -0.62760 -11.38895 -18.35691 -34.44289 -51.55584 -72.47815 -75.16049 -84.17291 -96.75166 -128.16757 -135.30441 -121.41320 -97.56160 -72.83782 -51.01886 -50.47993 -89.76263 -98.85648 -110.65240 -98.20903 -101.46130 -101.85034 -109.33885 -140.49416 -139.77545 -132.53194 -122.47451 -119.02397 -127.93790 -136.11109 -135.67556 -128.70873 -114.81390 -95.87154 -86.16845 -95.12118 -105.89064 -135.93168 -121.50969 -94.09030 -73.49470 -77.92826 -88.16798 -94.76803 -93.08425 -106.65296 -92.72160 -78.60805 -59.98404 -41.92829 -22.47469 -5.18964 31.18101 53.25578 65.89449 80.42069 92.31928 97.52579 89.81610 63.92471 50.15730 48.89698 58.67042 83.08948 111.32832 140.82273 157.44156 181.83039 194.79703 185.89102 191.21575 192.73245 208.42406 200.94333 187.81218 198.89094 171.35628 174.89460 172.07584 171.03842 164.07612 165.88333 132.51757 114.64618 91.34802 57.26867 40.24231 0.95850 8.09070 17.71238 27.42486 16.17625 10.89347 -5.65859 -6.39331 -2.01074 -3.89269 3.93783 11.04173 8.21466 36.56627 53.71570 80.51776 92.08451 107.60124 90.83539 66.71402 52.30681 45.40470 49.97420 41.55975 36.95197 41.49214 51.65659 58.25060 54.67542 52.14212 48.12728 25.57402 1.66767 -18.24124 -16.21993 -15.64757 -37.93671 -55.33486 -55.41083 -69.83180 -75.76467 -79.30620 -74.52821 -63.38903 -42.23593 -15.00866 0.33912 -11.33005 -19.06208 -21.53677 -22.74107 -25.07582 -10.40857 10.49517 7.30603 6.86211 22.62574 35.14238 24.99030 5.85193 -11.35390 -42.99058 -44.68927 -60.99914 -58.09177 -75.43313 -76.64524 -65.10694 -86.01661 -88.76016 -97.63475 -98.27418 -95.23697 -98.54688 -105.11824 -108.78951 -106.32992 -91.31739 -83.51610 -77.12183 -58.83844 -64.27989 -63.21138 -60.73968 -62.24317 -75.48704 -74.21090 -69.90371 -55.80888 -41.18980 -23.97864 -9.41433 -9.49845 2.15549 17.58294 18.73611 18.49454 9.95221 -14.10999 -24.73203 -27.09858 -25.70984 -21.43893 -8.09928 10.15030 24.85950 43.34510 38.46649 37.80317 32.41724 34.97908 35.10172 21.99169 12.11444 -3.79536 -19.19785 -29.72670 -41.01289 -40.89993 -45.71257 -53.74315 -59.75419 -61.83462 -78.43719 -77.67917 -79.21296 -69.23373 -75.81651 -69.65165 -59.61055 -62.22752 -37.82347 -40.00095 -35.44639 -36.25683 -31.12780 -27.93959 -11.24606 -11.73372 -12.74177 -36.13765 -33.75095 -44.47712 -63.57483 -72.96708 -81.79386 -81.37321 -81.51468 -80.07709 -75.01810 -83.30928 -88.71094 -89.32699 -96.95150 -100.69993 -105.41999 -110.35066 -116.19187 -115.83424 -110.09074 -94.64899 -83.36530 -85.05253 -79.22491 -80.70776 -79.01077 -86.01983 -93.66052 -88.03698 -77.09498 -66.79972 -76.77306 -79.64714 -83.57753 -91.99646 -101.49492 -86.53153 -92.23017 -78.79705 -72.20582 -60.33002 -51.63163 -41.59591
-115.94378 -102.32165 -108.50793 -104.53570 -100.53882 -84.55548 -89.11707 -72.47944 -66.12024 -48.81700 -37.13878 -40.39601 -22.45590 -0.73259 -10.70118 -16.95064 -46.17164 -64.63852 -89.10030 -93.37537 -98.25889 -120.82378 -120.80620 -126.43673 -125.24372 -74.03153 -60.75235 -46.30457 -40.51036 -66.07107 -83.22555 -83.20180 -86.89101 -103.21505 -106.79924 -115.51175 -138.92700 -125.19858 -123.39715 -112.92116 -116.65713 -123.61295 -135.78763 -148.10701 -117.56682 -94.84348 -87.40747 -83.35416 -97.60975 -108.75785 -121.16355 -119.05712 -103.97000 -64.77909 -64.36303 -60.08904 -71.87668 -72.87668 -81.36142 -88.87842 -67.84192 -56.12312 -20.15330 0.51422 13.49614 32.91203 62.86547 52.67518 62.91791 65.17511 91.20868 68.62430 43.23143 45.04282 39.63623 80.64648 108.98236 128.06613 140.20632 140.19197 116.86747 100.17590 131.26138 157.19975 186.00331 191.47543 184.60033 158.87855 138.38342 133.30315 134.73681 140.34198 144.76186 148.70502 145.79764 107.80078 81.10065 69.42776 38.67808 19.78456 -6.13003 0.57370 16.08104 20.57689 14.21651 2.82797 -19.20085 -19.51198 -22.45667 -4.95059 16.14101 3.46499 2.93302 24.35343 43.46603 44.24756 64.03353 78.61557 77.37244 48.42579 34.66645 26.07149 20.46150 24.83120 26.26682 12.59126 40.45955 44.31963 23.55060 38.65635 41.87597 22.84976 6.04307 -25.52084 -23.11134 -33.86132 -39.87206 -61.95055 -59.58091 -66.59567 -71.38228 -88.14675 -77.12906 -64.57366 -40.61684 -24.81815 -18.57659 -22.65540 -37.10610 -45.83655 -41.36848 -45.17376 -5.73336 18.36463 9.39492 18.50288 27.59412 31.79990 27.39025 13.22429 3.04769 -21.23622 -45.12394 -47.90146 -59.09111 -61.82087 -74.35240 -80.01393 -83.78404 -89.94226 -92.70339 -97.85708 -98.29228 -98.97174 -106.71623 -107.32715 -101.95999 -89.23572 -91.35074 -66.22071 -55.58302 -57.28422 -61.79612 -63.18510 -72.11604 -77.86820 -76.28577 -64.24471 -56.60102 -41.70479 -30.00914 -10.18206 -1.70022 7.28714 8.57426 9.43830 11.10208 2.26062 -6.51433 -18.93905 -19.28909 -4.47740 -2.68869 -2.11072 18.01725 32.59351 40.01482 41.76777 43.50874 30.76980 24.33867 27.04539 21.09567 -2.19004 -11.03100 -19.72029 -25.43890 -28.37770 -48.67684 -48.86024 -61.91445 -74.02685 -66.55946 -58.35052 -66.41702 -72.68243 -67.88255 -63.98441 -65.22066 -61.21347 -51.75421 -37.57878 -28.11980 -31.07546 -29.17169 -29.70915 -18.01312 -5.88505 -7.35895 -21.93985 -41.72613 -44.60040 -49.10819 -68.28786 -80.31505 -88.14910 -95.03391 -95.64786 -83.80777 -87.15419 -83.35421 -85.14215 -93.97229 -97.20720 -109.60954 -111.40291 -115.80498 -111.28866 -113.06750 -105.01211 -87.90018 -83.06477 -80.74018 -80.27975 -79.77661 -77.38285 -77.84465 -79.88503 -76.64435 -67.79942 -65.55170 -70.33135 -78.33764 -85.53895 -84.25328 -77.54509 -87.41209 -80.98774 -81.29153 -78.78549 -61.16531 -47.37490 -32.03283
-109.69839 -101.22855 -94.66580 -87.92465 -92.42954 -82.74081 -84.63485 -87.97901 -81.44173 -64.88444 -61.67544 -48.81053 -26.24666 1.43010 -2.41730 -12.56963 -47.92568 -83.91736 -100.53814 -100.21472 -120.80710 -106.52388 -98.57037 -114.18547 -111.36150 -82.42902 -66.89476 -32.00663 -35.22863 -51.13263 -66.35725 -73.85530 -83.87597 -110.99190 -127.94564 -139.28933 -125.49309 -114.14751 -84.96968 -87.29242 -93.78104 -107.62092 -128.45318 -144.80704 -102.92201 -80.97063 -79.81268 -65.89662 -57.44202 -86.11748 -108.42301 -121.00529 -104.85663 -72.74228 -50.97437 -50.64426 -46.98422 -66.01896 -75.63427 -70.85595 -54.73528 -23.85895 -1.00980 24.77770 54.83112 60.79950 61.96691 46.05490 29.65397 52.38475 50.22485 49.44274 45.04040 46.11425 86.35795 105.26661 128.41273 123.87521 115.31626 112.57508 92.72530 96.65972 98.43007 126.56731 159.81677 159.25212 150.12261 127.78240 112.04276 117.85181 125.95747 143.47044 137.93062 141.45007 115.91927 87.10047 53.70835 23.58409 21.95000 11.55404 -9.94419 -14.86785 -5.13524 10.29943 -3.84166 -5.08509 -21.16862 -25.15986 -16.41280 -8.47451 1.55997 -3.66767 3.99859 16.25056 22.88475 34.25125 47.98587 53.73684 54.57028 42.58154 14.66622 20.10983 2.08007 -5.63523 -7.90716 -5.40690 -5.74841 8.70169 10.54722 19.60182 24.85565 19.85582 -12.15996 -21.33252 -38.52932 -34.73593 -51.98728 -60.58727 -64.93645 -71.38066 -73.38363 -72.90956 -77.43044 -76.75321 -64.75770 -40.51862 -32.78786 -38.71917 -44.01599 -55.89868 -46.93524 -33.76429 8.13753 11.05528 17.37397 16.75208 28.73178 11.45060 6.63862 2.07552 -1.93486 -7.22026 -33.94079 -37.22852 -44.49785 -56.85487 -63.52703 -70.18122 -77.75168 -81.51982 -91.43085 -92.08380 -83.68431 -94.11920 -102.62593 -105.44580 -101.82101 -99.80806 -81.58485 -70.58214 -56.07526 -56.06007 -70.55711 -82.20317 -77.28712 -88.44987 -74.81944 -66.52900 -56.93353 -43.14980 -25.39380 -20.12779 -14.86027 0.02466 4.64641 -2.02994 15.72060 12.01236 2.85461 -1.17914 7.05573 4.11539 7.18767 12.45008 17.84721 33.49618 37.90647 33.20459 10.24226 17.35216 14.89204 9.80217 -2.51935 -9.51916 -16.72455 -26.89134 -34.35140 -32.55147 -43.42194 -52.90171 -57.67891 -48.73554 -46.80079 -47.97845 -57.37675 -62.78402 -60.40479 -57.98356 -59.93321 -52.39679 -48.86759 -38.63871 -22.18053 -11.77381 -17.29580 -16.13239 -11.04675 2.64957 -14.53327 -17.74357 -32.62685 -47.87063 -55.08828 -71.63318 -78.14810 -85.18718 -96.12217 -100.28481 -100.13975 -95.01448 -99.02333 -92.45564 -95.79844 -99.17752 -107.62834 -111.04985 -111.16275 -104.07955 -109.54299 -105.71595 -97.59843 -87.64344 -77.15631 -73.87944 -69.29567 -68.39911 -64.48945 -63.70413 -56.76516 -58.16998 -56.21003 -58.64651 -70.77378 -77.94340 -69.89305 -56.93072 -67.58354 -76.58790 -79.79280 -66.74667 -59.86244 -33.08392 -30.45989
-117.11960 -99.04822 -85.03364 -71.62643 -74.84043 -76.42012 -74.38745 -80.83473 -73.93095 -66.57606 -63.06615 -58.91954 -45.26831 -17.86873 -12.18200 -18.15989 -57.08192 -87.31618 -104.96697 -103.65489 -100.99761 -80.43794 -66.21932 -81.04338 -100.90082 -109.99755 -75.88043 -47.29817 -43.31160 -44.37077 -57.97774 -72.37506 -83.95174 -98.52363 -129.02126 -133.37592 -132.40818 -104.36978 -85.93738 -70.42879 -76.66929 -104.01138 -121.75442 -124.06198 -94.16181 -65.37762 -54.61088 -49.68906 -50.41715 -57.80435 -76.58347 -93.45368 -105.36620 -68.19803 -46.35551 -45.41958 -38.61550 -46.10298 -52.79510 -65.91498 -53.60717 -16.59157 9.63076 45.48154 73.21040 68.30085 51.78166 34.05034 31.45165 19.04578 27.47478 34.19595 63.72112 70.06067 90.08747 109.94024 111.52304 109.08428 94.88398 83.16357 81.21101 57.44917 85.61841 102.10198 146.08638 145.56298 128.52300 119.90717 94.76102 113.20566 130.36537 150.53342 142.78219 139.87943 113.84334 74.36865 40.97452 11.79553 3.22832 4.89245 -12.80920 -9.17920 -5.05229 -8.18933 -10.95916 -26.12572 -22.02842 -28.91513 -28.90916 -25.63686 -14.71152 -19.11989 2.31554 11.32766 10.71524 26.77697 42.91248 43.14590 42.97702 31.73443 -2.69587 2.74307 16.30435 -1.29327 -21.92701 -27.24348 -24.08256 -21.92862 -20.63217 -15.69829 12.29541 19.44594 -5.45590 -16.19014 -28.35916 -36.10553 -46.53895 -55.25209 -62.66462 -64.11621 -61.47168 -61.68106 -74.72958 -76.15981 -72.81698 -46.53603 -51.20460 -57.80327 -61.41992 -49.83636 -44.29194 -17.64798 3.88737 21.98654 21.16121 17.31021 12.30895 4.19483 -12.34287 -7.88073 -8.14413 -21.64990 -27.07443 -35.02024 -32.46898 -43.29025 -50.14681 -59.13138 -63.61198 -80.04374 -82.73640 -81.26096 -80.41805 -82.45411 -90.38132 -100.04154 -104.39129 -97.12672 -92.19788 -72.00037 -65.79042 -71.28149 -83.73779 -93.50894 -91.70080 -82.82126 -72.78112 -57.07106 -54.40799 -33.50658 -21.81998 -17.98092 -21.99639 -13.87127 -10.53246 -5.46618 6.11323 7.49910 6.83898 16.09402 21.96676 23.44095 20.74812 20.47367 22.32778 28.87528 27.62129 12.08960 9.30631 -4.79854 -2.56196 -5.35493 -4.84885 -29.33496 -29.37944 -37.20484 -37.23788 -53.98200 -51.85879 -58.64574 -48.38746 -39.73290 -30.63085 -36.79755 -40.13721 -54.15983 -63.33548 -49.01571 -53.61410 -50.27800 -41.78139 -21.33280 -16.44221 -10.20326 -8.11689 -8.34523 -0.10032 -6.41654 -10.18779 -26.71209 -31.29233 -51.25085 -64.22079 -74.11178 -75.65956 -80.53513 -93.01655 -99.83654 -101.72809 -100.69653 -96.27716 -103.43138 -105.47217 -103.18674 -111.44432 -111.68256 -107.66227 -101.65621 -110.77428 -115.38358 -104.48245 -101.05651 -96.15885 -91.16157 -76.65167 -67.45986 -63.02141 -62.44397 -55.86821 -47.43334 -39.87719 -52.23174 -62.86820 -73.50729 -58.98631 -52.39207 -57.32173 -66.34548 -75.28674 -71.97398 -44.92984 -25.87229 -12.71896
-98.63155 -93.89546 -84.83046 -77.20395 -71.31777 -71.68131 -61.17522 -59.80480 -63.98932 -58.55115 -52.36964 -48.80139 -40.12598 -19.76577 -12.92113 -23.87024 -38.74740 -82.82360 -88.41679 -90.58702 -84.76730 -62.81463 -59.35670 -65.41551 -82.93964 -99.09239 -88.62695 -64.52493 -55.44953 -45.53932 -44.20206 -51.76556 -73.19046 -81.48532 -118.61828 -135.63934 -138.13447 -125.87695 -68.85630 -65.78029 -73.14212 -89.25423 -125.95471 -123.69210 -99.62846 -65.86699 -54.05530 -21.98745 -38.35794 -47.87047 -73.30044 -87.99434 -100.95929 -74.12236 -58.98287 -43.87069 -36.54339 -15.39136 -44.66833 -52.21760 -35.28996 -11.55189 31.66419 53.43869 68.19798 67.13431 42.49349 19.58918 7.36266 4.66706 13.99037 28.45811 58.94256 71.23143 82.59452 85.62852 97.62623 92.39046 84.10081 63.17296 47.66482 59.98326 80.67729 115.35835 122.97325 129.64498 112.76576 85.05870 88.52717 106.31391 145.44648 152.62482 159.30703 143.54663 141.99663 89.31716 52.42294 17.66620 16.18371 18.96850 7.40610 2.25417 -4.00858 -12.69540 -19.53484 -13.74340 -19.62940 -25.03534 -27.51290 -35.33614 -29.91796 -16.74098 1.45707 5.93525 2.91951 8.18333 16.56505 17.09527 26.65389 -10.83842 -11.84314 -5.87770 -2.59421 -10.72804 -24.63405 -28.59346 -20.69932 -22.83991 -21.02690 -23.25648 -12.54872 4.61696 -0.01022 -2.61787 -16.06931 -23.53383 -27.45319 -38.87186 -42.31699 -50.59020 -58.61636 -60.37416 -69.66796 -85.87951 -73.07202 -61.92269 -60.98415 -70.13831 -61.12385 -61.47950 -39.20522 -19.94523 1.15721 17.26154 19.98823 7.01280 -4.75840 -16.13414 -20.51907 -19.24722 -19.34962 -28.45662 -29.21327 -33.50985 -38.93262 -43.59480 -48.30960 -53.09906 -56.40366 -59.50823 -68.37482 -70.25960 -74.05302 -82.29632 -89.46328 -97.75999 -110.97627 -94.75064 -88.41787 -76.13787 -77.80100 -81.13948 -90.85390 -92.83687 -91.22459 -82.07759 -69.22415 -55.85788 -36.17915 -20.78669 -18.01643 -16.88669 -13.04971 -31.02578 -26.32665 -7.32970 -6.51924 1.25917 8.15767 14.77292 19.37503 32.14874 43.94062 39.44868 37.83911 32.19897 19.14917 15.12594 -7.51224 -6.16567 -17.98206 -15.77491 -22.31567 -30.05227 -39.33857 -46.36071 -54.99595 -48.12479 -56.25814 -46.72011 -45.62557 -27.19372 -27.57570 -22.68784 -31.38021 -39.43113 -33.52246 -44.60987 -44.71271 -47.08323 -38.34244 -24.52938 -14.27544 -13.54476 -13.62060 -8.98723 -25.74225 -15.66201 -38.31147 -37.31221 -56.32426 -60.44274 -63.26010 -73.69122 -70.55002 -71.10657 -75.84399 -90.73167 -92.95530 -108.12545 -113.00667 -109.16690 -101.07358 -110.94710 -108.39791 -100.30395 -95.88172 -96.53006 -105.04985 -104.76256 -104.56030 -111.40992 -102.46342 -91.80774 -90.41491 -67.90982 -72.25561 -66.95904 -66.70828 -49.13870 -40.73051 -46.32074 -54.60719 -47.25259 -49.03477 -31.58770 -45.84773 -59.70373 -72.36960 -68.48017 -40.77891 -11.58611 3.13379
-79.77935 -89.79371 -82.94970 -87.17851 -85.94610 -74.44864 -58.30088 -60.80656 -54.46771 -46.35233 -45.69453 -34.58202 -9.48335 -5.87745 -10.66883 -29.71160 -45.17215 -70.22503 -67.48363 -67.26471 -71.70763 -54.43971 -44.29707 -53.73937 -90.59508 -108.88133 -93.27531 -83.66011 -59.62698 -39.06923 -37.61578 -44.23726 -70.58557 -81.10326 -89.77480 -116.46126 -139.01272 -129.04290 -100.96180 -76.00465 -75.62462 -91.03980 -119.03012 -125.80104 -101.45099 -89.50279 -59.23954 -43.89150 -41.91232 -57.92187 -57.10753 -75.93494 -91.29980 -87.42889 -64.25199 -48.92297 -24.01386 -10.73817 -18.64645 -30.94549 -36.38071 -4.00142 40.19365 49.61531 66.66389 77.26036 41.15718 15.46248 3.67584 3.27687 13.74253 36.32630 47.02824 68.22090 53.86577 60.06830 60.63230 59.29958 40.21375 39.70635 37.46258 62.75204 111.05617 130.51294 135.54156 138.02006 111.51944 86.67231 54.72189 86.04618 123.10729 138.70125 155.81300 151.39320 135.41076 112.56693 79.10018 50.52322 37.24887 49.26214 36.89569 19.34732 15.21446 -1.05438 -14.59453 -10.14744 -12.62743 -10.00344 -17.89137 -26.27518 -34.92199 -22.33372 -1.37692 -1.29795 -1.87425 -17.41982 -8.50249 2.61688 5.16526 -18.86024 -39.80670 -21.30211 -19.55736 -21.40914 -38.75591 -27.26931 -33.95879 -32.97049 -28.86709 -38.33519 -25.43699 -8.72072 -0.45015 4.41394 0.78315 -12.22426 -23.05708 -24.43767 -31.19842 -44.90348 -57.65275 -64.75713 -70.69391 -83.67461 -84.71725 -75.89379 -74.03519 -80.48445 -67.00863 -49.43085 -34.59897 -7.76277 -0.66656 6.11930 19.15946 4.06934 -24.73057 -30.66045 -37.40300 -33.76256 -38.95558 -39.95424 -44.42340 -43.34575 -43.12755 -42.32037 -55.23318 -52.07920 -59.30195 -69.19754 -67.53841 -72.90107 -80.00879 -83.47921 -89.88454 -99.41757 -110.24144 -92.55110 -86.88438 -82.49595 -76.05948 -84.45214 -97.55706 -93.83352 -91.12130 -76.78399 -67.30881 -47.53935 -26.31677 -33.51278 -33.24087 -30.57302 -32.38409 -33.15569 -31.28604 -26.86511 -22.03642 -4.74022 3.68947 6.75534 22.96656 33.45848 40.43033 46.06261 41.45888 15.77485 7.95735 5.82905 -7.48651 -24.35368 -30.62525 -26.68039 -32.50729 -42.40761 -34.18053 -49.44188 -51.10371 -46.30332 -48.85106 -46.09446 -40.27566 -24.71328 -15.29817 -16.37597 -26.02769 -27.58111 -35.00816 -36.68461 -39.81221 -42.58604 -38.76268 -14.88392 -13.25430 -19.80797 -26.62691 -36.42126 -39.69289 -44.85982 -51.48510 -55.49650 -55.28575 -62.20920 -69.81923 -66.25192 -63.00561 -68.71708 -74.03431 -93.14779 -94.68236 -106.49350 -109.40121 -109.30426 -106.76447 -115.77949 -109.26762 -100.57701 -94.70356 -84.03195 -85.33361 -88.13811 -92.08194 -102.86393 -105.45118 -100.73528 -95.55513 -89.82891 -84.15553 -76.21216 -71.85268 -57.34824 -50.40790 -59.37426 -45.70679 -38.67367 -30.25700 -19.20830 -34.21908 -43.52459 -52.27334 -55.78195 -30.75828 -4.52024 8.73257
-75.81963 -73.17441 -82.98080 -84.22509 -89.91024 -70.35267 -54.81670 -62.14065 -51.67891 -40.26559 -39.70789 -23.46807 1.04847 3.49408 1.39790 -19.68223 -26.79585 -50.24611 -66.37335 -47.65837 -30.61969 -25.69287 -27.19535 -49.25286 -84.79752 -86.47514 -78.68458 -69.17439 -62.51401 -35.37771 -22.32420 -29.21658 -45.86504 -69.39739 -84.34758 -104.75529 -131.84826 -127.37679 -102.85245 -74.64221 -83.83020 -85.89304 -99.02926 -125.62328 -111.93105 -97.94940 -78.67432 -85.36272 -70.95130 -50.95327 -59.39724 -73.97546 -89.64673 -89.40969 -57.87314 -27.98480 -17.52045 -7.05287 0.43830 -22.27068 -27.68094 -1.82427 37.13093 65.59078 76.28954 74.83655 42.04009 28.23519 6.27342 12.24342 23.72154 43.84796 54.45468 46.42701 48.22257 37.16173 43.58504 23.34826 13.40660 35.44585 43.52183 78.58671 118.41918 138.10375 138.92868 137.77664 109.46743 68.58957 48.66577 50.81608 63.15209 113.86708 133.37482 149.27236 146.28740 145.37251 129.67882 109.82886 82.17840 63.53452 63.71107 46.97389 25.88275 1.19585 -5.38801 -4.38269 1.77669 1.30842 -11.75772 -28.86057 -29.89045 -25.60002 -15.36806 -4.11319 -10.31020 -20.27106 -15.95798 -7.36445 -4.17674 -19.29259 -27.18580 -40.80271 -35.66388 -32.63122 -32.49599 -29.54240 -37.62784 -39.13188 -39.37262 -23.13930 -22.45024 -5.08542 -2.12739 5.22542 2.55787 -3.07586 -7.35038 -14.56458 -32.16625 -41.18019 -47.70058 -62.86222 -71.07491 -70.79661 -82.16371 -82.35661 -86.06726 -76.27652 -63.13237 -46.59845 -28.74876 -12.97551 -2.94353 -10.11684 -11.00499 -16.46532 -32.24212 -39.65417 -44.88347 -51.86268 -46.95984 -62.60593 -57.54366 -61.98747 -47.77132 -62.79044 -60.42861 -60.53389 -57.63643 -55.71106 -69.91530 -88.40689 -91.36928 -89.96697 -97.53902 -103.63205 -104.77406 -96.96330 -87.48200 -86.60220 -81.20550 -89.12894 -96.30022 -96.69648 -91.11515 -71.52608 -57.52661 -41.47132 -37.85918 -32.28367 -45.85776 -45.35704 -42.29747 -46.85840 -41.21943 -31.23420 -28.53491 -17.29565 -16.29776 2.85158 8.58577 28.07653 30.26370 31.27837 36.73722 15.41896 10.48122 -7.23842 -17.58180 -26.69715 -27.31571 -21.51209 -25.67735 -17.01530 -12.52152 -30.42420 -29.48267 -36.47153 -38.91007 -35.30650 -29.43274 -11.35965 -17.74858 -14.59655 -13.62325 -15.67802 -28.37555 -37.26348 -34.39469 -30.44491 -30.41569 -17.05404 -13.72243 -21.30448 -28.76254 -40.63558 -46.27600 -63.03668 -67.65330 -60.67469 -71.92515 -66.09940 -72.07088 -71.97843 -74.52874 -68.81280 -74.62495 -86.64946 -97.17043 -104.77768 -110.56253 -113.00836 -120.08945 -119.84217 -114.87754 -101.23886 -93.45848 -92.65026 -79.16488 -81.11278 -81.73871 -86.77719 -93.09059 -100.71049 -107.49565 -99.03520 -93.57886 -89.66725 -71.55262 -77.31465 -68.73782 -70.90310 -52.87625 -29.55226 -21.49012 -14.20409 -4.21389 -21.20277 -36.25061 -41.86839 -18.73925 0.16058 -4.16428
-61.52632 -72.71279 -71.58161 -78.60657 -77.78653 -60.09634 -50.99660 -32.10292 -26.71898 -22.05479 -2.07474 11.80438 36.85793 35.13442 19.42326 17.38145 -24.06230 -17.55108 -29.27025 -18.98157 -4.57595 -16.04376 -32.96498 -56.21778 -80.25008 -81.78267 -53.78609 -38.54644 -41.97564 -45.17656 -37.37090 -39.33760 -45.88147 -73.71998 -82.60106 -100.25973 -124.64829 -117.49755 -100.84671 -76.77644 -68.64032 -77.29319 -97.81743 -113.31588 -114.57337 -109.96373 -95.82915 -97.50923 -77.09159 -68.49541 -61.52966 -66.18549 -85.70459 -92.24467 -63.97254 -42.08883 -21.15531 -16.41713 -12.39351 -14.57629 -18.45162 -12.74160 18.93833 48.98192 78.09481 67.36494 49.01198 32.23238 5.61404 9.55995 22.38962 40.54699 38.99156 25.22807 29.03560 15.28095 25.63489 15.32738 20.49880 42.73915 73.45697 124.30632 150.85552 159.03938 129.42889 124.10871 97.73443 61.61072 41.91322 45.55508 59.56928 95.87497 111.51974 143.45145 147.64918 170.27883 179.94297 153.34178 115.59976 105.89404 83.30171 54.27445 23.04538 14.02257 15.45443 10.79076 14.64288 7.85699 -5.06049 -25.46492 -40.56276 -22.92376 -18.54916 -19.30537 -17.38408 -27.03950 -16.36993 -7.79403 -19.75784 -28.74056 -42.09264 -53.96708 -48.70909 -39.20154 -33.33321 -37.38502 -49.91566 -50.32864 -31.76793 -27.93704 -13.22276 -16.82879 -1.15794 7.71264 6.54256 -0.21624 -6.14899 -15.66645 -17.89656 -28.19015 -47.09968 -52.17486 -51.65023 -59.56947 -74.44199 -80.51565 -85.09799 -77.82342 -59.73002 -40.51223 -25.95278 -23.98876 -26.06725 -17.42315 -23.23130 -22.75345 -34.62388 -40.31478 -44.58735 -60.67426 -59.81042 -65.25746 -67.35305 -78.77929 -64.55998 -69.75618 -66.72250 -71.95353 -74.15929 -76.46756 -82.49141 -96.77731 -100.05851 -104.73402 -103.02550 -107.50401 -114.25459 -102.87867 -87.22422 -81.13213 -80.06847 -89.30568 -98.87671 -107.55312 -93.42634 -78.20497 -59.87203 -47.84905 -45.52447 -45.73949 -55.52835 -59.46812 -51.00095 -51.84944 -45.60356 -34.84173 -30.38832 -31.62994 -31.47818 -17.41607 -0.87735 3.25640 18.46361 25.16866 28.15771 14.60509 -2.97710 -17.42005 -21.44902 -14.36164 -11.41289 -2.28150 -6.78558 -7.36657 -4.99755 -16.53179 -19.12428 -25.11969 -24.07721 -26.93104 -22.08025 -14.94249 3.09373 -3.09079 -0.40456 -4.59632 -17.99395 -24.97687 -25.89129 -24.63259 -25.97586 -15.64924 -18.88552 -18.10365 -34.25061 -50.86972 -70.52822 -73.56942 -73.29066 -78.26212 -77.31236 -93.98412 -84.77847 -93.47650 -81.69462 -78.72870 -92.77129 -95.04632 -96.88857 -102.99475 -108.99538 -110.30259 -112.10835 -110.71625 -111.90327 -98.83885 -103.29006 -88.98814 -87.10231 -79.35755 -84.56504 -77.55446 -91.36599 -95.85669 -97.35691 -97.23483 -95.34807 -92.24560 -85.55941 -84.81752 -86.25620 -82.04159 -70.00922 -49.26992 -34.52981 -13.33528 -5.82834 -7.63776 -9.26327 -22.61749 -8.21900 -3.63407 -2.71559
-66.25799 -59.57304 -50.81032 -62.80052 -67.49237 -56.63136 -30.43139 -15.45754 -5.99028 -2.65833 5.71634 28.67388 52.09804 41.93767 52.32383 44.50833 37.00517 11.27672 13.71945 7.43648 -4.21373 -11.27188 -40.18172 -61.65526 -69.50127 -53.31240 -39.91088 -30.35956 -34.79116 -45.42300 -22.02527 -21.21369 -44.82278 -71.50134 -92.35520 -98.25276 -123.98602 -106.33906 -91.42608 -69.58989 -70.91169 -73.72957 -78.84395 -103.04047 -88.53243 -102.91235 -106.79557 -108.83420 -75.06858 -57.30926 -49.67798 -53.83874 -64.61622 -82.89909 -73.11153 -65.07712 -56.52156 -40.16653 -29.27460 -22.62179 -11.55901 -9.34695 35.76080 52.74763 77.88829 75.36722 42.27590 26.15723 8.61850 1.25815 18.57696 22.80124 19.61346 10.72823 9.57707 9.91113 5.95910 12.09899 15.60870 73.33299 113.18228 131.22596 187.05183 173.71085 142.91792 135.61124 88.22806 73.10919 48.44532 36.99280 54.54182 83.29440 121.10517 137.92208 170.40581 173.17045 185.86783 178.80396 166.95410 143.32619 93.71049 51.28337 45.86103 44.45134 37.83958 15.84080 18.02551 -1.97988 -10.20464 -29.33245 -38.82967 -37.48705 -32.80845 -18.96725 -25.37888 -33.80194 -36.83398 -31.61833 -38.44733 -48.31303 -54.25072 -51.72954 -50.75073 -50.66622 -45.99347 -43.42291 -46.05198 -57.66464 -41.80281 -22.65074 -15.88042 -8.13857 -0.10626 1.96301 -2.68651 -9.94775 -11.52080 -11.37822 -12.67007 -27.36630 -37.65058 -40.46751 -55.96206 -59.78301 -70.72638 -77.36383 -87.46386 -77.29035 -52.71795 -36.30696 -32.01700 -31.98464 -36.81813 -29.98465 -25.70132 -29.52429 -24.66398 -33.38639 -40.25748 -59.17453 -68.16525 -56.99820 -60.90900 -76.17790 -76.99366 -80.11220 -80.88045 -83.28795 -85.63364 -95.87954 -95.68410 -98.63147 -104.94876 -103.90273 -103.91717 -115.75594 -115.06793 -104.45692 -96.09810 -85.77038 -87.93087 -93.46937 -103.52547 -102.90140 -90.27066 -79.10563 -75.43311 -53.79008 -55.85148 -59.08803 -63.19500 -64.03132 -64.98382 -46.33001 -31.40145 -39.31407 -45.74414 -36.04158 -37.47582 -34.04286 -23.27393 -9.54547 6.15859 21.62542 34.36636 16.93867 7.23863 1.66573 -10.69455 -7.83190 -5.62456 12.30114 15.84993 11.31664 3.98999 0.79769 -10.93279 -21.38405 -9.31161 -9.44464 -11.77950 -7.37018 1.91642 6.48906 15.68348 5.38941 -2.07389 -11.05142 -22.44052 -25.95584 -18.90653 -20.64113 -21.92458 -28.99182 -41.67324 -62.68153 -69.89637 -82.05605 -80.41097 -88.37047 -97.67093 -95.98538 -100.45377 -95.87771 -93.22483 -95.76601 -97.02195 -94.03553 -103.40584 -102.80647 -112.32313 -110.51678 -109.88429 -101.30306 -106.16295 -103.65559 -96.84571 -90.98495 -77.42750 -75.83723 -74.42634 -75.40586 -78.07501 -84.18369 -77.59710 -90.92494 -99.69760 -98.84367 -94.64207 -89.21665 -92.94067 -78.62676 -73.57269 -62.87520 -36.17298 -10.53281 -1.27726 0.81276 14.12055 -4.39124 0.11733 28.34834 22.84111
-60.80501 -51.11974 -52.32623 -46.21632 -50.75513 -44.40657 -25.70221 -7.87635 6.14617 15.60146 24.25611 31.61854 36.59336 39.57490 56.47898 51.46740 37.89099 20.29446 23.34221 22.17410 14.44149 -8.71845 -33.49446 -48.49649 -52.23693 -29.84005 -15.71733 -15.74289 -29.77219 -24.69089 -5.68054 -4.02614 -6.33697 -59.90414 -83.88785 -93.20701 -116.29664 -108.90735 -77.68164 -77.01464 -63.95754 -61.37444 -68.18528 -68.76126 -62.69958 -74.00951 -91.47409 -101.10737 -94.79153 -52.37960 -36.38330 -50.48637 -45.16023 -56.36651 -70.95210 -74.27362 -63.92396 -64.55503 -39.39524 -32.51265 -5.49740 10.26675 42.88915 60.14734 67.00855 66.67278 37.88862 14.02718 8.25315 -4.82973 -11.64366 5.50340 0.56135 6.60372 1.20826 13.16764 22.23961 24.70464 27.85496 58.10724 86.19479 123.99360 173.04865 177.81959 159.87269 153.32981 115.97821 86.07034 54.73906 27.69894 38.57631 77.17171 104.64055 122.31357 148.14720 170.59301 174.34725 171.87669 169.09473 151.21674 116.36580 99.82111 84.25583 88.77443 59.41452 30.40334 9.52636 -11.98822 -20.74456 -30.29959 -32.56953 -29.94821 -34.91674 -33.23940 -34.80370 -46.09779 -44.20389 -45.69238 -48.97516 -49.99102 -46.58337 -46.74886 -50.69355 -55.91798 -53.86267 -53.24717 -60.59025 -55.62661 -46.27735 -28.95387 -20.68599 -4.87009 -0.63383 4.90972 -16.92898 -17.00965 -18.98438 -14.73241 -3.60139 -18.56665 -20.00074 -27.98896 -53.23911 -62.82468 -74.17220 -90.29556 -82.68554 -75.96527 -57.16402 -49.56574 -46.59214 -55.55788 -47.80060 -49.62955 -38.90133 -33.82729 -21.15393 -26.14605 -38.82682 -47.32308 -60.35730 -53.07748 -53.21159 -60.26123 -68.18819 -95.00145 -87.66602 -94.35922 -96.13733 -98.75327 -101.78027 -95.89901 -91.03979 -99.06471 -97.64672 -109.35161 -116.39102 -110.13140 -109.81967 -96.36489 -101.00640 -106.69268 -109.25869 -104.89746 -94.14588 -84.87380 -65.98300 -64.96770 -57.19481 -63.78435 -71.10412 -70.98488 -51.72912 -53.28433 -54.39127 -56.84668 -52.19096 -50.07822 -44.50468 -33.49674 -21.27615 -13.31242 5.25998 22.44789 35.61248 33.10029 21.25793 4.67970 8.52892 1.97673 13.88094 26.45370 19.74901 22.87627 10.31125 4.03993 -8.80520 -15.99550 -12.15742 -10.64809 -1.34075 3.22484 1.85877 3.28292 9.17541 5.23040 0.24619 -4.49070 -17.06495 -25.20402 -34.55966 -40.68503 -36.33773 -38.24683 -51.72630 -60.72994 -63.59830 -67.47270 -71.24463 -84.99833 -88.74041 -94.03479 -95.36035 -99.08608 -105.01041 -104.89911 -103.73743 -108.38255 -107.31551 -113.50549 -111.64553 -108.86901 -107.06170 -105.67735 -97.92481 -96.28752 -95.86393 -93.34574 -88.16651 -72.41948 -65.18003 -61.14898 -69.00113 -74.43827 -79.33751 -85.13343 -85.42868 -95.01107 -93.48077 -96.18446 -85.55229 -72.76224 -56.66170 -56.09868 -42.08375 -21.90225 -12.15589 9.12075 17.89895 25.32137 27.25081 40.24762 68.11161
-53.90383 -55.54567 -48.41030 -44.52815 -32.79829 -24.92376 -20.73475 -3.45972 11.89378 13.50793 22.40776 27.52673 25.52467 17.20897 35.47087 47.15985 42.63874 27.90850 22.41398 22.58976 21.32162 11.52004 -8.57991 -26.99858 6.24434 -6.41164 -6.72921 -16.99549 -9.16850 -1.76097 12.42636 0.98835 -16.72966 -46.85735 -68.46125 -102.25273 -113.90533 -106.43976 -79.96907 -69.26097 -64.56005 -59.39403 -50.06809 -47.96555 -33.43749 -50.07703 -73.77961 -105.43732 -85.93232 -63.72756 -48.29183 -36.58439 -38.89060 -35.47283 -43.67386 -45.41440 -58.30880 -47.17650 -42.06586 -33.39275 -19.79008 14.95655 39.15972 59.71961 59.08795 52.20807 33.72742 16.16242 -1.98882 -6.05941 -7.09373 -13.12470 -7.30866 -7.61663 -4.19031 18.00019 35.47366 27.81241 36.58468 52.35791 64.89384 107.65179 151.88271 182.41218 178.40630 160.02472 115.75775 96.41068 52.73085 25.89011 31.85278 54.95493 77.61817 115.97366 135.49049 152.29031 152.17358 157.13081 157.78085 160.74570 151.32119 124.68591 104.84110 102.33772 64.33037 33.78814 6.88863 -0.20282 -5.76295 -17.41524 -26.63446 -22.85157 -40.93582 -37.34009 -42.80772 -44.80634 -48.14868 -46.30430 -45.07198 -35.75933 -34.17569 -41.70969 -51.03863 -62.63551 -70.95596 -65.68833 -67.41868 -64.61598 -42.86557 -28.29903 -21.49977 -4.80696 -0.15675 -2.41952 -21.22594 -32.75299 -24.81461 -14.88809 -6.85993 -8.78139 -19.45217 -26.71747 -60.67913 -71.15465 -73.75144 -84.83830 -84.56155 -78.74281 -62.01178 -59.99796 -69.20120 -65.70645 -62.58950 -61.90189 -48.27254 -45.79537 -37.23576 -29.59835 -36.68170 -49.36348 -28.93562 -39.80401 -49.51832 -51.29826 -64.08272 -75.89778 -92.74691 -86.01285 -92.16135 -92.86426 -90.61441 -83.86906 -74.25806 -86.83328 -91.89740 -98.27863 -109.73121 -111.82552 -111.88616 -108.92813 -112.35531 -110.26923 -108.01665 -105.73188 -93.19565 -76.03659 -65.06115 -61.55885 -69.73489 -67.37483 -71.85164 -72.32517 -60.99549 -62.97057 -63.18705 -58.90627 -62.26511 -44.21063 -39.60810 -34.09004 -14.45380 -17.15793 5.13204 16.76030 31.40782 43.50379 36.01967 21.43170 12.97038 12.27344 22.83106 38.11693 30.95465 14.11403 0.23923 -5.27227 -6.56212 -8.65910 -11.44911 -9.20951 -4.50378 -9.67188 -2.74457 -7.97181 -6.70653 3.20584 -5.04310 -11.88082 -14.05253 -39.40394 -41.41753 -45.73719 -50.05226 -51.89427 -53.69409 -60.96530 -54.74161 -54.32855 -56.88233 -66.83280 -79.86384 -90.57601 -89.43506 -92.44844 -105.83125 -110.72537 -106.45794 -113.72338 -115.08313 -113.51170 -108.17137 -101.92694 -91.35052 -89.22078 -88.64266 -92.34152 -94.69591 -89.18761 -88.69521 -77.42216 -68.70798 -66.00864 -49.69082 -59.44509 -57.61019 -79.35869 -81.30765 -86.03715 -98.05218 -92.53494 -76.58074 -53.95070 -53.41427 -40.42100 -35.17522 -39.35663 -19.92208 9.84155 30.80787 35.71007 34.44233 53.48447 92.59337
-64.21469 -61.53955 -57.20866 -53.64582 -52.01140 -45.76211 -30.57308 -31.06915 -10.42741 -3.78112 6.33469 13.89238 6.07643 15.56688 28.75551 43.12461 50.57548 27.33624 18.63441 13.63175 17.83363 14.00834 1.51028 9.64979 17.36389 20.43906 24.40815 16.27259 22.56592 14.13290 20.88064 -4.48440 -6.30549 -27.58980 -70.12895 -103.79294 -109.34095 -99.57293 -83.89559 -79.59163 -62.99049 -51.05514 -49.67293 -29.62318 -37.31946 -50.73019 -69.02002 -81.38489 -93.76527 -77.64721 -60.28609 -46.91267 -38.55980 -19.53930 -14.85651 -23.58117 -37.24488 -38.54127 -33.55462 -20.30802 -14.67668 13.33588 47.20180 62.57614 70.19157 54.50673 28.95822 7.40168 3.68123 -7.42488 -10.98313 -13.19942 -8.16511 -2.59601 -2.27852 19.07051 22.99500 28.64337 43.15693 64.00632 65.90366 80.69410 118.95332 155.30825 157.18619 141.60660 103.85752 95.87190 31.20200 30.16616 35.77955 61.06171 83.20563 99.92654 127.42700 137.90036 139.32312 150.20697 152.04697 155.05151 155.82835 154.31047 134.32499 102.66484 71.66489 33.32004 6.08933 6.61464 4.43632 6.18633 2.01416 -14.72200 -34.27538 -33.97244 -43.62467 -50.84389 -48.43954 -46.27158 -33.45588 -29.47867 -24.98171 -18.88095 -33.39556 -58.85884 -68.79898 -67.64757 -69.26664 -55.62995 -39.81140 -24.83309 -12.41348 -2.49645 1.41813 -11.03543 -15.19480 -29.48262 -28.76947 -20.86006 -19.35924 -19.86127 -24.95229 -32.65868 -50.17011 -53.06730 -72.81177 -76.12741 -85.69167 -80.93958 -78.68720 -73.76269 -82.40175 -75.71442 -72.02428 -69.80534 -58.31676 -49.82792 -44.43855 -37.52390 -28.33299 -30.97536 -23.80616 -24.50172 -33.39072 -51.02423 -54.13223 -73.58430 -68.92590 -68.49778 -81.70555 -89.26101 -70.76946 -68.63358 -77.56483 -80.46537 -82.41448 -97.85864 -101.43664 -108.69033 -111.98190 -114.19862 -109.30028 -107.80603 -104.23346 -90.61143 -84.33579 -75.54172 -72.04290 -61.43913 -73.18985 -72.55252 -84.16600 -81.25229 -67.51137 -64.39238 -64.94069 -58.01643 -37.28086 -28.55900 -25.51189 -16.66716 -7.75659 2.85223 5.69664 27.52885 32.38453 38.46420 36.86226 16.93561 25.05357 31.20904 32.29532 33.53156 17.36395 6.11943 1.39960 -12.45950 -24.27385 -21.54246 -15.41782 -11.82868 -10.76193 -9.40339 -16.62294 -19.69823 -14.76237 -4.69500 -7.69969 -18.27875 -24.48653 -38.14245 -58.33865 -59.53932 -70.21768 -61.30817 -59.92774 -59.86976 -53.96442 -59.07074 -71.45272 -61.84978 -74.67563 -76.54513 -84.17924 -95.28578 -95.28643 -99.28479 -107.18354 -111.08406 -110.30859 -113.53971 -103.83757 -97.20238 -87.28210 -82.19194 -78.53376 -79.02377 -88.47244 -85.95996 -85.76054 -74.30362 -70.49869 -68.07043 -55.98970 -43.36014 -51.16762 -61.04685 -73.83873 -85.88296 -96.84083 -86.77043 -76.12482 -60.13602 -53.92357 -42.91084 -46.93747 -45.92587 -21.80431 18.56384 33.96744 32.82815 30.83857 51.66422 66.03540
-71.09674 -71.11604 -68.36323 -70.16560 -63.24567 -58.87017 -49.80203 -48.13029 -29.66721 -6.67420 5.69481 0.47027 -1.25542 -5.00264 9.23623 33.09626 28.33469 13.49696 1.07068 -7.91224 6.28911 2.89213 2.71947 19.70690 43.60766 56.67662 50.99513 49.35482 46.40916 36.95689 17.77229 -1.70498 -20.49600 -57.10707 -97.68127 -99.98456 -111.46933 -102.81181 -100.39442 -72.36074 -65.82786 -47.18438 -20.78901 -11.20109 -26.12072 -34.74796 -41.88759 -67.55383 -82.45013 -78.64511 -69.19944 -41.91124 -18.19503 -1.41006 4.60733 -11.54437 -24.44728 -31.73526 -23.87517 -29.06839 -8.67488 17.53535 48.40697 73.78193 81.92353 78.51404 31.98198 15.51075 2.81615 -11.24543 -12.30449 -6.34564 9.12474 6.48060 11.72393 23.97077 18.90688 46.39814 65.47900 73.54993 81.63179 85.40099 95.36099 109.91241 109.29218 99.52296 81.35903 51.91989 34.17851 24.39265 47.96844 69.23742 68.18971 100.16080 115.11933 127.86044 131.64000 137.23502 155.19287 162.40682 165.15143 153.79058 144.56447 118.29478 78.02076 72.31717 35.23926 9.36440 13.65333 11.72944 2.78487 -18.84210 -25.76661 -25.66755 -27.21620 -40.57721 -38.80356 -34.23123 -22.23164 -19.38422 -18.49526 -17.59867 -32.66409 -38.31755 -72.05710 -75.87837 -71.19747 -55.06383 -40.12650 -25.40412 -10.82450 -0.92537 0.70975 -7.87574 -21.85794 -29.60050 -28.42671 -26.64870 -32.41805 -33.57968 -35.44091 -37.11068 -38.47273 -43.39625 -56.68830 -63.92029 -76.85782 -86.78561 -90.96740 -90.45027 -87.04246 -84.74284 -84.64554 -77.27616 -70.19953 -57.56760 -46.39851 -42.79314 -33.87937 -20.81657 -16.40500 -26.05644 -29.22228 -38.07459 -54.15370 -56.60953 -46.69887 -57.82464 -61.57026 -61.94282 -61.82398 -59.81653 -60.90604 -69.01351 -70.87192 -78.42227 -88.94826 -97.12228 -99.70837 -106.62903 -113.98915 -103.34153 -92.92045 -88.31294 -82.82297 -75.52555 -73.41989 -74.00795 -77.41491 -90.63655 -83.21925 -74.89885 -63.94948 -59.97243 -41.25873 -46.16368 -21.97838 -20.30192 -24.42783 -15.25618 -7.37974 4.77551 15.41310 19.45661 31.77395 28.98149 18.00980 12.50372 17.03541 16.00049 18.57838 25.89930 -0.68836 -16.24968 -15.93801 -24.37412 -26.95766 -36.56128 -28.78733 -23.57627 -17.66305 -16.30549 -19.25646 -26.32340 -23.90531 -26.15962 -19.62748 -18.46989 -34.32440 -51.50916 -68.64149 -67.34823 -75.25846 -74.41686 -59.20909 -62.60281 -66.10621 -71.50875 -82.21512 -76.57618 -67.27897 -61.14514 -72.35763 -81.71903 -89.79283 -92.63570 -100.58384 -110.37106 -103.32988 -107.67706 -100.27162 -97.08492 -86.42136 -86.00875 -73.21053 -73.88520 -72.37143 -71.70649 -70.26984 -76.53058 -78.21092 -64.73345 -53.60900 -43.85091 -42.47472 -59.53229 -77.98878 -92.51480 -96.94640 -92.14936 -84.60484 -81.43152 -68.24112 -68.43930 -59.37365 -39.89087 -9.88099 -3.66528 3.20704 19.80163 18.65052 29.43279 74.18819
-88.32909 -87.58127 -76.57047 -77.94295 -78.54345 -74.06548 -57.19268 -52.55180 -47.29154 -22.78349 -1.64654 -7.35133 -9.27072 -9.08441 -5.22173 15.08365 13.99987 9.27276 -14.38031 -19.14049 -16.13342 -8.12163 -4.53076 18.15281 38.24097 43.49197 56.15423 51.79006 55.54143 39.23411 15.05407 -25.93865 -45.03920 -67.22789 -97.98760 -99.71410 -101.36699 -97.68628 -99.45387 -74.58504 -50.74281 -23.79648 -5.95975 10.87913 0.03485 -20.06923 -34.22364 -48.76147 -61.35387 -81.03770 -70.20139 -29.99799 -11.66453 8.89656 17.29855 1.75672 -11.09822 -12.90288 -18.17958 -2.83860 13.71315 29.94392 41.51467 93.12575 96.47217 89.61377 89.62255 29.39564 23.60787 -6.45356 -12.99226 -3.16014 13.19210 27.03851 37.84448 37.60693 46.43424 50.21363 64.63738 93.45423 112.31572 119.53462 99.66753 83.00385 76.00467 52.05189 51.03730 43.24701 32.95635 31.27781 50.27764 53.69575 56.50360 75.16293 85.10680 92.01687 129.23909 144.99224 150.15082 142.50807 143.55432 132.03635 152.05098 133.14539 107.47109 101.47464 67.21056 22.27311 4.31049 -8.64393 -13.54087 -15.04454 -9.71686 -3.93227 1.60291 -4.83858 -13.11412 -26.33811 -21.86364 -17.16235 -18.95993 -20.47575 -27.33893 -36.37798 -58.43991 -69.21070 -71.84732 -68.30973 -45.56773 -30.11369 -10.66970 -4.03687 -4.02988 -14.51318 -23.29388 -23.95655 -45.07084 -47.26351 -41.73080 -41.51758 -42.70182 -39.66911 -47.63555 -49.94180 -50.35621 -63.30676 -78.35286 -84.73451 -90.16931 -95.89142 -94.48406 -89.59989 -87.64928 -86.37249 -83.62568 -75.04441 -59.98743 -52.03734 -49.62295 -34.74899 -17.06685 -13.47227 -14.78280 -24.66917 -31.99361 -45.34555 -36.85904 -39.32605 -53.98684 -56.30604 -54.92131 -57.77162 -51.07071 -54.70496 -65.73639 -74.60991 -83.41389 -94.57610 -105.43662 -112.38544 -108.63933 -100.18238 -90.59527 -94.18551 -87.32569 -82.59205 -85.01811 -89.89148 -86.58940 -84.84620 -70.84290 -62.48276 -55.70402 -44.28695 -33.71417 -31.58666 -23.56168 -21.18940 -21.04994 -20.49258 -5.94427 -1.11062 7.65844 16.86704 14.41441 9.58241 3.03100 -1.27402 10.19039 16.25702 13.88727 -16.88508 -25.69838 -32.69320 -35.07001 -46.95980 -46.15265 -55.75396 -40.71903 -30.02887 -28.07313 -18.43613 -32.15646 -44.85397 -37.78635 -27.91643 -30.59783 -27.39886 -37.93981 -57.38831 -71.23605 -73.36762 -82.75976 -81.41284 -73.75674 -77.20940 -76.50773 -75.89013 -84.80968 -85.25076 -70.69792 -66.12579 -73.14528 -85.85663 -94.74587 -90.85201 -102.96702 -105.96438 -111.41292 -112.68888 -102.04889 -103.72556 -91.92729 -94.49876 -77.51473 -80.06536 -69.54567 -71.71680 -69.39971 -63.17571 -60.90574 -59.31969 -55.11915 -39.30444 -36.17566 -38.70836 -55.29311 -83.19300 -92.59105 -94.74129 -92.82609 -89.25184 -83.29210 -79.14649 -73.87370 -49.26268 -35.36257 -19.81741 -21.76387 -24.52554 7.87553 32.43790 64.70847
