23.27745 21.84013 12.91664 -10.14882 -8.55922 -13.69387 -17.99931 -24.15576 -20.59362 -20.03060 -40.20724 -31.33766 -57.95212 -69.77514 -102.28152 -97.95509 -105.33520 -108.24990 -108.06611 -105.54380 -107.48098 -111.06548 -121.51087 -144.77502 -156.85184 -249.97112 -251.87227 -315.99515 -314.95113 -246.67721 -698.35205 -870.76400 -1002.48721 -1119.28403 -1193.46088 -1276.71418 -1337.16789 -1392.66077 -1440.78223 -1476.95513 -1484.58516 -1457.09453 -1448.97148 -1462.82070 -1492.12728 -1524.54165 -1535.71437 -1550.19632 -1565.63107 -1570.74922 -1581.90324 -1597.40332 -1635.75232 -1695.59186 -1767.88558 -1879.28912 -1974.98326 -2040.92876 -2031.06369 -1998.00760 -1945.76271 -1891.98275 -1886.48183 -1917.42153 -1955.07484 -2023.61792 -2063.09902 -2134.38098 -2195.03493 -2255.31101 -2310.18639 -2369.29076 -2398.36867 -2424.49898 -2451.34148 -2492.30478 -2517.85264 -2532.92825 -2539.21515 -2538.67337 -2544.86425 -2541.67338 -2529.95105 -2498.90496 -2483.07912 -2462.55128 -2458.77348 -2459.61400 -2446.87454 -2448.71119 -2447.02944
26.99266 23.82946 9.96347 -7.53288 -9.00913 -11.84190 -18.13738 -26.03954 -22.98343 -23.21557 -40.26214 -35.93950 -53.68108 -72.26912 -100.40470 -108.47287 -98.57460 -103.65462 -106.55141 -110.26829 -107.44027 -107.41937 -120.03198 -141.18018 -157.84451 -253.32727 -257.19293 -314.48607 -312.83955 -241.02542 -695.18863 -865.79479 -1005.60113 -1109.11060 -1195.85207 -1266.86870 -1341.29330 -1391.61550 -1437.56824 -1479.25908 -1479.93191 -1466.72239 -1448.42701 -1463.45287 -1490.88272 -1515.23118 -1532.13142 -1553.45385 -1568.09154 -1573.11949 -1581.65588 -1591.76747 -1623.89942 -1687.87397 -1771.63662 -1886.85136 -1984.64154 -2037.04240 -2037.58788 -2003.24013 -1939.51551 -1898.14595 -1885.55533 -1913.36216 -1966.22025 -2015.83260 -2069.63325 -2131.50841 -2195.32840 -2258.90595 -2315.78172 -2358.34933 -2392.30303 -2428.36166 -2456.62258 -2490.93471 -2522.59142 -2531.44227 -2536.34296 -2530.65594 -2541.20011 -2537.07590 -2524.13995 -2504.94948 -2479.16018 -2465.31693 -2463.36412 -2450.24204 -2448.90845 -2444.33476 -2442.17923
14.87675 17.74495 3.42242 -1.35740 -29.60921 -26.98569 -34.49045 -35.81029 -35.27181 -34.14163 -48.24997 -56.32219 -78.90505 -72.63707 -90.99389 -106.13338 -96.94807 -100.18912 -106.16548 -107.39432 -106.98126 -102.86140 -104.50582 -136.48758 -146.74738 -191.44140 -276.37316 -238.17911 -227.43369 -393.71809 -593.58689 -610.17601 -996.96352 -1062.72489 -1112.26668 -1267.85773 -1334.75519 -1375.32621 -1441.30767 -1474.37758 -1476.64299 -1450.58617 -1454.35948 -1472.04585 -1465.54913 -1480.88843 -1498.79480 -1503.86835 -1565.75987 -1539.79330 -1534.87147 -1569.65204 -1582.68994 -1695.95913 -1785.61706 -1849.10736 -1967.32553 -1980.88750 -1980.30457 -1927.82785 -1930.46010 -1904.66862 -1857.55072 -1861.94657 -1965.77329 -2017.32342 -2022.03843 -2059.36516 -2190.29469 -2213.55311 -2272.11619 -2325.72242 -2396.39639 -2396.14882 -2428.46998 -2491.88897 -2500.18599 -2514.41469 -2517.79969 -2532.95816 -2542.68292 -2542.26132 -2537.78742 -2507.52389 -2506.23488 -2508.39610 -2464.04737 -2490.10932 -2501.47762 -2508.93583 -2515.81318
20.42740 6.89644 -1.29153 -29.06852 -38.60730 -45.33234 -59.15866 -58.04575 -56.33050 -59.17483 -63.46826 -76.17196 -86.12917 -88.39690 -88.01693 -93.20834 -92.09485 -100.20405 -102.91674 -102.17474 -109.06571 -113.94030 -107.87083 -124.26131 -137.38919 -163.82782 -137.51431 -176.30775 -173.41375 -175.00805 -311.47478 -379.34069 -532.42312 -804.42503 -732.41510 -889.75569 -1137.72397 -1329.08110 -1396.71197 -1447.66232 -1449.98779 -1458.08906 -1435.68040 -1418.10523 -1432.79792 -1420.60117 -1438.63819 -1442.65691 -1436.89944 -1479.65955 -1494.26830 -1538.51166 -1557.02666 -1596.69150 -1696.66955 -1753.14920 -1799.23009 -1889.66411 -1872.82722 -1891.06914 -1845.72458 -1796.11460 -1804.54047 -1798.79114 -1837.86137 -1907.89020 -1946.53655 -2031.12814 -2070.04298 -2135.19800 -2221.48629 -2259.57744 -2277.07126 -2326.33523 -2356.69297 -2381.87920 -2494.03712 -2490.76668 -2491.08573 -2496.44430 -2513.34455 -2531.58197 -2537.86609 -2547.75108 -2536.49694 -2555.50211 -2555.50586 -2556.05166 -2530.68019 -2548.58584 -2549.60610
26.30525 30.12199 25.14992 -21.74897 -36.78054 -36.08569 -52.24048 -65.91283 -59.04051 -59.69450 -74.29209 -76.41867 -86.00858 -92.02856 -76.66741 -77.29811 -83.96856 -95.44096 -102.57031 -108.65071 -107.01236 -104.10748 -110.96754 -122.18620 -129.19215 -128.80143 -132.11688 -132.50844 -142.68545 -167.62915 -192.04513 -275.04189 -467.73586 -521.49142 -528.70774 -654.84617 -743.29943 -1053.36655 -1184.19083 -1414.48776 -1436.66214 -1425.85789 -1395.07201 -1394.24225 -1369.30312 -1414.96992 -1381.78088 -1380.27860 -1402.75792 -1435.73455 -1439.15038 -1496.50155 -1532.13530 -1572.99920 -1615.74259 -1686.69197 -1795.17699 -1787.24947 -1859.01942 -1827.23881 -1775.38044 -1769.29672 -1774.81985 -1790.95597 -1779.20497 -1805.21353 -1934.57392 -2029.37838 -2033.23259 -2125.01686 -2149.63419 -2169.02834 -2205.78446 -2238.46926 -2282.48031 -2320.08176 -2393.15692 -2423.94198 -2481.63076 -2492.29876 -2505.22939 -2515.92139 -2535.34335 -2544.41777 -2536.52045 -2559.05252 -2559.08007 -2552.19383 -2550.07891 -2559.53314 -2558.86371
29.25972 36.12068 13.94332 -25.21400 -28.72011 -45.91622 -53.67865 -70.76062 -82.26013 -86.22247 -82.22402 -78.29918 -81.56094 -77.85366 -69.96919 -77.89847 -84.12548 -93.46420 -101.33769 -111.64002 -101.40382 -102.69504 -104.01310 -116.33766 -122.07256 -120.51726 -116.41491 -109.71619 -125.47254 -131.26039 -175.07015 -246.78837 -226.62449 -267.31480 -236.01770 -282.21069 -287.52514 -705.90316 -977.17654 -1131.23247 -1362.15480 -1365.86252 -1374.32666 -1332.39321 -1310.35126 -1303.98263 -1325.02711 -1338.98699 -1288.43306 -1390.60412 -1407.17097 -1468.65936 -1476.41095 -1489.12436 -1492.50340 -1636.03697 -1647.70108 -1738.19149 -1693.09213 -1722.06698 -1743.79752 -1722.24841 -1710.57165 -1688.80442 -1704.22090 -1730.30386 -1735.43013 -1921.69843 -2012.16198 -1982.07509 -2055.53581 -2087.74278 -2105.23820 -2139.60183 -2171.77139 -2246.49983 -2306.29429 -2314.98609 -2404.93063 -2456.41076 -2472.43514 -2508.19960 -2521.95718 -2529.88476 -2534.74633 -2535.85367 -2543.83339 -2546.58718 -2560.08945 -2555.44205 -2555.51722
37.41703 40.72945 10.57038 -8.62951 -24.96530 -42.97384 -69.64010 -69.02857 -77.51059 -87.44389 -84.82983 -83.37989 -82.58639 -62.86569 -70.71485 -61.71615 -79.36082 -99.29295 -92.94026 -102.93925 -99.51100 -96.04496 -100.93328 -108.86710 -103.13221 -117.05861 -122.52247 -120.48270 -122.29787 -128.67754 -129.18796 -169.73463 -186.27524 -154.58760 -196.20660 -204.56963 -258.20969 -443.33055 -817.15977 -1166.06156 -1244.30415 -1243.82010 -1257.20340 -1310.73976 -1263.25558 -1195.32903 -1196.28465 -1185.01799 -1230.14354 -1261.58984 -1310.31010 -1401.33043 -1445.13695 -1482.71692 -1439.69043 -1466.07221 -1612.15582 -1621.30660 -1627.42741 -1654.13850 -1677.46635 -1662.84310 -1657.31971 -1651.14290 -1681.28749 -1687.82729 -1758.94462 -1839.42949 -1940.67512 -1960.00270 -1975.43616 -2006.28644 -2026.40549 -2036.73805 -2084.01408 -2185.91916 -2202.76556 -2215.79834 -2282.65945 -2365.72870 -2416.97491 -2454.78613 -2492.05151 -2485.60726 -2510.13926 -2502.84366 -2522.02222 -2530.06426 -2545.37942 -2542.21955 -2538.39526
82.60253 84.65271 33.06396 -6.09212 -7.02539 -31.32708 -52.33725 -65.25846 -66.07759 -70.61908 -81.85081 -87.26980 -73.94263 -67.98308 -56.29934 -65.15297 -74.12143 -89.34846 -110.52613 -97.60423 -88.07007 -89.53682 -93.30583 -102.85632 -105.50418 -107.04361 -117.17491 -123.00549 -110.03551 -115.45425 -123.78245 -126.23857 -127.22593 -138.06327 -138.66979 -176.75590 -203.25175 -402.31785 -860.72715 -1051.98836 -1042.91855 -1131.93943 -956.70913 -1005.97636 -952.32791 -944.34147 -1076.13112 -1083.55407 -1071.42212 -1199.30646 -1285.23752 -1374.09897 -1364.58711 -1418.93398 -1425.54878 -1397.10521 -1470.54175 -1530.01674 -1626.34318 -1619.12802 -1651.43270 -1660.87823 -1627.06430 -1618.30649 -1672.78954 -1691.34835 -1721.90368 -1818.47694 -1883.96696 -1891.81236 -1947.74842 -1950.92109 -2005.51322 -1990.48450 -2003.05167 -2062.90636 -2136.66745 -2178.39836 -2248.12161 -2343.41281 -2365.16082 -2436.48264 -2459.71701 -2461.46913 -2487.22866 -2491.13456 -2505.22934 -2510.85171 -2531.62096 -2531.71860 -2532.90549
127.38311 124.11513 111.12319 16.82326 25.07494 -27.83756 -57.37710 -46.40534 -60.82570 -81.14209 -83.10989 -79.16596 -70.79733 -61.38438 -59.02716 -49.13728 -72.06815 -86.08146 -91.15214 -96.12810 -92.24160 -74.16812 -79.84833 -83.51590 -99.10832 -104.79866 -112.54070 -113.43044 -101.33080 -111.66905 -114.83139 -108.09583 -122.00916 -130.03785 -134.32184 -138.95025 -137.74050 -339.93051 -682.48805 -818.08108 -954.25665 -901.79178 -859.56737 -710.39148 -718.21322 -610.10563 -857.17965 -837.06960 -957.99999 -1029.52034 -1090.04537 -1155.23118 -1309.00773 -1311.91721 -1336.61091 -1358.70193 -1346.32040 -1478.74270 -1528.83309 -1567.48535 -1595.87195 -1605.16314 -1611.19366 -1583.65240 -1637.10051 -1655.45982 -1696.88783 -1737.21874 -1827.17796 -1880.97695 -1887.58481 -1896.94526 -1910.35359 -1952.29833 -1954.20991 -1993.59291 -2044.32904 -2095.26481 -2227.52460 -2238.32437 -2320.91184 -2349.90865 -2404.73799 -2421.87294 -2461.57241 -2484.94626 -2489.84892 -2499.68288 -2514.72359 -2528.15029 -2531.23810
262.44608 274.47607 156.83817 56.12051 33.07783 -3.12885 -29.02511 -51.09625 -56.83300 -72.76557 -69.08395 -63.68375 -56.33998 -47.17451 -49.65267 -56.19674 -64.49535 -77.53630 -96.84887 -92.37054 -82.25624 -75.93762 -75.67586 -80.62944 -80.41914 -100.53165 -109.09111 -105.40045 -106.68604 -98.43490 -101.88158 -111.14913 -99.50806 -121.00810 -131.21100 -125.00805 -133.93897 -143.14874 -266.36603 -602.18447 -699.21868 -723.45927 -560.08447 -508.69807 -475.18912 -461.65656 -503.55751 -514.02766 -644.78970 -676.51112 -875.06477 -1052.55814 -1138.43575 -1237.23082 -1249.31378 -1268.69478 -1312.88758 -1390.29931 -1415.75471 -1485.38036 -1506.36778 -1575.40874 -1566.49440 -1563.53246 -1550.25126 -1595.63383 -1647.92319 -1684.38950 -1777.13205 -1857.73771 -1842.44710 -1857.72010 -1867.74036 -1890.67291 -1918.23012 -1944.20546 -1951.02638 -2013.30051 -2107.42472 -2136.10510 -2254.11561 -2306.68820 -2382.58198 -2383.13326 -2398.25634 -2439.33765 -2471.03882 -2475.76764 -2511.58995 -2507.54708 -2510.65269
409.29987 412.72117 245.47913 121.70442 34.11884 -5.25506 -17.53144 -56.28219 -71.49862 -76.99469 -67.29122 -50.31311 -42.96082 -46.76151 -53.97525 -72.73770 -74.09523 -82.72100 -84.64995 -83.53128 -76.52326 -69.37450 -66.78900 -73.76751 -89.29999 -94.12432 -104.09380 -106.39799 -92.16060 -89.15294 -95.22865 -102.91629 -110.30986 -109.50119 -120.18580 -123.33720 -130.46666 -138.25531 -151.35236 -331.35363 -405.02129 -429.60183 -442.07368 -325.32869 -298.29194 -283.02179 -260.43575 -273.58622 -361.86953 -458.65587 -552.85789 -769.10364 -923.00337 -1003.95027 -1178.54755 -1231.62701 -1194.57589 -1266.97148 -1340.88811 -1391.76346 -1439.86566 -1527.06297 -1542.35993 -1529.63140 -1540.51438 -1546.58663 -1569.47077 -1654.71416 -1715.56271 -1789.33175 -1794.12146 -1827.12332 -1813.89592 -1847.88411 -1891.00585 -1900.19642 -1914.29768 -1918.71956 -2011.84493 -2078.80371 -2174.12039 -2215.14513 -2329.59074 -2317.36820 -2363.84775 -2395.58407 -2420.77312 -2441.70818 -2466.56033 -2481.57289 -2481.50563
191.25889 183.66817 279.56978 117.88856 85.61640 10.22256 7.00835 -35.21429 -76.17194 -56.93950 -40.69236 -34.11315 -40.94768 -45.33447 -50.27655 -63.81022 -73.61116 -80.18092 -90.90803 -83.12791 -72.13319 -60.51992 -68.57913 -76.38343 -81.09273 -94.26181 -101.31333 -97.43662 -92.69521 -83.68351 -92.19042 -97.16531 -104.12157 -115.78773 -117.69940 -122.48247 -131.66858 -134.09803 -149.14446 -151.85642 -202.92844 -242.62370 -260.33061 -214.18780 -189.04254 -192.91217 -204.79774 -251.50447 -263.01079 -362.91951 -430.50180 -497.49848 -624.92136 -774.50970 -1016.34830 -1144.76219 -1137.32945 -1220.25695 -1295.52577 -1376.39545 -1394.81032 -1446.60963 -1495.48866 -1487.44611 -1490.37905 -1540.19457 -1569.83604 -1583.90688 -1658.17107 -1743.00439 -1769.36312 -1797.69111 -1809.41542 -1838.35213 -1866.36538 -1889.15458 -1909.17405 -1925.98580 -1971.25515 -2041.33196 -2144.12187 -2203.92826 -2249.69844 -2305.69389 -2300.27960 -2352.02345 -2363.45430 -2394.17610 -2442.79875 -2438.47260 -2431.22224
272.73171 272.36992 246.71445 226.66521 135.10055 83.79571 12.32942 -28.54033 -59.17869 -53.03540 -28.78164 -35.03657 -27.10738 -37.88147 -58.46532 -64.52093 -73.98417 -85.07872 -81.24659 -70.00641 -64.28921 -66.62824 -66.96383 -76.72886 -82.55974 -88.87976 -92.79211 -87.90770 -90.95860 -90.54573 -85.83653 -90.66584 -117.10925 -111.14844 -124.96940 -123.25465 -132.03871 -128.94550 -145.76764 -155.86760 -162.14698 -211.01124 -199.86647 -188.87003 -182.75052 -167.05089 -188.03909 -187.33629 -198.25377 -246.74550 -299.93148 -443.94004 -456.69479 -649.25983 -846.82615 -950.96698 -1007.83877 -1048.46901 -1191.60002 -1280.02491 -1317.58904 -1432.19875 -1432.95523 -1423.25609 -1482.49982 -1529.64349 -1540.61307 -1597.12510 -1648.85393 -1683.05937 -1747.10486 -1754.70116 -1800.60095 -1825.42844 -1862.78981 -1870.13365 -1886.58042 -1904.27352 -1950.71038 -1983.54482 -2057.39184 -2128.22623 -2171.85855 -2217.07573 -2257.65035 -2280.28349 -2301.17872 -2320.18815 -2382.59744 -2387.08762 -2381.03020
391.43657 383.43279 376.48596 288.87392 209.05636 71.31048 -5.60086 -26.81494 -62.43966 -20.23228 -13.76486 -5.96153 -11.45787 -36.42258 -36.07573 -67.16444 -82.49245 -84.35730 -68.17387 -63.71271 -61.02761 -57.87830 -65.31201 -77.08481 -84.29146 -87.24764 -94.50551 -91.23674 -90.52266 -91.55550 -97.87470 -99.07122 -116.56168 -115.39272 -115.29587 -112.66164 -122.33138 -130.36666 -143.79644 -149.72118 -159.69797 -151.94040 -147.80256 -151.71735 -154.55668 -173.72098 -160.12753 -164.08520 -184.13114 -182.94397 -202.16968 -290.09080 -417.32551 -440.92253 -468.29163 -693.80433 -743.87321 -919.14710 -1175.18295 -1142.80951 -1162.70105 -1292.00901 -1394.58268 -1402.11963 -1455.91526 -1482.64791 -1542.97865 -1593.55720 -1643.82651 -1656.35874 -1714.42053 -1760.98070 -1778.67840 -1826.64483 -1854.80929 -1857.30732 -1875.75166 -1886.38717 -1905.75522 -1971.59988 -2041.20940 -2059.89766 -2139.33038 -2180.07929 -2192.80050 -2213.20957 -2266.09390 -2294.06533 -2290.76471 -2331.06092 -2333.34418
526.98262 525.12689 392.37086 239.24215 214.74610 15.75605 -32.94853 -34.70688 -44.51513 -24.35523 -1.33907 0.06393 -11.38321 -31.58124 -47.33415 -55.62763 -74.90514 -74.07073 -65.37412 -51.14867 -58.62816 -48.76743 -60.60715 -66.23251 -84.78853 -84.06675 -79.39752 -79.81910 -96.14700 -107.40454 -108.95806 -114.58904 -112.01756 -110.68865 -118.34347 -105.71034 -114.38792 -129.86109 -138.16539 -145.71816 -145.18317 -144.42895 -153.25757 -147.97694 -149.57215 -157.37172 -153.66351 -163.10127 -155.61342 -155.99976 -170.26387 -199.46157 -282.97133 -306.45284 -399.32332 -488.37645 -629.70625 -684.49911 -838.25861 -1019.83048 -1128.15330 -1155.03463 -1276.99348 -1373.14357 -1407.57896 -1477.54722 -1499.84823 -1593.48709 -1614.26885 -1657.18003 -1700.34686 -1762.20371 -1799.40688 -1840.28601 -1849.40361 -1856.42198 -1867.94269 -1888.33895 -1900.71160 -1912.79100 -1976.69798 -2020.31771 -2070.79231 -2116.63541 -2123.01353 -2127.16217 -2211.54782 -2237.08769 -2282.95365 -2273.10226 -2273.89519
623.16335 627.86594 451.55670 245.24737 118.03787 3.33676 -29.03433 -25.73509 -8.05372 17.26513 18.92500 6.27026 -8.75091 -25.23980 -47.69461 -58.71439 -68.94334 -66.90677 -55.58666 -50.96896 -50.56588 -50.21184 -60.49065 -70.84290 -82.25822 -88.12370 -88.81677 -96.43240 -95.72207 -99.45863 -94.54223 -94.46502 -104.10369 -103.77793 -104.09092 -105.50723 -116.13687 -130.91091 -141.15242 -146.93492 -141.65663 -140.44273 -138.18271 -130.48771 -141.08556 -141.34296 -147.45351 -154.59761 -151.23198 -159.73669 -161.68119 -160.90237 -182.47510 -191.92700 -266.70163 -432.29383 -482.33464 -565.89682 -737.32812 -939.57598 -988.63770 -1123.20619 -1207.29516 -1309.55416 -1414.79592 -1465.37708 -1498.19301 -1544.59977 -1622.50219 -1669.70208 -1705.58250 -1759.28835 -1819.86220 -1841.34049 -1855.48804 -1867.32378 -1872.30371 -1895.69724 -1904.22041 -1916.95782 -1949.95992 -2006.15850 -2027.83494 -2044.54971 -2062.64577 -2085.01685 -2135.55427 -2150.19752 -2214.04939 -2209.80075 -2208.83005
786.02966 781.40395 668.99620 281.78813 154.55792 14.86888 -2.90524 -7.88546 51.60419 68.48314 29.01907 15.29402 -17.95038 -39.62495 -56.51423 -71.00735 -63.99497 -60.79434 -47.11973 -44.80938 -40.25154 -51.02605 -60.30943 -69.30968 -81.91092 -92.58946 -87.90609 -88.54682 -99.69499 -96.59615 -91.29206 -89.75477 -94.18533 -100.65909 -99.27471 -117.09302 -126.75076 -123.57704 -125.94714 -134.02029 -133.74328 -137.87407 -138.63381 -131.76667 -134.89657 -139.15374 -133.89825 -142.76008 -132.77957 -141.29355 -142.21141 -156.29190 -176.64214 -194.28503 -208.35314 -311.44425 -441.44927 -487.54297 -692.67851 -784.92232 -880.81010 -1028.74945 -1181.95836 -1305.04878 -1387.83721 -1474.73205 -1498.04514 -1546.63091 -1613.95033 -1666.38555 -1727.18214 -1803.38551 -1839.76687 -1871.70084 -1869.44180 -1889.58210 -1911.07584 -1900.65089 -1906.63863 -1931.15983 -1966.46545 -1963.38665 -1998.47121 -2023.06353 -2036.46571 -2053.15460 -2075.00298 -2091.91605 -2120.21833 -2157.65819 -2155.70496
932.36335 921.82035 677.25612 331.04831 175.81937 58.49918 -6.52429 51.48862 76.05593 74.10281 62.09595 5.36596 -31.48583 -42.54152 -53.12973 -59.56945 -50.97667 -40.32471 -26.41219 -39.65414 -40.61933 -43.73110 -69.42647 -76.50193 -75.95699 -75.50288 -75.58831 -83.08263 -103.23426 -88.65024 -92.48135 -75.61611 -80.78298 -89.91419 -106.91461 -101.30657 -116.09232 -123.76894 -127.21891 -126.02258 -132.14244 -116.85192 -126.87782 -122.97266 -127.80323 -130.91436 -135.21714 -124.09320 -131.87804 -131.78323 -142.15997 -144.32854 -168.49752 -186.78135 -208.86475 -290.60899 -325.03085 -476.18471 -551.78673 -814.38312 -844.27353 -974.29571 -1147.61619 -1322.72068 -1394.56351 -1484.49492 -1527.35321 -1589.54235 -1612.43956 -1694.16638 -1740.34720 -1823.63864 -1887.26209 -1903.62907 -1905.22468 -1898.56984 -1914.95450 -1922.96613 -1932.44197 -1948.77087 -1966.68943 -1980.50066 -1991.15260 -2007.62582 -2008.16789 -2023.21261 -2037.95673 -2073.06073 -2102.97971 -2127.53506 -2127.45898
1012.88897 1009.25473 761.14313 449.51334 171.43441 105.74189 64.20731 73.00054 169.69096 118.28555 61.21386 18.11480 -33.58354 -35.54410 -41.96426 -52.08826 -31.37675 -25.78608 -21.17298 -37.09198 -38.41689 -47.59339 -66.07171 -67.18818 -64.38533 -62.95447 -65.55590 -70.80537 -93.46771 -96.27788 -90.98440 -80.87639 -72.76813 -83.35311 -91.57777 -100.64094 -108.39936 -116.55570 -117.95137 -120.63673 -126.17123 -125.23226 -121.62342 -130.68171 -130.33954 -127.21657 -134.06710 -120.21416 -125.30488 -130.46801 -134.74481 -135.60097 -161.63213 -173.49136 -206.39826 -224.21219 -315.84885 -332.32828 -563.43969 -764.66645 -826.63305 -919.65080 -966.58215 -1231.03587 -1450.44766 -1483.46524 -1545.57961 -1593.18381 -1655.76401 -1709.23066 -1773.32064 -1877.59175 -1902.38401 -1932.97667 -1937.81666 -1930.51865 -1928.32933 -1935.66531 -1946.69786 -1982.71245 -1986.09064 -1998.02434 -1993.53148 -1998.07944 -2009.54808 -2021.40646 -2035.11425 -2050.65602 -2098.48479 -2104.26558 -2097.16242
979.46819 981.14509 761.97568 485.89227 326.17914 137.89874 136.46168 210.50869 206.62662 176.28687 62.35412 -1.89551 -31.81517 -17.34656 -19.37423 -10.95925 -11.26069 -0.07021 -12.18545 -23.71062 -53.04955 -59.25906 -56.51811 -56.64936 -50.26754 -53.62082 -61.58370 -73.99724 -84.59943 -85.96263 -84.87423 -75.15415 -70.26446 -79.43493 -86.38585 -95.44545 -111.50291 -107.79655 -113.34504 -112.51365 -119.64357 -119.37503 -124.41507 -125.21762 -123.05307 -121.55110 -136.92356 -121.54043 -122.51498 -126.92689 -136.24762 -146.05704 -153.08321 -155.73787 -178.43696 -231.07988 -262.56450 -329.10685 -476.07144 -683.12103 -806.70026 -832.64124 -983.08546 -1280.62729 -1507.10565 -1525.94581 -1599.84895 -1630.07800 -1673.17750 -1755.76957 -1817.14663 -1882.41766 -1949.04948 -1959.97409 -1966.74737 -1952.51990 -1962.06285 -1957.32242 -1978.72271 -1997.22895 -2001.34778 -2013.43856 -2013.49889 -2016.72987 -2017.63105 -2020.53454 -2034.35105 -2042.66391 -2065.21657 -2081.66017 -2090.57168
1016.87128 1019.02180 824.38860 509.50399 401.24478 218.99807 250.71775 323.85067 302.00935 193.06309 81.22436 26.22396 -4.76861 -9.64204 21.28233 24.52238 25.77632 9.10974 1.12225 -32.51340 -29.75030 -50.47287 -50.81329 -54.15329 -50.87134 -54.58118 -56.92973 -57.24370 -73.13076 -86.01083 -88.74623 -75.42973 -66.72377 -72.36958 -80.12871 -89.27608 -92.47454 -106.46461 -105.91454 -109.66626 -116.43853 -118.57421 -114.26852 -116.99596 -119.60525 -128.37308 -126.60432 -121.54926 -123.39835 -124.15042 -133.16975 -142.25984 -136.08032 -159.16435 -160.03866 -207.06635 -249.95951 -401.68663 -460.93675 -657.20425 -775.82869 -822.07148 -1060.56177 -1183.98949 -1430.20067 -1566.07450 -1613.59393 -1682.38376 -1753.71923 -1811.68323 -1835.34182 -1898.31161 -1946.15254 -1978.94795 -1995.59397 -1984.18970 -1986.72597 -1991.23583 -2007.68210 -2009.12602 -2026.38899 -2032.49450 -2035.18670 -2027.10812 -2022.18919 -2026.16861 -2036.28741 -2044.46554 -2071.21833 -2072.80199 -2068.42939
779.19685 779.13985 764.75646 585.16819 442.19005 346.23688 310.95787 354.88010 335.04256 154.68565 41.27686 22.40407 -3.91256 31.48917 54.40692 65.79307 57.33820 54.47134 51.58842 10.52895 -23.57885 -42.96615 -47.12205 -48.19766 -48.03722 -53.77225 -62.70607 -68.41998 -78.47927 -92.71984 -86.34270 -77.12385 -64.63819 -64.40294 -73.19665 -88.09197 -98.14835 -100.11503 -101.66320 -98.18788 -108.36668 -112.29776 -116.33161 -118.55088 -132.67759 -120.14068 -127.03560 -123.14382 -113.64878 -130.59962 -126.65934 -125.19879 -134.97147 -143.42342 -168.12867 -196.72994 -237.51359 -272.73510 -357.06424 -553.15041 -770.70729 -899.98216 -985.84138 -1186.43683 -1373.39059 -1497.69687 -1607.36605 -1699.26995 -1727.56619 -1811.07809 -1851.86340 -1911.29367 -1954.10172 -1973.26646 -1992.31909 -1992.20131 -1988.43944 -2004.49697 -2010.10857 -2022.56996 -2040.79800 -2039.10930 -2048.26454 -2041.48212 -2028.63553 -2025.30626 -2043.02051 -2049.18438 -2062.53780 -2075.29599 -2074.40629
585.33911 581.84313 652.40080 493.37328 459.82705 482.06649 489.42243 456.83494 433.83889 241.45457 44.00663 42.84684 55.01336 86.50833 106.72462 100.52158 85.86272 98.96758 95.74011 65.40888 16.76161 -27.31142 -32.92891 -53.17798 -59.51298 -67.78397 -75.60368 -65.84799 -73.01838 -83.42546 -92.61650 -76.53237 -61.65935 -66.15388 -68.11539 -77.08164 -89.79094 -99.26225 -106.34767 -109.64871 -106.37393 -109.04575 -111.76949 -117.20767 -112.16843 -117.71724 -118.26881 -117.55212 -112.40525 -116.53049 -126.42301 -128.42010 -127.62352 -153.53691 -162.25090 -176.34878 -207.74667 -270.55644 -383.73104 -468.41535 -670.69961 -862.93691 -981.21898 -1172.58819 -1348.18792 -1526.67033 -1592.63270 -1701.01892 -1709.29333 -1766.82304 -1847.74119 -1895.30824 -1944.48268 -1971.54006 -1990.75425 -2003.18776 -2005.62331 -2012.00243 -2017.28423 -2040.46104 -2045.41936 -2033.52473 -2038.13141 -2047.32544 -2034.90466 -2032.86334 -2035.84858 -2040.62943 -2065.00140 -2072.86323 -2073.17650
618.02767 611.94145 548.06846 459.58990 455.67794 484.24723 501.47206 478.71087 389.83475 242.57320 120.36302 136.81304 137.85121 160.59320 125.19654 99.22617 102.55280 119.10229 114.38108 87.43124 29.19151 -19.59625 -37.49961 -45.92141 -64.05093 -67.87304 -80.56242 -67.21374 -69.21422 -65.88654 -57.46437 -71.63530 -66.41930 -66.85594 -66.73375 -74.93551 -84.64213 -90.54129 -93.50211 -92.29307 -103.20741 -104.59083 -111.91328 -105.08106 -120.84390 -116.00075 -114.17530 -112.80390 -109.08993 -122.02793 -114.64231 -118.99072 -132.48398 -148.81084 -163.67447 -164.10398 -203.06201 -259.48999 -386.91453 -544.02192 -622.51960 -780.35024 -953.56838 -1138.16128 -1233.49739 -1402.93473 -1459.11596 -1622.19430 -1691.63968 -1713.37112 -1796.47862 -1844.53865 -1897.62463 -1945.75941 -1984.87053 -1992.14039 -2001.24149 -2011.15387 -2025.33009 -2032.86545 -2037.47289 -2039.67946 -2048.36402 -2039.09180 -2044.66476 -2033.57498 -2043.98201 -2040.86839 -2067.27706 -2070.55816 -2075.98003
604.04041 604.47403 517.49796 447.33305 442.04504 490.23770 497.87720 478.31718 462.23322 288.73084 242.63100 227.90496 214.48027 188.02037 88.23255 86.85182 74.88908 86.42953 105.01604 87.98156 25.49821 5.72977 -39.14084 -65.55321 -62.96044 -68.76798 -65.68777 -56.50084 -51.03175 -56.22713 -55.46636 -62.18852 -60.42009 -65.61194 -70.44697 -73.20859 -84.03958 -91.55913 -88.72699 -91.99846 -89.08758 -97.54194 -97.11993 -109.24571 -113.49913 -115.60088 -117.44672 -117.40523 -107.33646 -109.63417 -119.14301 -121.20789 -139.93906 -142.80244 -142.33632 -158.15468 -193.01983 -211.57761 -330.88733 -503.12324 -634.82511 -786.79765 -882.68829 -908.74700 -1144.18798 -1299.41748 -1428.49093 -1499.04975 -1549.28579 -1644.67185 -1727.44706 -1801.09837 -1865.90039 -1931.69907 -1961.05961 -1984.37466 -1994.78035 -1996.86254 -2011.55968 -2026.09742 -2027.32133 -2027.69323 -2036.68233 -2040.52923 -2030.85238 -2042.65412 -2035.32963 -2046.60240 -2061.99662 -2065.87160 -2070.68274
519.81162 517.60336 488.12589 412.44287 417.95867 466.32285 493.30346 504.76962 499.17894 426.61918 313.78200 327.78918 275.40494 201.59576 113.13859 47.78949 30.43259 40.04350 52.02732 50.88763 16.41678 -40.84807 -51.43499 -57.08323 -58.85578 -56.50538 -49.47500 -49.45714 -43.36568 -54.81307 -58.58992 -63.70840 -55.23012 -62.48404 -66.54311 -75.09432 -75.64777 -78.16075 -82.16022 -78.69376 -87.29914 -93.40547 -102.66145 -113.34931 -120.06909 -113.18628 -114.80238 -110.33375 -105.17192 -111.87974 -118.11982 -126.88734 -126.93338 -132.57309 -147.28076 -160.64609 -184.65426 -183.49159 -320.27602 -408.25082 -504.00873 -754.10954 -791.74030 -862.88382 -1066.59174 -1203.60123 -1264.43602 -1406.82485 -1512.83167 -1585.67741 -1611.34148 -1771.05349 -1801.49577 -1885.86063 -1936.07351 -1962.10670 -1975.37740 -1987.83911 -1996.39720 -2011.25082 -2025.14972 -2026.32007 -2031.82479 -2034.34497 -2037.76458 -2034.71595 -2042.17658 -2044.41619 -2064.84945 -2075.22517 -2070.66690
444.77225 437.87372 426.79594 403.98113 418.97044 443.18348 470.39556 508.86433 533.32126 501.37994 460.86831 386.29195 309.74438 169.86388 86.11495 28.81813 21.29677 -2.58856 17.31938 5.32056 -41.36429 -48.61849 -57.27331 -49.90810 -40.98515 -41.47346 -44.81328 -45.38269 -41.43118 -52.57724 -55.25047 -66.68776 -59.19157 -66.43669 -59.14803 -71.73732 -67.10953 -74.67893 -73.42853 -79.25828 -81.94983 -99.95929 -108.36119 -113.23069 -109.73580 -109.51437 -107.59393 -100.01839 -109.33708 -110.76748 -123.27485 -124.53040 -124.40861 -133.94688 -137.56341 -157.00020 -153.18363 -155.62011 -159.62267 -313.05064 -380.73309 -494.36423 -676.58926 -848.55161 -932.20898 -1057.53647 -1180.62505 -1320.44991 -1368.47017 -1422.77588 -1538.39416 -1607.79696 -1751.14663 -1764.11311 -1844.72852 -1879.33576 -1950.98363 -1957.60464 -1985.21630 -2000.18272 -2011.41129 -2018.28002 -2035.57014 -2029.79689 -2039.15036 -2047.00990 -2048.87163 -2056.59266 -2084.66419 -2081.58036 -2082.70168
407.50551 403.09278 406.73203 405.57216 414.29063 438.68228 460.91350 512.51301 551.74499 537.89071 490.12120 401.23861 281.25383 131.33920 54.73440 39.16600 46.64070 -11.32410 -21.52121 -31.53103 -41.69279 -48.24669 -50.14740 -32.69235 -28.03549 -50.54331 -44.91675 -50.20088 -53.52818 -63.08329 -62.08320 -67.93027 -73.27056 -68.76203 -68.91356 -64.41716 -75.03062 -73.91751 -72.53010 -76.24978 -91.33349 -94.41311 -95.50747 -108.34410 -100.08409 -96.18769 -91.65178 -97.04533 -104.99162 -115.17456 -122.21296 -120.22551 -130.98695 -139.78581 -129.29253 -133.54351 -147.64312 -149.18907 -156.98802 -168.56901 -240.28413 -431.22138 -746.59245 -895.05357 -916.79729 -999.77211 -1149.41791 -1185.96969 -1309.70915 -1358.78286 -1422.22553 -1473.65436 -1638.31152 -1725.21802 -1765.43870 -1816.26508 -1892.17187 -1956.59571 -1959.90751 -1992.39597 -2011.23019 -2018.73024 -2032.27153 -2033.34093 -2043.22811 -2039.25233 -2062.96650 -2072.53516 -2082.27814 -2092.17454 -2088.87183
397.81056 403.47120 398.22271 404.99697 418.51913 446.08190 452.95274 495.87444 500.12602 496.72303 456.57191 352.47796 231.95249 100.55825 79.21468 85.92350 30.46644 -9.08607 -45.00494 -41.34943 -32.78408 -27.74818 -17.10985 -13.93063 -18.14676 -34.19860 -41.64730 -49.04090 -59.10223 -57.14684 -78.52749 -81.50937 -76.32949 -82.85492 -74.16975 -73.02710 -70.66719 -80.24251 -79.67531 -73.37555 -82.14439 -101.13411 -102.69399 -107.11075 -102.20189 -93.11831 -90.02639 -95.51857 -103.47798 -110.89976 -111.26285 -118.15700 -127.96988 -123.89531 -128.87479 -123.43391 -134.79476 -150.13591 -154.59970 -169.55874 -159.66733 -359.46404 -704.78433 -885.50359 -1002.46142 -1057.28468 -1123.59667 -1155.47914 -1198.32184 -1251.58101 -1330.78434 -1435.31096 -1542.18887 -1612.87201 -1735.64531 -1752.32832 -1865.08294 -1940.25030 -1970.24950 -1978.07696 -2014.20421 -2027.45336 -2029.17305 -2044.34863 -2057.65462 -2064.72498 -2080.80712 -2080.77233 -2094.19445 -2109.49998 -2105.18458
404.73194 404.42025 416.20773 395.99974 410.61993 445.88799 467.15997 470.16655 434.13326 413.76219 388.25598 324.48710 262.81237 123.25087 107.14609 91.25046 42.57706 5.41877 -40.23999 -35.57200 -28.07071 -22.14130 -8.31959 -13.84744 -26.63231 -23.01868 -40.78801 -50.38386 -63.91361 -70.17206 -78.59918 -71.73863 -78.99971 -83.50404 -76.19800 -79.68645 -85.62262 -85.90145 -79.31883 -76.39483 -82.45655 -102.53913 -105.19992 -110.17306 -100.90856 -83.45343 -90.04615 -98.58915 -99.19063 -101.09891 -108.75559 -116.97197 -123.91740 -125.61686 -124.59649 -124.53874 -131.01718 -144.30688 -150.86399 -147.45659 -236.72238 -369.80973 -603.33878 -851.53559 -1064.29837 -1080.08937 -1123.37578 -1127.25886 -1137.96361 -1213.00516 -1266.52771 -1299.18896 -1353.79207 -1544.38486 -1580.47901 -1681.75685 -1802.52071 -1945.00191 -1952.13254 -1991.89292 -2030.06331 -2031.35424 -2034.61117 -2046.63819 -2060.29237 -2069.73559 -2084.10438 -2092.98995 -2127.07995 -2124.03715 -2123.23368
426.10535 437.21457 410.05167 405.37823 394.65252 416.67875 444.64920 448.57766 441.60630 396.06890 379.97505 370.54769 283.61720 180.99248 95.78109 80.74654 43.05791 -6.10001 -32.58957 -31.17501 -23.17149 -24.37782 -20.47250 -24.34757 -26.50133 -23.74589 -51.64059 -59.35344 -65.38375 -75.13879 -67.67567 -65.09743 -65.96289 -64.23965 -67.16851 -72.67674 -75.13414 -89.28107 -74.04414 -85.55998 -83.30903 -101.69807 -106.70363 -94.00640 -88.58811 -92.79317 -96.81229 -96.88290 -95.06885 -107.20719 -108.89852 -118.98974 -115.60794 -116.29117 -121.61063 -128.78830 -123.79015 -131.74251 -157.33339 -145.66778 -173.74367 -314.85319 -696.57287 -972.60398 -1077.01752 -1104.57631 -1113.56007 -1123.75556 -1112.67584 -1117.66689 -1152.22693 -1210.86184 -1222.78916 -1361.51047 -1440.31920 -1505.18002 -1809.65579 -1871.89090 -1961.02538 -1978.33082 -2027.59126 -2032.59519 -2041.87384 -2049.73248 -2059.92809 -2072.12138 -2089.90940 -2104.81482 -2119.83326 -2136.00175 -2127.70343
448.22145 445.91859 449.96927 390.56186 381.62908 394.02396 423.08502 429.83617 388.84325 393.41421 372.51379 343.04501 264.91360 193.63302 136.18974 62.08366 28.03313 3.82981 -20.62765 -25.34547 -24.76662 -17.80217 -38.59613 -37.78764 -41.22046 -40.11234 -56.01753 -60.30300 -72.34578 -69.89952 -59.68050 -55.16026 -53.87164 -56.76916 -68.77016 -70.21128 -88.18707 -90.12240 -79.74068 -93.62807 -100.25274 -100.86805 -102.99949 -96.84250 -98.32491 -84.71379 -94.99380 -98.82643 -102.41165 -107.79051 -113.26121 -117.69636 -114.90516 -115.73744 -117.99201 -127.24022 -133.03004 -140.76129 -135.11959 -140.63443 -209.52411 -331.35138 -732.49690 -914.00006 -1084.15211 -1089.43028 -1122.82135 -1118.13503 -1116.94479 -1108.64753 -1109.65243 -1129.52449 -1189.99128 -1277.13410 -1331.13765 -1473.86388 -1702.55289 -1852.80106 -1953.53307 -1992.23294 -2027.82658 -2032.58021 -2031.81139 -2042.91280 -2040.83939 -2056.08150 -2095.87478 -2093.01816 -2118.03994 -2136.51242 -2136.11739
474.36060 467.02412 430.15730 392.63900 377.04174 375.85026 385.74906 379.82673 367.06569 364.10855 301.46717 270.28056 253.79837 223.10779 141.17798 53.85638 12.76718 5.84086 2.98719 -4.73825 -22.03084 -37.11314 -40.02536 -48.58443 -71.11044 -61.61049 -71.63414 -71.54515 -81.10481 -68.21825 -57.63560 -53.07071 -61.95559 -59.03569 -54.56852 -72.88513 -84.04961 -82.46415 -89.33327 -99.48181 -97.70994 -100.58704 -98.04948 -87.50603 -89.05020 -95.19810 -95.72159 -104.25252 -103.41524 -107.68388 -120.96913 -119.49655 -116.71187 -119.84522 -119.48648 -125.83868 -133.93596 -129.61632 -127.74059 -159.85154 -233.50686 -433.56198 -591.13668 -1023.65731 -1062.66000 -1125.26934 -1119.91624 -1135.17875 -1124.81512 -1111.51867 -1118.47962 -1122.59948 -1160.95135 -1180.69488 -1259.72902 -1466.52614 -1600.10188 -1796.52643 -1914.89381 -1972.10453 -1992.41498 -2003.62195 -2009.45289 -2020.37682 -2034.05812 -2052.25791 -2074.04583 -2104.94149 -2117.78549 -2130.64436 -2129.60274
488.07996 496.46561 451.19638 397.43539 384.92209 341.02937 314.88292 305.85904 300.11807 205.08911 225.88666 218.08460 228.45564 195.36931 172.24807 93.99648 26.68399 8.18598 30.81685 6.75647 -23.54109 -40.52420 -58.15484 -54.94023 -50.95024 -60.64271 -69.04217 -63.77450 -67.81330 -57.92034 -61.57672 -48.48037 -48.27837 -51.06233 -60.17415 -66.25036 -68.70179 -82.35723 -78.53476 -90.00004 -78.30575 -72.84573 -89.03017 -77.47182 -80.86355 -87.38328 -84.31725 -86.73491 -94.43131 -108.97580 -108.96707 -117.71966 -116.36178 -117.93892 -125.22958 -136.67393 -131.40188 -129.23811 -139.33323 -169.21771 -212.14428 -368.27399 -598.72146 -857.14987 -976.00969 -1050.15447 -1122.14422 -1127.10041 -1121.37198 -1116.89789 -1103.17736 -1104.15794 -1102.69709 -1140.26569 -1278.60648 -1383.38610 -1588.13876 -1759.89275 -1869.32231 -1887.94780 -1932.43359 -1931.99886 -1943.51648 -1972.64116 -2009.28266 -2042.50160 -2057.43960 -2081.10360 -2108.39752 -2122.36582 -2113.59254
536.24408 541.39312 465.28473 382.28413 382.02101 310.08314 281.71303 227.30022 230.01353 195.42104 139.99392 150.22842 181.30424 167.24620 166.46862 110.57909 58.28143 30.71243 46.91335 23.85629 -40.58850 -48.73839 -53.55512 -44.97552 -28.57487 -42.66089 -38.33182 -55.15076 -53.90253 -58.42455 -56.72781 -45.46860 -41.82616 -47.46874 -52.92013 -56.09956 -62.86070 -69.15114 -70.58918 -68.79498 -66.24643 -69.18129 -66.52810 -73.80159 -76.63989 -75.19395 -79.01317 -95.27243 -96.12641 -106.81665 -101.27823 -108.09193 -108.03192 -111.00408 -112.16818 -125.70583 -132.09819 -125.12245 -138.51861 -142.09269 -206.01408 -373.32890 -490.83116 -757.78844 -892.78011 -982.17707 -1055.53399 -1115.53909 -1123.28080 -1110.55798 -1098.47736 -1085.33771 -1074.58076 -1086.30997 -1133.80977 -1272.27345 -1387.16966 -1585.44455 -1734.70793 -1825.72430 -1855.24408 -1876.56163 -1884.57586 -1889.33346 -1954.69955 -1979.02682 -2047.35916 -2042.84048 -2089.47352 -2097.36091 -2106.78628
557.39639 556.05343 510.28912 416.41209 349.75855 310.82038 257.30055 236.66564 162.11603 104.54728 95.46312 117.80622 145.55629 160.46742 156.82036 123.45274 98.28664 74.70649 36.78934 23.15695 -41.27563 -53.18502 -58.03117 -52.04735 -25.08141 -20.92699 -26.98519 -40.99235 -44.81180 -52.39103 -63.18209 -41.91111 -40.18886 -39.88304 -51.85262 -57.40677 -58.15528 -69.62589 -69.28207 -68.03609 -67.36722 -64.42485 -74.19517 -76.75869 -73.69434 -80.45710 -83.02330 -85.72557 -98.18086 -107.36865 -106.96399 -106.70798 -112.23741 -116.87113 -122.22334 -124.07316 -125.78142 -133.53197 -142.51857 -150.41728 -164.49598 -202.88837 -374.62615 -683.96598 -707.26012 -902.52872 -967.00585 -1048.40544 -1106.17233 -1110.00351 -1099.13703 -1076.65178 -1066.75222 -1077.95718 -1099.76177 -1197.87349 -1281.16543 -1442.72005 -1548.04623 -1592.86398 -1686.00756 -1748.47152 -1754.85578 -1758.52141 -1881.01176 -1954.73168 -2009.73477 -2029.81889 -2028.79509 -2061.71889 -2065.31330
620.21136 624.02561 650.29320 393.60961 379.10162 344.48658 311.36612 260.32283 186.72972 120.39097 57.02057 69.33658 111.36265 136.57193 137.27049 124.30534 99.67189 73.99841 46.89177 27.13902 -16.29436 -39.78819 -50.15248 -46.13673 -23.23296 -20.59473 -24.30610 -38.79692 -42.85654 -45.63688 -45.47953 -43.54346 -36.21349 -28.90497 -50.18517 -50.96614 -50.92737 -59.73432 -61.93805 -73.01751 -64.53234 -73.78450 -80.18863 -82.58087 -73.90935 -74.12091 -87.60295 -83.44696 -89.91396 -105.15473 -110.08707 -106.55540 -107.23923 -104.02840 -108.65055 -117.55534 -126.24796 -133.40785 -141.33664 -142.12241 -166.85068 -171.47583 -164.22777 -348.68117 -532.73082 -633.58868 -894.85006 -924.37478 -1018.51536 -1033.42508 -1036.20958 -1026.35059 -1051.43493 -1061.21012 -1119.80132 -1198.35438 -1266.25491 -1352.01896 -1464.94061 -1508.73054 -1531.15989 -1576.18351 -1596.08001 -1710.69303 -1707.24083 -1816.11888 -1957.64994 -1965.11687 -2029.55004 -2018.35224 -2009.54458
776.30747 781.00122 673.10785 471.15153 396.09466 419.96633 403.69290 272.79103 240.74978 142.66451 47.96389 44.49151 59.02111 65.94838 85.95876 85.12999 93.38217 78.88108 83.22118 36.07676 3.08056 -20.59292 -31.98332 -46.69461 -39.69628 -25.34662 -19.49167 -21.42670 -33.05601 -45.00216 -35.46717 -48.45151 -33.63215 -38.46808 -41.99360 -46.77966 -52.47340 -54.86117 -53.99650 -61.99674 -68.33778 -74.76514 -87.79166 -83.78219 -86.32570 -89.29276 -92.63948 -96.63778 -92.60504 -97.61920 -107.30126 -101.23077 -98.04250 -107.93751 -98.07335 -117.86234 -129.59987 -122.09766 -129.42627 -137.86512 -163.28793 -163.18136 -164.93102 -166.19083 -261.47873 -472.59040 -746.72328 -893.17394 -841.65619 -906.57599 -909.65478 -966.10309 -991.32342 -1056.49268 -1125.40523 -1227.18882 -1235.53587 -1309.18040 -1335.73008 -1349.65663 -1470.02762 -1562.36749 -1529.38914 -1584.58187 -1616.77914 -1685.85175 -1775.99338 -1870.24440 -1922.29357 -1944.71459 -1944.92614
845.44466 844.19010 764.07802 511.25920 474.26779 477.14246 411.85471 334.56417 260.46651 157.65632 71.16253 61.75487 55.27508 27.35201 13.69332 37.14803 66.00037 73.69786 84.56672 55.42990 7.90102 -18.70363 -36.70446 -47.43467 -36.38155 -26.40179 -11.45991 -26.05190 -18.63902 -29.73779 -35.13344 -43.62621 -37.63628 -44.98842 -44.65880 -57.14356 -59.22580 -55.04847 -57.69342 -69.57207 -84.82573 -75.64181 -84.46849 -80.52359 -79.13163 -82.68059 -88.62322 -98.02111 -97.80451 -102.82934 -95.55026 -100.32799 -95.74251 -100.38437 -107.98667 -110.20550 -120.13388 -123.39258 -138.69020 -141.93437 -150.93594 -147.26414 -158.19254 -162.83186 -281.32921 -345.17794 -405.85346 -661.55608 -733.76473 -657.98188 -716.05481 -843.93707 -929.02720 -1043.64013 -1100.12844 -1178.36882 -1189.57997 -1252.99524 -1241.23062 -1299.01811 -1323.92158 -1363.49256 -1380.65311 -1428.96441 -1460.78603 -1568.07850 -1624.61428 -1748.78159 -1858.95907 -1849.18069 -1852.47982
1068.83158 1066.90827 810.68725 583.73642 485.66616 542.49982 368.35463 296.77193 188.67638 152.85945 104.53534 95.24234 53.35469 24.40213 -10.97818 9.68227 25.04537 39.98016 59.62672 55.17026 -11.50341 -25.48710 -40.97277 -28.79017 -6.96008 -10.28134 3.66152 -14.81942 -17.64853 -21.13485 -27.83254 -41.77802 -40.11266 -45.64456 -56.05824 -63.88403 -65.10436 -60.03830 -69.62515 -76.95964 -71.44722 -75.14327 -71.03735 -69.86000 -72.04104 -81.76548 -82.71912 -93.91657 -91.73661 -95.59226 -93.98990 -91.22146 -89.56699 -97.23561 -101.99277 -110.83561 -109.91190 -128.31432 -127.83553 -129.90837 -140.72690 -143.00908 -152.75699 -161.53269 -171.61866 -165.97691 -288.42155 -354.79308 -378.19196 -426.60184 -544.36545 -764.53743 -889.88625 -1039.83246 -1095.33751 -1161.84070 -1196.66339 -1193.91536 -1194.61147 -1142.63237 -1077.57886 -1078.71947 -1192.10583 -1222.49644 -1329.38124 -1376.03822 -1536.70954 -1525.23408 -1737.22660 -1749.16795 -1744.83483
1099.05477 1100.97245 880.70740 640.96896 570.55400 507.24949 414.88856 226.49489 168.54170 112.07038 85.65088 83.68449 28.12238 30.21572 -15.57676 -18.82574 -2.50078 34.27825 60.53852 20.77227 -3.32354 -35.72541 -33.77554 -15.49915 13.30871 27.97846 12.21472 15.84192 -0.16785 -13.36681 -22.34731 -30.32191 -43.99051 -49.83867 -56.56124 -64.86313 -66.43609 -62.83970 -64.73844 -69.00663 -67.80875 -71.35857 -61.68313 -65.38574 -73.53937 -73.09056 -79.74525 -88.69508 -96.21431 -95.37311 -87.37631 -91.64343 -84.73879 -94.54700 -101.49486 -103.34986 -114.86323 -117.25724 -127.77240 -125.04747 -133.39468 -129.84872 -142.02310 -134.38918 -160.52620 -161.19461 -174.01460 -170.76452 -164.88458 -255.19523 -354.52641 -616.95204 -852.72002 -950.66494 -1090.95400 -1148.23477 -1182.48136 -1154.16918 -1128.93866 -1066.06803 -1069.09904 -1070.34732 -1069.03429 -1044.10388 -1146.05916 -1307.93208 -1359.83721 -1440.46862 -1531.88765 -1612.79457 -1616.67172
1149.54569 1147.91850 1204.73099 709.39101 697.47672 620.74114 511.13090 312.25565 196.42285 127.96973 74.70923 59.96502 54.52211 43.39794 -17.79290 -16.87144 -6.20855 11.79055 15.46332 10.98192 -12.80024 -22.67915 -16.76783 32.93381 44.95041 44.29291 36.65480 24.50397 15.92843 -9.68298 -19.87515 -34.68420 -40.76600 -55.16651 -43.85763 -53.74272 -62.20420 -57.42583 -49.27754 -57.29034 -60.82565 -58.87105 -63.39806 -57.77162 -66.67857 -86.85058 -83.02409 -91.00359 -94.51382 -90.07530 -93.22880 -88.47891 -90.09776 -93.21184 -95.57032 -107.22190 -110.58627 -113.13348 -120.57507 -119.69994 -136.09494 -143.87188 -131.62392 -137.14852 -141.62106 -147.66662 -152.89610 -154.84664 -163.80487 -251.68458 -286.63807 -461.06094 -797.36738 -960.96600 -1069.96292 -1136.63411 -1124.98739 -1113.36065 -1067.33514 -1031.58238 -1014.36867 -981.98974 -976.81319 -1021.82480 -975.31907 -1097.95170 -1283.27222 -1294.29186 -1396.41061 -1462.93947 -1465.04485
1375.78677 1374.11877 1136.77260 840.19321 767.43273 723.45055 626.40243 410.27917 248.28859 161.17330 121.01854 116.02472 112.71775 90.46230 67.64476 -11.93903 -14.06090 -7.74416 -12.54320 -29.61613 -29.35414 -40.67338 17.35342 32.65850 47.56398 51.31798 47.33375 50.43953 23.07299 0.59522 -22.24655 -36.63666 -48.00342 -50.16954 -47.31203 -51.65023 -52.77851 -60.04684 -48.71983 -53.64899 -50.87346 -57.37513 -69.60306 -70.75537 -76.55106 -76.79066 -79.00697 -79.12012 -83.76589 -88.50801 -88.66662 -89.67368 -97.93893 -96.36008 -107.54625 -104.36854 -112.25012 -110.29759 -112.82412 -115.27943 -125.11321 -132.39308 -130.53735 -137.73454 -130.69493 -133.85647 -140.66929 -141.25953 -150.15628 -249.75197 -362.66025 -564.20501 -728.95621 -835.44758 -936.76461 -1033.82476 -1086.12788 -1066.60540 -1039.35945 -1021.88174 -970.03604 -931.62921 -899.91344 -903.87702 -895.21382 -908.55309 -1028.74577 -1128.04720 -1247.72561 -1318.74705 -1321.57780
1169.58161 1169.03492 1112.16741 907.35905 799.45077 744.30270 690.88598 498.77205 401.36303 258.96368 173.07378 196.30883 172.97339 142.00341 63.58624 14.98551 7.23549 -24.11891 -31.41796 -31.32941 -44.00177 -44.62179 19.66905 40.61704 78.50938 76.94435 48.27122 33.82240 21.08308 -20.57060 -22.49517 -22.68534 -42.44783 -38.52118 -45.97809 -42.93400 -43.54280 -42.49431 -46.43105 -56.04917 -64.25221 -71.74566 -67.54065 -72.10673 -73.69275 -83.90539 -79.49283 -79.93070 -79.43631 -79.77233 -82.28183 -87.95418 -99.13270 -100.67833 -98.76826 -108.82306 -110.72761 -106.72301 -108.15960 -115.83412 -128.58434 -131.03798 -115.84791 -130.39667 -128.42545 -137.90008 -139.37211 -130.58084 -144.24030 -156.40201 -321.06218 -511.39316 -672.69820 -649.60658 -904.52702 -965.91713 -1017.82063 -1029.91505 -1028.18406 -968.85351 -954.33001 -917.47890 -911.86542 -820.56049 -792.97472 -822.90003 -866.65874 -989.97013 -1112.27627 -1208.86445 -1211.34392
877.46839 882.74645 961.43206 722.82128 707.30204 710.01155 635.27052 557.81290 372.96034 340.23975 273.40873 230.80908 229.58839 132.17196 76.38936 10.13275 16.25360 -6.62989 -16.85711 -21.93962 -37.20173 2.24258 55.93429 92.45073 100.09164 80.95259 47.18969 19.89070 -6.63960 -19.37085 -27.16364 -39.41966 -33.65107 -22.20665 -24.02789 -34.82779 -44.52289 -49.91779 -51.71645 -60.83500 -70.19041 -64.61533 -69.80542 -77.47886 -72.25760 -73.70934 -70.70046 -75.80022 -74.37570 -81.00575 -81.51949 -90.82697 -96.70844 -93.20091 -102.49584 -113.05371 -108.26210 -113.55790 -114.60322 -114.02845 -119.48392 -121.44237 -123.43749 -123.74891 -126.69198 -121.90442 -125.24912 -136.02991 -137.64088 -147.53562 -356.95701 -453.34120 -605.84586 -665.70972 -787.77758 -885.35090 -945.03057 -954.81091 -977.80894 -954.27139 -897.25928 -855.83309 -817.46579 -719.72437 -736.23577 -757.08788 -829.32374 -861.95429 -1138.50477 -1132.56479 -1132.78177
852.79289 857.42266 719.65747 582.34161 580.99515 638.31030 599.48786 575.25505 464.79669 434.59263 397.65184 307.30344 297.07221 186.03118 64.14735 31.74685 50.68985 34.96057 1.64791 -23.50396 -15.95473 8.29546 55.20915 97.26942 102.22474 88.72714 46.41514 1.19192 -23.05207 -30.29447 -26.89101 -31.83063 -27.73857 -18.78003 -21.24539 -27.63413 -42.83130 -42.90344 -60.27219 -57.24225 -55.72875 -64.94569 -67.33535 -60.35736 -70.77552 -62.03550 -69.54999 -73.73835 -69.00503 -73.92619 -88.28143 -99.01540 -90.89069 -104.00116 -100.03625 -100.63712 -113.31003 -105.43214 -108.68901 -118.74328 -122.02135 -124.30053 -117.04760 -123.75120 -128.37081 -122.11117 -131.76251 -136.67640 -140.45116 -142.49481 -227.98621 -368.16875 -551.80807 -595.96281 -751.88205 -841.17350 -894.50409 -930.45145 -954.16711 -910.51955 -886.89309 -816.29725 -727.55209 -686.96018 -705.73123 -701.88980 -779.25151 -859.35083 -990.15130 -1065.11269 -1074.39672
738.18386 741.69944 676.21682 484.03894 473.37272 482.77439 466.87805 466.68632 478.13763 517.10980 470.80209 385.32947 291.92258 171.03768 91.35509 100.17799 84.22214 83.79067 64.61035 10.98867 22.65439 20.37491 39.89938 78.81916 96.48843 75.08356 36.23567 -6.67931 -18.91829 -19.80559 -19.14562 -22.09877 -12.98448 -6.94840 -15.23210 -33.64407 -47.04001 -47.08087 -44.89212 -49.31351 -60.46028 -53.17259 -59.03104 -61.83641 -63.95276 -69.44020 -72.17257 -68.82046 -69.23104 -77.02609 -88.04030 -92.21660 -95.76042 -96.68453 -100.02358 -104.93210 -115.01812 -113.19904 -107.35099 -117.21079 -116.39873 -115.65675 -123.60837 -115.67282 -124.78795 -127.21940 -134.00345 -128.44741 -138.36365 -137.48217 -208.81081 -333.41078 -348.02865 -328.08087 -588.35633 -766.48121 -801.07942 -914.73745 -925.49258 -889.68655 -854.55643 -721.92383 -699.47460 -667.09951 -678.22641 -671.27620 -741.64654 -867.23730 -943.75842 -994.99885 -995.12260
646.13031 647.51189 507.77241 367.71056 352.69058 362.30769 401.93151 398.95636 522.66735 566.45506 548.85872 445.59245 302.40974 242.51372 119.26468 122.21067 151.59686 84.94481 103.05182 85.60277 39.87382 35.17599 64.02244 67.24353 106.07944 90.55510 74.74518 28.79254 -16.80358 -17.74087 -13.51887 -4.92450 13.06152 12.77118 -0.54874 -23.16016 -29.58757 -37.06478 -42.58531 -39.97091 -50.64713 -50.62335 -52.17561 -63.44490 -64.53386 -78.34010 -72.27673 -82.48816 -81.26933 -71.45669 -86.22336 -85.78518 -82.60853 -91.12355 -93.53849 -102.84258 -100.32442 -113.22526 -104.71919 -114.60635 -117.66745 -114.61062 -114.55971 -124.69456 -122.62285 -127.23299 -126.10958 -130.42144 -133.84727 -136.15308 -193.60791 -239.92670 -235.61613 -191.22478 -261.31839 -541.76352 -729.90450 -793.74391 -833.21547 -806.64522 -709.30955 -653.69397 -600.95782 -590.56866 -622.06535 -612.36531 -660.33153 -692.70457 -900.09396 -902.87232 -900.19645
586.17907 583.96720 472.28133 362.05860 281.12729 235.90184 269.25741 378.82704 470.19132 518.77242 506.74212 442.69474 314.67085 236.37393 171.66897 199.01265 179.69876 144.24376 118.52609 154.84815 106.77636 93.30777 116.19336 87.31170 154.28230 131.82149 122.19158 76.95001 18.48919 25.44098 33.36944 52.31448 55.57813 48.08368 13.60624 -9.00038 -23.65883 -28.58819 -34.19578 -33.89267 -38.62358 -38.69599 -50.06850 -58.48403 -64.71074 -71.25782 -77.51000 -82.32368 -82.95103 -85.20721 -76.30289 -89.11775 -94.62651 -90.92577 -93.22868 -97.72393 -103.44810 -107.85711 -112.16401 -117.22836 -110.63557 -117.31742 -119.04372 -123.78559 -116.60426 -126.38018 -123.52791 -126.17286 -129.19442 -126.87884 -146.53810 -188.76244 -200.42462 -161.87948 -244.65590 -314.46341 -574.83827 -685.93119 -688.51099 -712.03687 -646.42604 -605.95884 -539.71714 -534.64464 -537.95958 -533.02457 -573.04285 -607.92983 -733.22782 -791.41138 -790.05837
502.63387 503.82195 530.20451 296.34538 231.18091 214.75622 220.07627 307.18232 369.21427 403.64500 409.63709 401.10796 394.67785 287.26325 293.65886 276.72857 289.17731 223.24753 170.46685 172.56397 173.30581 125.53824 139.48428 186.50081 181.56080 144.09602 136.94620 90.82663 68.28188 84.17623 106.23959 124.74354 98.69210 76.43568 52.79505 2.51851 -12.91524 -19.05052 -38.50020 -35.65948 -43.94713 -44.23446 -49.73541 -58.73388 -58.77979 -70.74657 -72.21881 -86.35307 -82.80608 -85.67853 -94.99515 -92.22808 -96.98210 -97.47639 -96.70671 -103.83862 -111.02900 -105.42370 -110.97707 -119.41136 -116.28295 -111.25829 -124.29522 -126.01777 -122.36738 -128.39542 -123.33473 -133.72453 -130.38940 -133.95899 -140.12298 -142.56040 -148.89212 -157.45284 -166.07264 -242.06741 -340.48755 -485.26845 -500.78594 -513.49064 -606.31940 -506.07135 -517.93135 -497.68870 -485.07572 -507.12209 -527.41309 -565.44455 -668.02909 -682.88329 -683.21085
504.15543 502.70736 452.86420 339.92204 249.16138 188.92548 166.13836 242.35806 263.37370 320.99764 386.16057 381.32720 392.26548 391.50275 348.56155 345.15683 323.42071 325.38205 281.33641 267.74274 199.87596 212.12704 217.10214 229.10171 190.97115 165.90733 129.39350 82.75818 76.53268 87.93667 133.46668 122.30656 91.94142 61.06973 21.77350 5.28179 -23.83384 -29.38221 -27.07227 -31.63835 -54.24985 -54.42603 -54.86431 -65.63173 -63.18334 -71.39289 -82.16479 -82.33790 -95.45082 -89.02809 -92.85451 -103.48881 -103.65563 -94.99155 -101.02148 -98.35976 -103.88284 -112.29870 -120.02796 -114.93471 -123.14006 -117.73105 -111.39756 -122.02771 -115.46693 -133.49717 -125.08013 -128.88754 -131.53447 -137.68019 -136.61897 -144.01372 -144.59155 -150.90918 -152.47954 -152.48129 -157.22520 -395.71765 -298.54105 -400.17448 -505.32526 -476.05377 -438.09153 -415.05384 -414.35720 -445.67501 -492.99403 -500.12247 -602.66005 -583.07037 -588.69969
468.01018 470.15992 432.26996 337.51031 261.97405 172.74837 132.12951 150.42691 195.99019 200.33672 257.31424 298.54507 386.80937 416.72501 372.10950 352.53405 332.69642 344.72211 310.50825 293.99331 276.15958 254.92780 244.55665 222.05790 162.82993 110.08459 96.65066 36.79162 35.57374 46.53643 63.21067 100.13118 52.23667 34.43955 8.76185 -13.14350 -35.72676 -26.46909 -34.43153 -35.24330 -59.67882 -61.33950 -69.09279 -71.47352 -68.42235 -76.99218 -76.02784 -83.67182 -85.13873 -85.78470 -84.33525 -102.10021 -102.27621 -99.62321 -100.33788 -114.48676 -103.76551 -113.47856 -113.77756 -108.27630 -110.50632 -112.47239 -116.88204 -114.11033 -116.44124 -126.07623 -127.20499 -138.38456 -131.60538 -137.08056 -138.61903 -140.08114 -149.10318 -150.38600 -152.43358 -149.89176 -156.67218 -164.12600 -170.03703 -259.16133 -235.08456 -360.53470 -363.24631 -398.52612 -395.74500 -418.35048 -438.79200 -471.43083 -510.07802 -531.48405 -525.66245
460.60710 466.00227 376.52443 262.82088 253.24249 115.66952 76.93909 108.51424 106.65320 176.24047 201.26410 222.04758 295.36595 337.21379 341.31414 321.50679 298.62819 307.49245 267.36712 286.89964 271.82125 283.50042 226.93816 184.21068 85.89873 66.05026 63.20167 49.74297 21.73827 31.46420 59.73319 37.25443 8.45584 -13.39174 -23.51630 -31.38459 -38.62811 -45.85198 -50.86825 -64.65199 -64.20069 -55.46117 -78.26813 -63.56297 -68.88624 -79.32281 -78.18681 -89.21232 -91.07275 -83.94186 -86.79421 -88.71420 -88.75864 -100.47526 -101.15536 -89.67900 -95.19142 -103.52258 -101.14470 -104.86451 -110.96501 -108.17625 -102.28819 -106.20764 -115.60328 -121.19696 -120.79503 -131.14618 -128.32789 -133.92062 -139.33334 -137.13005 -146.00713 -145.13605 -149.28030 -152.05861 -153.09453 -164.33783 -174.02110 -177.14693 -173.56184 -236.79542 -294.48071 -327.70981 -367.86367 -372.61079 -433.10142 -468.18088 -494.66585 -499.38491 -507.79858
475.74623 475.51137 378.81843 263.14807 170.63629 133.40705 83.08315 89.04416 40.31933 60.35762 134.76685 160.85313 205.96532 303.58640 283.55904 271.98217 283.44876 242.45899 232.96771 221.08071 269.56716 279.06727 228.70804 175.61228 106.63269 57.11615 65.35687 83.66024 56.55413 19.96463 6.72961 8.25499 2.02081 -28.26668 -50.23197 -35.71592 -39.62323 -47.01626 -54.87555 -62.68491 -53.68081 -61.78031 -64.37483 -69.23508 -75.74329 -88.14335 -84.56763 -84.56736 -79.83668 -80.06876 -79.95150 -86.58274 -88.88213 -101.18545 -102.54064 -94.93957 -98.30654 -95.64687 -110.17052 -104.38415 -101.04242 -104.22418 -104.24337 -108.88367 -115.82937 -112.75055 -119.29822 -122.96630 -120.86191 -125.61832 -139.25676 -133.61653 -134.07924 -138.64713 -144.38702 -149.88188 -154.07788 -152.48996 -164.14995 -170.36069 -173.02387 -203.73801 -226.07286 -276.99872 -295.88609 -358.38835 -420.12226 -479.63352 -506.85145 -536.46560 -536.59730
477.19215 480.27805 503.36866 222.78585 190.62588 163.22461 128.82252 107.93078 47.08049 46.84167 89.12353 125.31877 204.31482 209.59476 190.98969 228.20627 214.98183 171.73095 154.03200 176.36546 234.25102 287.73782 260.03705 217.92989 194.79218 119.68699 90.63363 94.62773 80.85970 48.79504 -8.91726 -16.83199 -21.03881 -13.74293 -40.48559 -31.81067 -33.62787 -37.93840 -47.48346 -58.96091 -55.74923 -48.94011 -55.12663 -63.14258 -69.45134 -81.83965 -77.75298 -69.72631 -73.34785 -77.96609 -80.04825 -82.61342 -93.86174 -100.04292 -99.41844 -105.06197 -99.29234 -96.84851 -100.66956 -99.02067 -102.01138 -101.03666 -105.99945 -108.97793 -113.15139 -119.74235 -118.48425 -123.64221 -120.82346 -127.96464 -134.72507 -140.25255 -132.91734 -138.69997 -141.78743 -142.17806 -146.57016 -151.97797 -159.86919 -161.10599 -172.50157 -162.88618 -198.63597 -211.25462 -282.81021 -343.05889 -393.28402 -479.47360 -558.33324 -642.80475 -643.66927
551.85357 556.82858 444.55965 295.30274 220.48377 217.66430 211.39737 194.20324 28.74454 27.95772 42.58955 79.22274 120.79020 126.95581 129.36042 156.61823 195.60100 152.09880 93.16992 132.01884 208.62323 259.14376 264.67930 261.12582 226.34005 223.60478 155.84481 137.09305 106.82631 42.73991 -3.06492 4.19400 -4.18229 -5.14497 -14.68939 -8.04905 -10.97054 -24.52533 -21.49010 -24.76651 -39.22062 -53.54015 -52.54928 -67.62539 -72.34280 -78.14977 -68.12542 -66.54330 -79.38059 -78.94468 -81.13974 -88.04676 -94.09767 -86.40546 -98.79767 -108.77336 -106.89852 -100.93246 -112.29811 -111.25476 -112.14433 -110.02784 -107.08283 -102.52134 -114.20264 -113.20319 -113.22632 -123.89369 -120.86201 -125.71820 -130.40689 -129.17836 -135.37359 -140.01274 -131.59807 -145.31600 -143.08879 -139.12658 -143.15869 -151.78780 -155.62766 -158.13304 -178.95507 -208.25418 -220.96532 -284.49585 -392.56059 -443.28152 -702.60342 -744.89469 -738.96626
563.50695 569.47156 456.88717 348.35137 321.85824 313.25474 292.92759 233.63395 136.71295 46.52537 16.47979 11.26199 77.92203 75.57824 107.79624 106.98256 77.36288 52.35062 77.02471 98.78835 141.25656 207.81625 236.22425 220.31218 235.61464 236.62224 178.18376 150.64798 110.28186 49.59655 19.79900 22.62873 13.80672 7.83085 7.45684 2.36723 3.38102 -1.41077 -23.17801 -24.05236 -29.47629 -52.49136 -48.78366 -46.67374 -73.26929 -63.92712 -71.56234 -66.65755 -73.67679 -85.88418 -87.96453 -94.97642 -93.15108 -100.21567 -102.53601 -100.95845 -104.11378 -104.01457 -105.10367 -104.07394 -109.87755 -115.90938 -106.71801 -111.56802 -113.86792 -117.54073 -119.28684 -117.92528 -114.86144 -126.23575 -131.87020 -134.68798 -133.59597 -131.10903 -136.41971 -143.92500 -134.19001 -142.54164 -155.11671 -150.01299 -148.31292 -152.03238 -156.17203 -163.32295 -228.60673 -275.38688 -375.63185 -488.83149 -616.52229 -702.73342 -698.46892
522.89971 519.61313 567.73684 449.26671 450.26167 370.38873 300.11451 235.67900 153.70097 91.05182 47.08781 26.28900 38.07014 79.81522 106.42164 103.40711 50.16454 42.92154 71.00373 116.44762 154.65079 189.58070 172.34162 192.98478 223.63834 218.37525 186.26914 176.58487 124.63211 88.07831 36.41299 30.49105 21.31465 19.18540 26.66888 30.29423 24.46774 14.22857 -3.82661 -17.12167 -33.75213 -30.98259 -33.93618 -52.35444 -51.73902 -55.62237 -67.21585 -65.69382 -71.58574 -79.64240 -92.64408 -95.18340 -97.33764 -97.14855 -98.71546 -98.62081 -105.10270 -106.45660 -111.72910 -104.80898 -118.91827 -105.92148 -118.60610 -104.93117 -113.49105 -115.64739 -116.85800 -123.35673 -122.84667 -119.34796 -129.27609 -130.29987 -130.36309 -131.28293 -143.88388 -140.05451 -146.91931 -142.95495 -146.58659 -145.52358 -147.15245 -146.03999 -151.56140 -158.29912 -163.60962 -220.52030 -363.69147 -388.61271 -577.32521 -612.57340 -603.57260
639.20270 634.32390 659.29027 572.11274 531.57150 383.97249 350.49639 250.99404 166.04617 118.23277 94.56722 62.73794 34.76492 77.81241 85.19129 66.34669 32.34643 20.43770 47.14573 84.85676 130.62235 155.26694 153.09608 166.09494 200.53641 202.12953 197.63094 163.83139 138.45411 86.05195 40.36952 42.76024 32.85722 44.19734 33.81222 32.54103 16.72550 12.16826 -6.22476 -12.91982 -30.54448 -30.82555 -24.03958 -27.33446 -38.64806 -53.51180 -59.41522 -72.68229 -72.23653 -81.23349 -81.53943 -95.25463 -95.26146 -97.96332 -93.48203 -106.48217 -102.65368 -109.41973 -115.68055 -114.96863 -105.30028 -109.31084 -111.64294 -119.52408 -127.12586 -124.34018 -121.55719 -120.06626 -117.04150 -120.22691 -117.75057 -131.04723 -124.15190 -139.30867 -135.19376 -133.00258 -142.74734 -132.44651 -136.71717 -143.51655 -133.81659 -136.35657 -135.77429 -150.07015 -152.53666 -169.09309 -245.40875 -290.49427 -338.37967 -493.00759 -493.17259
783.65290 772.85833 696.60823 625.13385 565.87781 444.45040 338.82272 274.41912 163.79917 111.80512 101.33318 69.58284 29.10802 21.22839 28.99396 28.72845 -10.06421 -12.20104 -0.82603 50.48451 103.41374 80.71427 131.18636 154.25414 179.89741 170.50948 167.98534 152.27992 116.01217 83.28055 40.25281 30.10385 33.50875 22.25700 13.49871 4.39278 -13.23746 -3.66011 -4.94521 -23.26539 -29.94061 -34.33894 -23.49430 -30.69722 -37.69429 -48.15501 -56.37941 -78.91574 -78.55837 -70.55397 -92.55894 -97.04905 -89.99111 -92.31302 -98.56834 -99.99301 -103.20360 -103.86224 -113.74589 -106.67900 -99.90977 -105.26107 -107.61238 -114.49105 -112.63599 -124.30253 -120.64876 -120.03373 -121.93277 -118.16834 -122.38691 -124.69496 -129.51819 -134.76989 -133.46049 -133.50258 -131.88756 -133.15294 -141.40257 -140.50380 -136.78143 -132.91822 -134.13646 -124.96058 -136.51613 -149.93598 -158.54697 -197.44016 -330.37048 -347.51742 -346.06285
728.47519 725.71609 720.29137 545.69702 556.61194 375.67895 326.44903 189.90319 130.71000 47.73541 53.45522 27.84160 4.84373 -1.48637 7.40541 -4.70010 -6.28649 -7.43385 -12.34032 -12.24164 11.29261 60.08941 89.07086 118.67467 158.69524 167.97056 150.43563 123.97928 84.47693 47.68939 28.79238 25.68484 11.73962 0.11983 -17.74902 -11.87185 -21.03372 -18.56602 -27.76867 -38.06549 -39.90313 -33.54731 -24.50769 -29.99116 -40.96785 -47.65288 -55.39431 -65.04914 -76.91609 -85.06571 -88.36422 -89.98985 -90.48209 -99.97367 -99.74592 -99.00925 -108.73301 -104.66640 -107.93914 -107.19200 -107.33601 -102.71527 -106.44186 -114.44518 -114.84285 -124.59712 -119.49346 -124.25053 -114.68367 -120.88099 -128.98575 -119.07695 -127.75032 -132.28387 -131.77597 -134.13903 -131.89698 -130.14289 -126.59322 -139.48778 -126.29339 -123.30824 -124.80947 -108.10239 -127.79483 -130.85177 -151.60498 -162.28191 -220.84207 -179.61414 -177.24974
649.61904 650.46041 593.72339 487.97853 420.65951 362.03067 259.04034 159.39977 127.57130 72.97158 38.18507 31.75513 19.11513 23.00107 25.94717 19.51508 -2.96407 -15.60769 -19.69732 -17.40693 8.55638 27.14313 68.57031 90.05463 109.27993 138.31529 136.51019 111.32764 69.38989 33.52641 13.53066 -1.42477 4.63917 -3.75246 3.39431 -7.02876 -10.83194 -29.75184 -24.20493 -39.89462 -40.94722 -29.23591 -25.43683 -27.82339 -25.87921 -35.48487 -55.77170 -60.40988 -66.26781 -72.53258 -77.24512 -83.87614 -88.64357 -96.07785 -97.34425 -104.24881 -104.69150 -97.47847 -97.50559 -104.29686 -101.16374 -108.64053 -110.58050 -118.58360 -108.63002 -118.02145 -117.23297 -119.76529 -121.06039 -121.59148 -123.61115 -123.69355 -130.84492 -128.89674 -128.97323 -133.66202 -136.25318 -132.19198 -136.26946 -133.66896 -129.85587 -121.30887 -108.09763 -105.40647 -122.29806 -135.49500 -153.07224 -151.69316 -158.51313 -153.66108 -158.99654
487.82222 497.49431 436.09338 420.13132 337.42914 288.60741 216.39945 216.38315 170.56778 153.26965 115.28333 54.30671 49.72522 73.42436 80.29571 50.63996 13.35405 -4.22938 -16.51007 -19.45396 -13.94593 -8.34529 31.84118 44.97134 75.53428 91.92064 109.70090 99.67430 66.28678 14.83831 21.28826 -1.16657 20.14486 33.73644 46.94488 31.40329 6.33602 -23.03066 -13.81936 -17.49901 -25.21410 -34.12485 -38.27185 -27.03427 -28.95130 -31.51047 -43.71630 -57.20067 -63.04778 -71.36953 -74.38899 -86.50451 -85.48764 -97.58886 -98.15322 -96.73745 -93.63829 -94.39894 -92.72020 -103.07579 -96.02352 -108.36798 -112.93730 -113.92691 -118.56714 -117.84386 -117.15139 -116.62423 -127.14573 -124.37534 -125.95747 -125.19145 -133.59053 -121.61079 -130.78627 -129.68554 -128.80992 -129.98656 -136.42669 -134.93464 -117.23628 -118.42327 -113.09563 -110.71896 -105.78930 -126.31891 -135.38785 -140.81344 -156.46233 -159.57883 -161.18890
368.74767 374.76738 416.24907 333.13534 331.68054 306.33792 284.00670 268.92463 268.08402 241.80153 193.49336 146.06558 149.80167 116.29128 125.70403 85.73996 27.71616 -0.54666 -2.42649 -11.23124 -27.29001 -16.25078 -5.18776 38.37209 42.07346 67.03652 81.20544 91.73087 78.03851 48.19125 18.03365 28.62699 43.56131 66.89933 65.79960 34.46765 16.66658 10.73982 -8.47237 -20.47848 -33.64828 -42.36566 -53.41213 -31.63775 -28.01127 -25.39488 -38.98075 -46.13867 -64.18077 -74.53148 -67.66686 -75.27295 -83.31528 -90.95944 -107.27541 -98.83011 -96.69725 -92.20530 -94.04810 -92.40434 -101.79404 -109.20577 -112.14601 -115.15811 -117.49414 -121.14446 -123.44333 -121.33412 -130.93980 -120.62032 -126.93357 -125.56844 -131.69508 -127.40942 -121.89497 -122.86267 -128.29070 -130.89904 -128.90138 -127.15574 -121.11933 -110.47767 -115.87650 -110.37568 -106.61121 -108.00390 -130.78906 -145.26608 -146.67254 -153.06483 -146.10097
398.65886 406.72625 327.71833 300.36066 316.34838 335.05006 373.70193 344.36779 307.31927 251.99236 239.12597 252.33806 248.09784 231.51556 194.41472 124.30927 83.83127 34.73626 9.12505 -10.81942 -24.07107 -17.09481 -10.65684 1.68197 25.76788 65.73185 85.51410 92.17991 91.79659 64.61345 52.45221 53.68814 68.38052 83.10722 67.95165 37.99291 22.55310 10.59792 -3.65628 -32.35819 -35.04405 -53.11077 -51.14540 -43.16146 -24.38370 -28.77580 -29.16731 -41.51992 -63.08156 -60.58665 -67.93009 -76.38421 -77.97656 -90.91918 -96.26790 -104.46514 -90.72322 -88.22592 -95.71696 -94.14303 -103.33901 -101.76909 -108.85977 -112.05746 -110.35850 -116.54929 -123.45157 -121.86416 -119.07064 -123.14741 -126.88865 -126.20367 -130.96477 -128.80174 -126.96653 -129.78990 -125.04535 -127.65360 -123.25345 -126.95881 -119.07430 -116.60373 -111.05518 -105.25042 -102.26644 -116.50062 -125.05279 -125.85359 -140.75228 -136.56488 -142.47372
388.69790 386.19406 322.64097 295.27132 276.65773 314.62630 335.68773 345.90284 312.48499 316.54893 316.24436 287.12599 344.09081 294.47813 209.25136 171.69698 91.93549 49.01509 33.86514 1.96344 -24.82098 -22.94271 -22.63435 3.73383 23.01094 63.61580 72.25714 74.52971 77.63820 83.42260 66.60562 58.53655 65.97538 83.83806 57.76066 24.00137 2.51703 -1.52006 -18.64174 -35.84539 -46.78382 -49.66765 -52.65900 -49.86736 -28.93435 -30.30410 -22.12247 -32.64165 -46.78979 -48.52979 -57.81806 -63.13008 -68.82362 -77.52585 -82.89100 -94.40760 -96.26763 -91.78913 -89.27934 -93.09345 -99.87227 -111.78011 -106.50719 -109.12411 -113.68857 -117.76597 -116.17213 -113.27074 -124.49135 -118.76074 -121.49204 -121.65458 -127.64120 -124.61377 -137.06043 -129.14069 -126.36010 -128.46763 -131.97605 -115.38214 -121.38251 -119.27409 -110.01607 -109.94683 -111.54183 -113.48847 -121.00379 -118.75750 -119.67045 -133.55234 -131.93697
300.49315 308.57165 314.50844 228.92990 237.16292 270.06299 276.30242 332.23725 336.36980 323.78981 317.49123 323.55342 317.56501 305.85319 268.11867 192.33866 150.50299 92.60309 55.69052 2.15196 -20.45921 -27.88033 -27.48787 -2.98548 28.92295 51.99322 49.52409 59.46667 54.64676 62.27806 64.78455 64.47176 62.03123 57.12077 35.39911 11.20578 -1.71202 -18.30129 -27.56048 -45.46971 -57.15312 -61.10898 -55.19822 -50.24659 -35.41005 -29.76533 -31.51961 -37.31085 -37.46481 -33.34530 -53.38211 -59.60934 -77.41701 -71.63232 -73.69519 -95.67298 -91.59542 -86.19300 -92.25640 -92.90519 -93.31375 -111.80851 -106.95723 -102.83165 -116.53745 -111.16392 -115.05848 -115.20587 -122.00145 -119.77702 -123.77180 -126.81144 -124.23049 -130.50080 -132.79410 -126.88992 -123.87044 -129.49312 -131.90810 -128.29751 -120.47253 -117.29248 -117.51041 -103.12033 -100.49632 -112.56231 -116.39171 -115.59327 -121.53205 -114.82388 -115.98047
272.43678 280.05870 240.88331 211.89527 232.45831 234.43933 260.43037 286.12443 313.55007 308.47803 310.23041 308.31401 307.51764 293.62699 290.93220 245.76337 160.77431 132.10050 72.06360 40.43076 -12.13713 -28.18967 -26.41092 -14.94609 6.94845 41.17706 38.80931 17.46828 19.54740 27.79208 48.60347 47.92886 45.43027 34.10675 -6.58081 3.39647 -9.65653 -27.35890 -29.81700 -49.63017 -59.62704 -66.87433 -58.90862 -49.37091 -49.76921 -48.65297 -45.41530 -36.30276 -33.49146 -38.42030 -48.39246 -57.76645 -68.16710 -76.63658 -83.39676 -90.18369 -86.23476 -82.45958 -85.40684 -94.47039 -96.30828 -97.46844 -95.95289 -104.69937 -107.93805 -113.44290 -125.76532 -117.10914 -120.78261 -116.94042 -120.53168 -125.98221 -127.22279 -123.63642 -126.98772 -125.56247 -125.99008 -134.95385 -130.82335 -131.78724 -130.42863 -130.84754 -120.69901 -119.53899 -106.89562 -108.19338 -109.07049 -117.20039 -113.75346 -110.32398 -112.23402
257.69049 265.59833 232.52608 194.85953 227.19924 229.99979 216.61217 265.87348 294.34836 299.37771 285.92611 272.20404 273.24536 272.76204 296.87369 263.90644 198.57399 127.80500 102.81893 40.45474 9.39651 -10.10922 -23.00419 -19.56388 0.63631 11.18764 20.16135 -9.57324 10.56299 6.57655 12.89709 18.62962 17.96321 -1.28251 -9.40799 -6.62533 -21.71132 -40.36586 -49.85143 -52.65626 -62.21422 -65.74529 -68.22617 -59.60030 -54.61884 -56.03583 -50.40026 -47.94295 -62.49099 -63.29417 -58.20506 -66.48146 -65.10303 -73.15808 -85.93337 -84.88195 -92.41337 -78.83467 -76.20909 -87.46813 -101.85542 -100.04139 -103.93269 -100.51625 -103.71970 -113.90496 -113.95009 -114.42030 -121.33013 -116.75511 -124.72502 -123.60838 -124.90139 -125.91082 -127.06644 -127.85047 -126.32396 -134.21867 -128.68496 -128.11859 -130.93319 -127.21002 -122.04977 -119.41703 -115.10825 -101.96023 -106.65509 -110.92596 -107.83761 -115.08322 -106.68547
241.00079 249.12808 211.68876 200.36927 225.65605 215.72852 209.70833 224.75527 259.41578 260.14135 246.89313 238.03075 239.52297 261.01790 303.75716 267.29347 212.44494 146.73269 105.72292 45.84933 7.82253 0.84027 -19.90040 -25.64449 -24.02031 -9.38294 -5.54400 -20.16382 -18.43610 -5.87963 -14.43885 -3.98926 -6.87790 -12.61187 -13.11372 -18.12193 -25.55532 -32.74731 -44.77824 -51.79883 -51.25564 -59.13357 -69.06430 -66.12415 -61.30849 -66.64934 -70.81809 -75.40181 -63.24201 -70.01373 -62.68729 -69.02697 -65.23913 -83.62786 -92.97363 -87.43484 -81.13865 -79.06108 -85.90581 -88.53340 -94.79117 -98.83441 -100.26235 -104.68902 -102.91271 -106.66715 -114.99426 -120.87663 -122.79718 -126.03608 -123.57505 -125.80993 -126.21014 -132.22922 -130.45338 -130.25669 -130.69604 -134.81234 -133.96669 -135.46308 -134.90490 -132.39591 -129.66433 -136.48266 -111.90519 -114.52275 -110.22986 -108.00659 -121.15367 -123.25792 -111.95494
244.51030 250.57192 213.53326 195.10067 192.63700 187.54325 187.33888 220.34128 229.81474 236.31702 223.65942 199.26489 198.65922 216.76364 247.37715 240.29984 224.74242 185.12959 142.02577 65.72468 41.49275 5.39583 -16.14744 -20.04313 -20.41909 -13.74284 -22.21654 -26.33856 -25.76573 -15.51913 -8.33348 -5.29753 -8.90691 -5.68913 -4.68816 -12.53961 -10.59338 -32.64291 -37.63223 -46.81872 -49.01423 -57.39355 -51.05378 -61.49511 -56.43502 -64.32026 -63.01916 -69.87302 -79.83654 -72.57762 -75.24088 -81.22600 -84.59091 -84.89289 -84.41888 -83.24880 -70.79495 -77.53264 -79.02460 -85.85422 -90.89353 -95.18135 -102.10379 -107.19477 -110.13470 -115.69160 -113.63103 -112.61516 -116.98670 -113.52134 -124.36157 -126.38963 -130.29687 -123.61161 -125.12692 -139.70051 -132.17724 -133.10354 -140.80566 -142.61053 -138.39523 -134.27130 -131.75862 -129.75967 -122.27101 -124.16403 -115.61780 -114.14528 -116.37541 -122.73304 -122.86952
264.45883 258.11116 259.71708 171.32603 160.44110 171.75007 185.34340 217.69401 234.57798 239.98470 230.38524 214.51995 189.94709 193.38846 208.94951 245.12278 221.18344 203.88662 165.18971 90.63905 1.71596 -21.86190 -19.49757 -32.93823 -24.51073 -29.03401 -21.20052 -31.34704 -29.51704 -15.58480 -15.57933 -12.99993 -16.91501 -13.03649 -14.71686 -18.61634 -16.72509 -16.26783 -32.94294 -32.85715 -36.44076 -43.02570 -51.54665 -46.10359 -53.14942 -61.39772 -55.42518 -60.00214 -73.66180 -77.06019 -89.49008 -83.23085 -85.95908 -84.67180 -74.69730 -72.73208 -73.13265 -74.16120 -84.47883 -81.53016 -89.76259 -93.64280 -97.73642 -95.59452 -102.81364 -107.89847 -111.34785 -110.79264 -118.99816 -115.94332 -127.05019 -125.10594 -127.88251 -127.96918 -131.74370 -139.74188 -138.84806 -142.84529 -136.60035 -135.06350 -134.31252 -137.75597 -134.21848 -130.97283 -121.57790 -124.22132 -117.92914 -120.87281 -114.19528 -130.16002 -131.05578
247.68814 250.55514 225.46963 190.63298 165.15422 160.33028 180.70459 197.62036 241.09121 240.84173 238.70374 216.30008 181.59031 184.73201 200.59251 211.93645 227.23242 212.62653 174.83080 88.75931 3.55382 -7.58076 -15.05108 -28.15394 -25.91846 -20.90020 -26.90149 -29.55448 -28.52994 -34.34374 -20.02779 -23.06471 -18.51022 -27.69110 -20.14896 -13.42414 -18.10112 -9.54095 -16.58420 -30.18199 -28.01948 -43.09016 -41.70462 -52.05927 -47.00232 -49.30321 -53.32010 -57.37819 -63.35458 -74.55065 -72.94985 -71.48006 -73.06901 -71.88059 -70.16809 -59.64537 -70.49443 -69.34050 -78.28306 -89.04623 -87.22865 -95.99344 -99.18596 -97.15637 -107.37998 -109.36340 -106.70302 -118.79880 -119.20088 -119.58668 -123.98993 -130.86938 -134.01958 -129.65015 -136.66486 -138.59760 -143.25843 -143.15432 -144.18324 -145.36949 -143.31660 -140.07752 -138.95082 -131.92407 -127.62657 -126.07291 -128.31717 -122.22657 -136.66947 -138.29817 -143.09155
236.64472 241.33128 214.91061 181.79405 183.18332 164.21471 173.61030 198.04599 216.50357 235.95494 238.40920 208.41198 177.02994 175.75371 189.45819 195.91526 196.43623 168.31560 140.27830 74.57248 18.66063 0.80037 -3.20433 9.35918 9.40203 -3.75763 -17.98932 -19.42018 -26.43717 -32.40764 -31.32740 -28.90774 -23.90411 -21.36063 -20.20492 -12.14386 -12.07322 -8.52190 -21.63927 -19.93108 -17.50911 -29.39862 -28.65658 -37.10346 -40.26616 -41.28021 -41.08076 -63.60230 -65.46654 -64.23311 -58.89059 -71.32455 -62.71631 -62.18360 -66.46934 -54.10239 -67.18889 -72.09279 -80.86288 -81.06396 -89.34980 -96.36966 -96.78640 -100.20935 -101.97563 -103.12545 -110.62982 -114.95223 -121.48167 -126.27561 -126.68484 -132.88875 -130.05526 -134.55673 -142.37033 -140.82052 -138.16627 -144.00916 -135.05209 -153.26591 -143.13767 -140.31067 -148.25554 -148.40321 -143.24474 -141.30973 -137.18611 -136.65560 -144.83189 -142.21402 -147.27600
224.98643 230.34464 206.08278 191.86702 183.78830 159.37268 174.91811 184.16037 236.59594 216.90856 222.99248 172.25563 169.46665 184.98432 190.78342 213.40335 209.95416 195.82644 139.81832 70.09673 15.61237 7.38776 24.17845 25.72029 34.13378 17.67879 -12.66862 -15.60226 -21.23032 -24.46189 -29.87010 -27.49505 -23.71653 -28.49652 -32.74314 -30.30028 -23.20953 -20.77828 -6.59730 1.79160 -14.60307 -20.06940 -25.06122 -39.83431 -46.10776 -51.08127 -57.19056 -59.66445 -53.97652 -56.02298 -65.54829 -56.67483 -66.51107 -70.27255 -70.98613 -58.40534 -72.12784 -63.95307 -80.60946 -83.27599 -83.85390 -91.07047 -94.96716 -101.63882 -106.25868 -100.94146 -117.70642 -123.22571 -122.60065 -121.08422 -127.28484 -124.88952 -138.29150 -140.66034 -145.18816 -146.06917 -141.90183 -152.64722 -144.79078 -141.61884 -145.96541 -141.99481 -143.86068 -142.97432 -141.24669 -153.70431 -149.77364 -152.11437 -146.16266 -155.86569 -150.14086
227.82372 226.29236 212.64172 180.63660 173.02534 163.23998 172.95613 180.02363 206.66393 218.08884 190.98076 171.60014 170.37779 181.21032 196.79288 224.22390 234.67296 214.18195 153.18120 96.02874 50.04305 45.28267 79.09709 70.20992 46.30910 32.87575 -1.89472 -5.40459 17.63809 -7.57076 -16.06680 -13.77761 -25.54001 -25.55068 -33.99719 -36.60247 -39.59497 -36.78157 -21.58643 -10.19874 -16.35211 -27.02641 -39.50083 -42.73207 -43.50755 -57.30345 -46.37985 -67.86685 -60.39257 -71.83580 -68.49220 -60.30106 -71.32848 -75.91396 -65.88734 -73.81920 -73.39054 -78.27896 -77.08950 -87.37004 -88.66136 -95.13215 -103.95071 -103.60588 -101.47099 -118.79161 -114.11066 -119.60978 -130.15032 -122.39781 -129.61423 -137.85748 -129.65488 -130.35415 -138.77076 -138.81292 -142.79219 -151.62280 -143.57171 -149.74039 -143.55874 -154.07224 -147.28617 -152.42569 -145.46831 -159.82042 -152.75144 -163.00945 -160.06968 -166.48841 -165.94221
222.19251 222.93905 207.47670 181.00615 170.94863 160.93955 164.48997 181.07596 189.56699 190.15825 170.51184 170.12095 161.87388 177.12038 204.50624 223.13003 255.88918 222.48242 179.65608 127.47273 100.61309 90.16552 98.15236 110.83171 63.57062 34.83891 32.34927 35.96074 26.97102 18.25285 4.11662 -18.85153 -25.86942 -26.90766 -33.02051 -42.62791 -39.92198 -42.22204 -42.68093 -23.10794 -27.53270 -35.75445 -31.18618 -38.31752 -52.92769 -68.11773 -69.90370 -79.03305 -66.74304 -70.71383 -65.33567 -77.79390 -77.64676 -83.03896 -86.61404 -89.07735 -91.51681 -77.33857 -87.51526 -85.52453 -99.53280 -100.00501 -95.43548 -100.69595 -105.69268 -111.21961 -115.01931 -124.69242 -127.37189 -126.59759 -129.24271 -136.07256 -140.09848 -136.05784 -134.06598 -148.83257 -145.80805 -137.25555 -153.09882 -155.08143 -156.70495 -153.53673 -152.90678 -152.79849 -156.22704 -163.24107 -166.50490 -169.99798 -176.94763 -187.77127 -197.49155
237.07168 238.17093 207.03177 174.61391 175.47507 157.78605 154.52617 161.71670 166.94271 164.77253 173.44320 159.76932 155.11429 163.89250 183.29467 196.16948 232.93759 221.47725 170.76253 175.85919 201.66313 173.09114 204.55593 167.43586 64.20016 72.80060 69.47639 76.06024 57.88087 39.69471 12.46726 -3.82860 -25.80978 -32.05069 -29.93448 -34.00864 -44.76792 -45.41717 -49.39379 -43.20290 -42.27050 -43.58816 -46.39620 -58.24168 -63.62853 -63.86080 -84.12435 -78.40759 -80.50957 -85.42333 -82.41436 -89.17863 -89.74737 -88.40000 -93.66125 -98.82268 -107.17241 -95.53418 -94.25930 -98.85470 -102.93561 -105.42928 -100.78777 -108.89410 -119.30073 -119.52276 -115.01423 -124.29537 -124.75362 -126.15101 -135.81911 -136.37373 -136.07300 -140.72877 -133.02347 -141.89682 -144.37622 -147.80834 -154.73681 -152.53329 -158.36425 -158.50358 -159.96983 -158.40730 -168.48828 -163.32825 -172.57032 -196.34701 -243.98509 -255.71421 -258.56383
249.50064 251.45378 217.08819 171.26045 164.85444 163.50895 163.34860 162.53973 153.31810 158.75380 156.50954 167.32567 171.61769 168.31127 187.86240 194.49029 217.19932 202.68545 173.19521 182.79405 208.43006 219.89476 215.26887 181.85985 131.07372 117.66665 114.73020 126.84689 88.60624 67.40427 40.10512 -2.06946 -3.43692 -13.86758 1.49885 -3.60255 -25.77126 -45.56969 -56.05757 -52.99539 -59.47451 -56.66367 -48.82072 -56.22232 -75.44267 -71.89164 -70.86124 -66.12584 -80.45644 -85.45747 -88.53677 -87.33607 -84.35113 -94.06987 -91.15108 -96.34276 -100.44711 -107.53082 -103.52155 -100.46836 -111.03545 -109.21477 -109.64546 -109.11869 -113.55585 -112.76532 -119.43955 -123.96763 -121.92097 -131.69030 -136.54218 -134.38873 -141.41567 -136.67853 -134.42807 -145.63522 -153.27604 -146.78207 -162.27915 -154.69742 -157.06698 -164.63648 -164.10931 -164.56976 -174.64228 -177.91217 -207.44792 -233.67093 -298.88898 -327.53156 -317.43401
248.29433 236.51535 206.44561 199.30342 195.75835 189.46100 183.37819 168.41543 152.09589 154.60102 157.01950 163.35135 164.20947 174.30283 180.18926 182.69981 205.09155 217.50522 206.59403 211.37345 248.12720 269.48266 249.51490 239.10312 173.05491 168.52129 170.58281 178.19430 173.46354 101.66352 88.62096 41.66758 38.85342 63.97248 30.11729 27.74305 -5.32215 -1.37905 -30.75900 -37.38862 -27.57944 -46.04589 -42.30431 -48.99316 -62.06082 -52.43092 -43.77146 -50.81869 -50.89737 -69.37046 -77.53875 -73.54073 -77.73064 -79.43725 -79.06787 -80.27838 -76.35669 -90.11468 -107.94319 -99.47114 -104.86462 -102.84068 -99.98998 -109.41297 -116.71963 -116.53546 -119.13966 -123.57716 -126.35886 -127.83516 -127.84415 -144.56556 -136.79015 -148.67377 -146.32777 -147.05848 -145.70344 -157.95798 -157.26716 -155.46300 -168.72916 -172.15444 -169.04091 -182.51387 -186.12615 -239.68361 -304.01805 -326.72033 -349.00183 -384.59016 -383.24389
273.38728 272.20200 212.92612 232.88534 221.26994 215.45522 189.82921 166.44008 151.62408 160.84994 157.74238 162.88548 164.86066 170.07583 172.85218 182.96863 190.57537 226.60042 239.24864 240.39052 270.10997 274.13727 293.53882 251.67526 205.51377 205.91118 206.61737 209.51628 166.14880 154.19731 113.25408 95.52361 80.62471 63.82964 61.45503 45.03605 26.88601 13.64596 -10.91902 -22.00129 -23.32207 -30.07983 -25.40940 -79.26351 -33.30046 -42.25600 -33.99577 -41.09993 -53.08036 -63.25128 -73.45606 -67.24658 -76.21493 -72.28784 -82.45159 -76.99451 -76.58265 -85.77966 -92.29145 -116.13561 -95.97442 -92.36983 -97.01399 -100.12301 -109.25933 -118.45139 -110.42931 -122.20754 -121.22055 -121.95047 -132.78508 -137.29363 -151.61074 -148.49534 -149.61691 -152.38082 -156.28995 -154.68802 -159.67350 -156.84136 -174.37181 -164.29901 -162.23149 -175.47157 -198.46941 -206.31993 -314.24675 -376.36764 -404.71652 -414.39188 -413.75392
269.22261 273.08129 216.60019 235.66665 219.57278 216.12192 187.28529 162.93899 150.93634 157.10395 172.33675 163.94262 160.45119 173.91468 174.93211 185.43650 197.95036 225.61534 240.09173 241.38948 264.23269 279.22735 301.00404 255.43358 213.88835 206.96551 210.19437 209.62541 159.11001 158.09346 116.23686 95.24271 73.22379 61.11726 56.90462 39.59236 26.42661 16.89824 -13.41373 -18.36855 -12.94151 -14.79742 -37.46868 -78.84277 -37.41543 -35.56978 -39.36807 -40.40037 -49.89943 -64.58987 -68.13503 -65.55947 -70.36263 -74.55469 -75.12779 -69.93641 -85.99068 -90.14524 -84.47685 -112.25314 -93.86932 -95.79279 -95.31726 -100.54373 -103.36448 -116.44086 -117.79540 -124.26732 -129.10581 -125.35582 -141.40306 -145.65506 -142.42071 -145.27130 -151.37198 -158.94362 -154.11734 -155.20939 -153.14092 -159.12342 -177.15622 -166.22413 -170.16375 -167.32417 -204.58586 -200.00990 -318.31572 -377.55295 -400.65957 -411.29576 -417.79749
