26.78784 26.78784 7.71843 -8.40515 -11.32645 -10.86868 -19.66176 -23.67631 -22.21876 -22.66391 -33.10730 -33.68578 -49.36355 -51.62918 -64.68812 -73.65257 -79.21004 -104.16327 -121.65074 -122.36327 -122.75515 -121.79938 -106.24999 -107.60804 -135.27543 -202.98201 -207.36013 -332.29777 -412.43430 -337.27850 -738.47694 -895.85050 -1021.68062 -1129.77823 -1209.49477 -1278.21462 -1342.44900 -1398.96271 -1450.31402 -1484.05686 -1482.69165 -1456.65510 -1444.17947 -1459.74028 -1490.08260 -1513.77911 -1533.62077 -1548.15000 -1561.62714 -1568.85226 -1578.00096 -1593.53149 -1626.62495 -1688.77856 -1774.25743 -1880.44375 -1981.18465 -2039.16503 -2037.48278 -1999.52355 -1943.72177 -1895.47239 -1884.41211 -1913.79414 -1962.51940 -2016.79133 -2070.83535 -2132.20374 -2197.17143 -2258.98433 -2314.68027 -2361.10545 -2397.32559 -2424.31033 -2455.65739 -2489.57421 -2520.49684 -2535.12170 -2535.50381 -2536.68630 -2541.79223 -2542.15992 -2529.04389 -2504.69312 -2484.35866 -2470.25860 -2463.30228 -2459.27598 -2454.30863 -2446.45087 -2446.45087
26.78784 26.88784 7.81843 -8.30515 -11.22645 -10.76868 -19.56176 -23.57631 -22.11876 -22.56391 -33.00730 -33.58578 -49.26355 -51.52918 -64.58812 -73.55257 -79.11004 -104.06327 -121.55074 -122.26327 -122.65515 -121.69938 -106.14999 -107.50804 -135.17543 -202.88201 -207.26013 -332.19777 -412.33430 -337.17850 -738.37694 -895.75050 -1021.58062 -1129.67823 -1209.39477 -1278.11462 -1342.34900 -1398.86271 -1450.21402 -1483.95686 -1482.59165 -1456.55510 -1444.07947 -1459.64028 -1489.98260 -1513.67911 -1533.52077 -1548.05000 -1561.52714 -1568.75226 -1577.90096 -1593.43149 -1626.52495 -1688.67856 -1774.15743 -1880.34375 -1981.08465 -2039.06503 -2037.38278 -1999.42355 -1943.62177 -1895.37239 -1884.31211 -1913.69414 -1962.41940 -2016.69133 -2070.73535 -2132.10374 -2197.07143 -2258.88433 -2314.58027 -2361.00545 -2397.22559 -2424.21033 -2455.55739 -2489.47421 -2520.39684 -2535.02170 -2535.40381 -2536.58630 -2541.69223 -2542.05992 -2528.94389 -2504.59312 -2484.25866 -2470.15860 -2463.20228 -2459.17598 -2454.20863 -2446.35087 -2446.45087
15.12719 15.22719 -2.38401 -9.58392 -28.42123 -28.91312 -33.47301 -38.15033 -35.18776 -35.22927 -45.62860 -48.16375 -65.51525 -65.77066 -63.38887 -72.55469 -90.94308 -102.17416 -116.63747 -117.08482 -116.99442 -121.02293 -114.77805 -115.21387 -132.01831 -159.80203 -242.57120 -272.50237 -281.09608 -476.69943 -657.15156 -675.07499 -1016.38689 -1094.35576 -1144.06922 -1276.80086 -1356.29956 -1392.39421 -1445.05662 -1479.59115 -1479.46385 -1417.88533 -1417.31276 -1463.96968 -1457.01424 -1471.38892 -1495.87586 -1497.51375 -1559.69597 -1532.42380 -1536.96291 -1565.42425 -1579.45619 -1695.51037 -1783.11856 -1852.10834 -1968.56038 -1984.93186 -1984.77500 -1931.31339 -1925.02280 -1906.26483 -1852.78480 -1859.64911 -1964.04398 -2016.62458 -2022.39307 -2054.09677 -2187.04768 -2219.26477 -2272.14499 -2327.66396 -2394.52061 -2396.27724 -2427.02374 -2488.59723 -2503.59817 -2515.21540 -2526.13946 -2526.60194 -2540.30443 -2539.48317 -2534.48413 -2505.76947 -2509.36143 -2508.04665 -2464.06046 -2495.74286 -2506.46148 -2509.51798 -2509.61798
16.81575 16.91575 -1.17896 -28.11966 -33.87005 -48.13704 -59.87766 -57.38498 -57.02354 -56.96371 -60.61748 -71.72096 -81.71942 -91.94251 -98.81932 -107.58618 -111.82544 -112.45728 -107.04668 -107.87988 -109.97505 -117.74429 -116.34816 -123.47971 -130.96398 -147.85775 -145.76478 -191.43583 -195.62288 -208.72384 -383.90696 -499.44172 -668.80908 -918.34818 -961.84727 -1144.76302 -1279.49685 -1359.63421 -1402.20073 -1447.75724 -1427.13815 -1393.41994 -1363.00794 -1363.62853 -1404.06518 -1405.00251 -1435.72805 -1435.15152 -1435.37639 -1476.48272 -1486.73230 -1530.71981 -1557.63296 -1591.45044 -1691.56101 -1754.89829 -1801.15543 -1888.90549 -1871.56500 -1885.10733 -1843.56223 -1793.72926 -1801.33903 -1795.82434 -1839.86213 -1901.48442 -1951.70547 -2027.77708 -2064.40320 -2136.23977 -2229.53342 -2256.85038 -2274.87248 -2333.20800 -2359.86977 -2378.34866 -2494.01156 -2488.26503 -2492.19949 -2495.88315 -2512.05514 -2527.74750 -2537.49321 -2546.67998 -2538.98015 -2552.45693 -2554.26735 -2553.41379 -2534.82661 -2548.70741 -2548.80741
25.87090 25.97090 25.69776 -24.86046 -35.21461 -39.50601 -53.76501 -67.40355 -67.77167 -64.58592 -69.23462 -72.48345 -92.83494 -105.66770 -110.46657 -115.53795 -110.69028 -104.95668 -104.67165 -103.32066 -108.81111 -110.27122 -111.36024 -113.05233 -122.28449 -130.08748 -140.33371 -144.60170 -144.80514 -192.55728 -244.76084 -396.94387 -641.92761 -788.13592 -916.42035 -1078.73860 -1011.39402 -1114.48014 -1218.34836 -1281.69513 -1410.72729 -1111.60588 -1080.65135 -1171.31238 -1198.82298 -1391.09051 -1357.56375 -1354.33136 -1378.80968 -1433.82584 -1439.88711 -1499.30876 -1531.40519 -1567.59809 -1609.28493 -1687.28645 -1794.42811 -1785.26123 -1850.12600 -1823.94588 -1780.05793 -1766.59560 -1775.14864 -1789.47608 -1779.15910 -1811.82910 -1933.63021 -2027.20196 -2028.28970 -2123.38737 -2147.27558 -2170.95670 -2198.83760 -2233.97453 -2285.00195 -2326.00204 -2390.37257 -2430.04751 -2477.69735 -2486.88101 -2500.93966 -2514.35981 -2533.17404 -2541.83121 -2545.90689 -2555.00084 -2559.97625 -2557.72647 -2556.48202 -2558.20509 -2558.30509
33.99348 34.09348 11.21958 -16.49060 -31.56913 -38.26037 -56.48744 -72.50124 -83.66531 -85.83508 -87.47984 -94.63160 -104.84996 -108.68538 -102.24250 -104.78407 -103.94999 -98.66348 -98.45475 -106.55633 -104.13163 -105.69906 -103.48873 -110.74276 -120.82938 -123.75513 -128.82233 -126.53637 -134.15082 -133.15402 -203.53360 -343.85013 -322.57765 -520.91763 -576.85823 -692.96523 -559.61735 -815.93770 -831.47660 -854.78009 -769.80052 -693.58962 -769.17564 -735.21482 -735.62399 -919.28849 -1083.54941 -1281.93837 -1293.99973 -1374.02081 -1409.76852 -1457.34095 -1477.98160 -1492.76427 -1488.97363 -1637.16315 -1644.57015 -1730.71817 -1687.28507 -1721.72917 -1744.33193 -1717.20467 -1705.92652 -1687.22481 -1707.25549 -1731.68671 -1735.65642 -1917.69482 -2007.41740 -1985.88261 -2052.08059 -2089.94335 -2107.86141 -2142.84561 -2174.34217 -2234.02439 -2307.93478 -2322.09650 -2404.98167 -2450.55445 -2468.25176 -2510.90428 -2520.00968 -2529.04105 -2529.85220 -2539.65625 -2548.69872 -2553.00735 -2557.16973 -2553.73723 -2553.83723
35.75354 35.85354 14.10387 -13.76652 -27.39325 -49.90282 -70.14539 -74.61778 -81.21851 -89.93885 -94.72642 -100.66810 -100.19640 -94.81485 -93.38489 -83.63178 -85.43680 -91.66466 -98.99400 -107.73922 -102.70004 -96.48360 -97.65753 -106.27096 -114.34018 -121.08889 -120.59065 -124.03537 -126.27073 -130.30886 -125.45127 -210.73443 -244.77343 -239.11756 -391.81837 -352.82250 -455.72829 -457.08481 -461.75017 -532.54009 -476.56540 -408.38661 -382.73159 -613.77189 -490.23183 -611.59393 -800.15889 -1072.57926 -1264.42917 -1318.60270 -1347.55913 -1401.77451 -1440.28936 -1476.82578 -1438.31976 -1465.94829 -1603.18310 -1622.79630 -1630.82628 -1653.46952 -1677.63584 -1669.27117 -1654.61533 -1647.83985 -1678.29415 -1687.56454 -1757.87814 -1837.28264 -1939.07191 -1957.74435 -1971.63996 -2006.93492 -2020.85166 -2037.51533 -2085.40004 -2184.04415 -2205.51363 -2222.63454 -2286.90786 -2370.84847 -2422.12586 -2449.74229 -2490.96765 -2496.98752 -2508.64625 -2504.50596 -2514.96523 -2528.82211 -2539.81498 -2545.45198 -2545.55198
79.85797 79.95797 34.70719 -1.78069 -11.17253 -32.09829 -56.35472 -68.49728 -67.55739 -77.12558 -94.12295 -92.16035 -91.53584 -84.83550 -71.50138 -69.78298 -77.01406 -85.18691 -98.96464 -100.76631 -96.92328 -89.63644 -89.73607 -104.65312 -106.10985 -108.61938 -111.71917 -116.73047 -121.30048 -125.14817 -125.08461 -137.34116 -148.56786 -172.04598 -168.09316 -218.52298 -263.61170 -308.01010 -408.39754 -340.01747 -320.64620 -337.00042 -254.79686 -336.36495 -349.09628 -366.07620 -605.99211 -934.93395 -1144.43606 -1288.02398 -1316.69588 -1367.45077 -1351.45206 -1420.22748 -1419.73666 -1394.90514 -1463.16576 -1526.43781 -1623.97466 -1617.97584 -1645.81926 -1651.77687 -1623.97844 -1617.49962 -1665.53431 -1693.20297 -1728.90259 -1820.95808 -1884.22963 -1896.65569 -1941.04609 -1952.10069 -2003.75155 -1990.56022 -2004.95197 -2056.59237 -2133.81249 -2185.22411 -2253.06028 -2344.82205 -2362.52434 -2435.42926 -2457.44420 -2466.43722 -2488.12757 -2492.22958 -2508.42898 -2510.29491 -2532.02180 -2539.03214 -2539.13214
124.40549 124.50549 113.46317 14.06533 19.52443 -24.50033 -55.44721 -48.68834 -58.89088 -80.60930 -92.00422 -89.86699 -75.56147 -67.88286 -65.40434 -63.91728 -73.25284 -84.53546 -93.25584 -94.26363 -84.35374 -80.91972 -81.47667 -84.64014 -97.01055 -103.81598 -109.81771 -110.29311 -117.60186 -120.33253 -123.45277 -124.05906 -138.51151 -150.95157 -152.24051 -151.33311 -149.59055 -144.31024 -244.35866 -184.25779 -239.03983 -155.54640 -209.59687 -211.41948 -273.25727 -323.03417 -490.38281 -671.02428 -993.32912 -1186.33546 -1208.43926 -1216.87140 -1292.45309 -1300.02792 -1326.91239 -1350.19566 -1343.69469 -1475.86821 -1533.21322 -1562.85265 -1593.40441 -1604.87688 -1611.16802 -1581.74835 -1637.86276 -1655.30227 -1701.34544 -1733.47999 -1832.47688 -1881.66114 -1887.64773 -1894.35732 -1903.64428 -1952.58782 -1959.54204 -1993.69409 -2048.58209 -2087.16926 -2230.91008 -2241.52894 -2322.65222 -2347.30631 -2408.56270 -2416.93789 -2461.51289 -2481.17767 -2488.05174 -2501.54235 -2514.30465 -2528.19791 -2528.29791
267.71373 267.81373 162.94926 54.54938 34.22242 -1.73035 -34.02040 -51.22518 -59.86859 -80.21805 -77.52269 -71.29779 -61.55348 -58.74222 -55.82785 -62.81566 -66.51754 -81.64019 -91.68219 -91.18266 -78.40893 -74.36586 -73.75997 -78.94705 -82.98284 -95.47537 -106.96483 -109.90091 -113.24969 -118.54302 -120.75112 -120.65982 -123.50932 -134.51309 -138.36874 -135.60064 -135.41896 -138.47040 -147.67133 -153.54062 -153.70643 -151.37179 -152.24726 -155.77213 -246.28338 -312.67401 -449.88574 -522.42580 -976.00688 -998.37743 -1092.09096 -1165.09795 -1097.12473 -1211.75160 -1229.89442 -1261.48961 -1309.90404 -1384.28642 -1414.16895 -1481.00778 -1498.25058 -1575.28764 -1565.02898 -1563.70732 -1550.17931 -1598.71402 -1646.67607 -1686.34638 -1773.62219 -1855.77983 -1844.95365 -1856.43100 -1868.51811 -1890.40048 -1918.28223 -1950.55124 -1949.79718 -2011.12886 -2112.25848 -2138.91729 -2248.86948 -2305.10574 -2383.31945 -2383.07152 -2402.29017 -2431.18402 -2471.23516 -2474.73293 -2506.00573 -2509.79145 -2509.89145
407.97065 408.07065 239.86309 126.86966 40.11510 -3.39387 -21.63191 -55.90848 -75.75823 -77.43390 -70.31142 -49.34484 -49.88483 -51.59530 -56.66577 -64.11078 -66.70918 -77.13861 -91.53831 -90.34625 -75.48433 -69.67969 -69.89627 -72.64331 -80.96928 -86.39378 -100.30147 -107.58455 -113.08965 -115.91398 -114.38813 -117.17129 -120.78745 -125.58577 -126.60027 -123.36588 -124.50615 -136.25694 -138.24131 -141.83311 -140.99054 -141.75119 -148.78645 -145.80863 -220.61045 -267.29146 -397.49921 -546.24097 -751.33091 -761.19197 -723.78821 -812.46247 -843.03180 -943.15424 -1144.61319 -1210.24207 -1173.37505 -1258.54274 -1326.69947 -1382.82974 -1428.05093 -1511.08412 -1539.69200 -1527.07395 -1530.05625 -1544.51401 -1566.48758 -1655.24346 -1717.12069 -1793.53621 -1798.07949 -1827.12261 -1818.71313 -1852.41728 -1884.43215 -1902.06446 -1915.74258 -1926.23790 -2012.19018 -2083.76099 -2177.48314 -2219.93879 -2327.27132 -2310.69317 -2368.19219 -2387.58462 -2413.93991 -2442.17927 -2466.74661 -2479.36642 -2479.46642
187.50477 187.60477 276.52393 114.22623 79.15357 12.94848 5.98600 -36.25399 -74.54336 -59.92537 -46.41568 -36.35918 -41.72646 -44.06275 -54.49868 -64.48298 -69.68364 -83.89842 -86.82966 -78.72804 -72.94317 -67.67385 -71.35853 -76.03936 -77.57912 -87.41701 -95.24142 -106.85263 -106.75317 -107.81109 -105.31579 -107.41917 -113.27737 -118.72832 -119.64240 -118.18570 -122.84437 -134.08182 -133.74691 -129.29153 -131.26590 -136.80206 -138.68279 -137.32165 -185.25002 -202.53850 -228.14432 -477.36091 -538.91992 -593.05226 -506.52438 -490.09529 -507.21077 -681.64005 -965.03220 -1118.95516 -1115.04392 -1202.44599 -1273.58894 -1363.89728 -1374.96793 -1434.42539 -1484.61075 -1484.38342 -1489.62213 -1536.07188 -1572.77460 -1584.42107 -1659.07822 -1734.98314 -1769.17910 -1802.03496 -1816.40836 -1844.17128 -1868.60477 -1893.21271 -1910.41077 -1923.27139 -1971.76535 -2042.28994 -2144.08502 -2203.55676 -2244.30904 -2291.66358 -2300.89062 -2350.00624 -2362.27271 -2397.78514 -2442.09066 -2437.47249 -2437.57249
270.62789 270.72789 247.73512 223.09350 132.48645 79.78437 10.12390 -33.92882 -61.92471 -52.52493 -29.18164 -27.39003 -27.51608 -37.91005 -49.92304 -59.62505 -73.26760 -84.42683 -80.26969 -68.64920 -61.84187 -62.41404 -70.23423 -78.06442 -84.28537 -88.01285 -96.22233 -100.82100 -100.51261 -100.59875 -100.67239 -102.12638 -108.79509 -114.75238 -116.23656 -112.96391 -121.40011 -126.40866 -127.83872 -126.37003 -123.91640 -133.84559 -132.74804 -130.03303 -137.52355 -156.33057 -291.02320 -276.20747 -237.23588 -369.56982 -316.31278 -381.96180 -356.28881 -549.70535 -776.38418 -880.47519 -948.88466 -992.35183 -940.57375 -1046.36931 -1121.94312 -1412.27628 -1419.79952 -1418.47600 -1483.14148 -1531.56397 -1551.81020 -1595.51832 -1643.78026 -1682.10408 -1748.58850 -1756.82577 -1801.76998 -1819.37434 -1860.92952 -1872.00378 -1889.19472 -1901.06972 -1949.94256 -1984.40050 -2051.80077 -2123.92583 -2169.41698 -2219.45120 -2258.33785 -2278.04165 -2305.73542 -2322.36403 -2383.91745 -2385.17505 -2385.27505
386.51711 386.61711 385.26050 292.91577 207.67531 73.32923 -9.77178 -33.80862 -68.11296 -31.13165 -18.26657 -10.67872 -17.73473 -34.65094 -40.32304 -63.52045 -80.49658 -84.00985 -70.16343 -61.90374 -60.49502 -60.76550 -69.92024 -77.49899 -85.23106 -90.31750 -96.65762 -92.35499 -91.92771 -90.69841 -93.68902 -101.12222 -107.78438 -112.16990 -114.81560 -115.33262 -118.22794 -122.08457 -124.38946 -120.47715 -122.73247 -129.10313 -128.49355 -130.83742 -132.32922 -164.12079 -186.95782 -192.16599 -207.50063 -198.75618 -219.33252 -274.94116 -326.01504 -343.71315 -342.88286 -572.73621 -619.71201 -657.15106 -824.76960 -593.77635 -750.49816 -1076.90360 -1385.81975 -1389.13127 -1456.36008 -1477.72806 -1542.57108 -1590.45631 -1645.38592 -1654.70608 -1716.05214 -1751.02294 -1778.02621 -1825.65934 -1850.48353 -1858.98111 -1872.19810 -1888.63901 -1908.36322 -1969.68348 -2038.50473 -2054.61912 -2136.42281 -2177.09108 -2192.71535 -2209.09117 -2271.41835 -2287.35411 -2284.49217 -2328.58388 -2328.68388
523.78294 523.88294 386.22155 240.15979 213.80820 15.34106 -33.89881 -37.68566 -44.14693 -21.65840 -0.26214 -1.50437 -8.97311 -28.68205 -44.45361 -57.87992 -72.53627 -75.78310 -68.46162 -55.65118 -57.50930 -59.59873 -65.89873 -76.70580 -80.03328 -90.62458 -88.20027 -83.32536 -86.51477 -89.30771 -94.45677 -98.63276 -104.29227 -103.60227 -111.09310 -118.87060 -113.87600 -114.72436 -115.25110 -113.66505 -114.56167 -120.23384 -128.09109 -127.23163 -125.76930 -157.15942 -168.62908 -173.74152 -168.57115 -154.63161 -154.99337 -177.53134 -228.60048 -245.25144 -298.23585 -348.00216 -451.25410 -336.47217 -327.87439 -491.93206 -744.38387 -900.63204 -1237.22558 -1363.85978 -1398.70209 -1477.64355 -1495.38219 -1588.78451 -1609.31741 -1662.84918 -1701.05978 -1757.92338 -1795.46235 -1841.49122 -1846.48769 -1856.22704 -1870.44551 -1886.33634 -1899.63535 -1917.80909 -1977.07650 -2020.04017 -2075.74490 -2111.40533 -2126.10996 -2132.17592 -2205.93475 -2238.26175 -2279.12395 -2271.01365 -2271.11365
625.48125 625.58125 449.49947 248.49398 112.26849 6.58859 -31.38182 -29.25892 -11.07103 18.40545 22.03202 12.32799 -9.06908 -25.88462 -44.53697 -63.54834 -70.68782 -72.56295 -55.17072 -50.82787 -49.94634 -53.89253 -57.19272 -72.96602 -82.44331 -87.71723 -86.28895 -79.78489 -81.40108 -81.90134 -80.54315 -90.86162 -92.79176 -100.44568 -107.97930 -112.95613 -112.80807 -107.36289 -109.21965 -106.24012 -111.08072 -112.10961 -122.09461 -122.81562 -121.67998 -123.54254 -141.86586 -141.01289 -141.39604 -144.14067 -149.85612 -151.31504 -157.61693 -164.61910 -205.23421 -262.22119 -262.61743 -263.52647 -293.13118 -510.24296 -654.83225 -993.40423 -1147.57778 -1302.90121 -1409.66377 -1466.18169 -1494.95930 -1539.03909 -1618.07690 -1666.45194 -1705.77877 -1762.27058 -1823.69130 -1845.09193 -1857.30558 -1870.27941 -1876.84060 -1895.93053 -1904.64360 -1919.57043 -1947.52076 -2000.58488 -2032.59401 -2047.02867 -2056.08174 -2085.44773 -2137.72951 -2151.35426 -2212.49712 -2210.32299 -2210.42299
784.07454 784.17454 662.01825 285.98497 149.88920 10.60080 -6.78841 -6.24337 52.25988 63.02573 31.06698 12.96821 -15.56245 -34.65047 -60.44814 -68.81530 -66.56634 -58.41422 -47.97632 -40.64034 -41.66427 -49.92190 -60.29363 -73.54278 -79.89634 -85.17258 -78.19659 -72.48540 -75.65009 -78.31081 -78.34157 -79.86247 -89.76392 -92.30220 -98.21367 -111.49880 -113.76724 -107.45756 -103.75964 -104.72270 -102.89134 -110.69945 -115.87742 -120.50461 -119.27683 -119.87716 -118.17934 -119.33173 -124.95262 -132.25773 -133.37107 -144.83333 -152.09718 -157.38148 -163.59058 -168.22437 -218.07164 -192.58871 -343.07407 -451.38020 -643.02403 -910.05149 -1134.69575 -1295.31755 -1384.60991 -1467.41495 -1490.69927 -1540.74399 -1618.94444 -1670.37805 -1726.91836 -1803.87191 -1833.95685 -1866.26746 -1868.75237 -1891.00904 -1909.17690 -1902.60378 -1909.26022 -1932.91515 -1966.38565 -1973.80351 -2000.63912 -2018.17654 -2046.74986 -2055.31950 -2074.12619 -2096.53996 -2119.60124 -2157.05528 -2157.15528
925.64304 925.74304 675.21903 332.63198 171.81352 53.51077 -3.65933 49.20834 71.97099 73.46837 60.43300 4.41245 -29.91761 -38.34927 -58.95748 -59.88497 -50.66214 -41.09103 -29.62677 -38.31356 -46.16710 -49.14927 -68.92904 -72.78583 -79.44662 -75.73621 -64.33056 -64.09219 -69.01134 -73.16809 -74.75343 -79.25130 -87.57027 -91.44715 -96.88549 -98.83447 -105.72281 -108.68639 -105.20177 -103.04395 -105.42561 -107.90461 -118.90416 -115.94150 -112.06791 -114.50263 -114.04598 -117.38049 -122.02478 -125.50144 -131.81432 -135.92373 -147.21897 -156.77649 -162.33888 -166.13556 -167.92805 -208.84965 -239.14376 -533.55051 -676.65625 -893.69190 -1128.88506 -1323.03984 -1387.84014 -1481.42595 -1527.57935 -1591.29913 -1613.43408 -1692.01921 -1738.13669 -1820.06513 -1883.65744 -1908.49109 -1906.37418 -1898.93222 -1912.42094 -1924.94567 -1928.43165 -1949.83350 -1968.38514 -1978.52824 -1985.58630 -2009.91413 -2011.63510 -2024.65414 -2042.72437 -2073.57466 -2100.20623 -2122.23868 -2122.33868
1007.30250 1007.40250 761.84883 450.35548 171.86425 105.50379 55.58206 76.91817 161.98481 118.41613 65.53777 22.27215 -31.16023 -35.36329 -42.10696 -52.48488 -40.38216 -24.83546 -25.38238 -31.57754 -47.81801 -54.74600 -65.61450 -68.22011 -65.21359 -61.28628 -55.90386 -59.71287 -67.86002 -69.00604 -75.45087 -80.84797 -90.55396 -93.72161 -93.17852 -95.05169 -103.09985 -103.98127 -103.43666 -100.32313 -103.77863 -109.48770 -117.98821 -113.10358 -110.59257 -108.73884 -110.31856 -115.65421 -118.40051 -124.69660 -130.37825 -136.60208 -144.82549 -151.12477 -157.32868 -159.38470 -166.60256 -167.22242 -257.97923 -478.00689 -682.49536 -869.72034 -920.70676 -1210.78758 -1443.38210 -1489.64671 -1540.18703 -1597.89327 -1656.18297 -1710.57963 -1778.81485 -1876.81856 -1899.35129 -1930.02054 -1935.82329 -1928.72150 -1929.87232 -1932.36071 -1944.37777 -1986.78044 -1986.63449 -1993.65362 -1996.00317 -2001.86606 -2007.08894 -2018.49715 -2035.81319 -2047.17125 -2102.20047 -2100.93848 -2101.03848
981.08663 981.18663 758.89349 482.15909 322.70411 133.99445 139.29203 212.26232 204.40837 173.94320 68.63780 2.38291 -33.97710 -20.45648 -12.00262 -12.53746 -8.12036 -3.84853 -13.47803 -26.26535 -50.65271 -56.01515 -60.51029 -64.33380 -56.01134 -52.99778 -53.86535 -57.82146 -63.15063 -69.74212 -75.45175 -84.06759 -89.74676 -90.81198 -95.57420 -94.47665 -99.17481 -98.81243 -99.52947 -98.93979 -104.70944 -111.68226 -113.39597 -111.84281 -106.93792 -108.79173 -113.29382 -115.14853 -124.28202 -127.14971 -131.48982 -136.28195 -141.05077 -148.18168 -151.53534 -157.33811 -160.52792 -178.21237 -244.10507 -360.55009 -589.24792 -699.67067 -927.18954 -1252.99250 -1503.77767 -1524.94754 -1602.48087 -1626.28620 -1676.66843 -1757.98055 -1817.71923 -1879.59461 -1953.41827 -1963.18494 -1968.54656 -1955.38337 -1960.31538 -1959.66159 -1976.31739 -2000.52631 -1998.65684 -2016.53895 -2013.12801 -2011.39511 -2012.74400 -2019.89039 -2032.59602 -2047.43023 -2065.28768 -2083.94696 -2084.04696
1016.68125 1016.78125 830.11046 508.41411 394.56146 219.80529 242.98859 315.60688 299.22459 191.01585 85.26234 20.02060 -7.36080 -11.45839 23.63206 29.87277 26.59200 10.97096 -1.06015 -28.72645 -36.58444 -51.27376 -53.98647 -55.67107 -52.06465 -52.66053 -54.75954 -57.81622 -67.12091 -72.46392 -81.10961 -85.15408 -87.12902 -86.25946 -90.93319 -91.79635 -92.92685 -95.35500 -94.79385 -101.82311 -107.39324 -107.15556 -110.31905 -106.74289 -105.63344 -109.22391 -112.52139 -117.15949 -121.67677 -128.12920 -133.08737 -135.03096 -139.05783 -147.27949 -149.72131 -157.38995 -183.79767 -225.04350 -248.91180 -377.71023 -575.60599 -699.86865 -1015.63711 -1170.55706 -1435.84213 -1567.46669 -1613.45465 -1681.86867 -1755.21437 -1813.77345 -1838.15577 -1904.52233 -1956.55142 -1978.77920 -1984.18636 -1979.26455 -1989.35049 -1992.15866 -2004.09066 -2009.92499 -2021.39574 -2034.11546 -2032.93626 -2029.01635 -2025.96378 -2025.92029 -2039.53512 -2042.02436 -2064.42209 -2074.66416 -2074.76416
781.93264 782.03264 763.38800 585.88985 435.01928 349.90234 310.15834 351.09689 338.02204 161.12953 41.15426 22.09869 -3.00338 28.55996 51.34872 64.40743 56.79210 55.51331 53.61671 4.85874 -33.54868 -49.52336 -51.05839 -50.44429 -51.21029 -54.36361 -61.31583 -62.24477 -72.22060 -77.76925 -83.98375 -83.17970 -79.49853 -76.08699 -85.09346 -88.96624 -93.23286 -98.17386 -105.05786 -108.23266 -112.85120 -106.46150 -100.90394 -99.79883 -104.84958 -109.28566 -112.59195 -114.82175 -123.68959 -128.09033 -132.05230 -133.18578 -137.85193 -144.00577 -153.95658 -160.07207 -185.27724 -207.69586 -245.78342 -406.44653 -631.93695 -872.38263 -958.33297 -1179.15900 -1370.88188 -1499.34416 -1610.43906 -1698.84677 -1730.72174 -1803.43482 -1853.06943 -1914.91186 -1952.44791 -1978.99424 -1988.81424 -1991.90431 -1994.65424 -2005.34268 -2010.33627 -2019.84314 -2036.92381 -2038.31615 -2045.97185 -2042.56943 -2032.29987 -2031.30476 -2040.09101 -2046.43421 -2061.70254 -2071.51169 -2071.61169
584.12570 584.22570 651.60799 490.48164 459.86420 482.04091 484.34169 461.99992 440.11628 240.77365 42.93689 41.13036 52.64425 86.16430 107.66867 99.89626 92.74111 98.56437 99.07592 60.82250 14.61360 -28.93239 -35.99973 -52.08561 -56.97235 -64.36695 -69.79809 -66.89044 -74.10764 -72.13618 -80.30629 -77.28058 -66.75353 -67.48659 -71.95010 -79.75352 -101.86967 -106.85002 -110.46022 -109.86876 -107.11353 -100.82109 -96.39189 -96.88234 -101.77459 -107.64591 -111.52657 -117.36702 -119.19342 -126.30365 -128.11772 -133.32285 -139.05629 -148.55385 -161.05427 -163.27425 -188.72767 -327.54782 -438.33487 -547.08824 -694.05138 -864.84926 -986.00497 -1177.18464 -1354.13879 -1533.36088 -1601.67827 -1704.81044 -1712.26267 -1775.80346 -1846.46779 -1892.06754 -1946.88089 -1970.29543 -1986.76345 -1999.10061 -2005.60016 -2014.18742 -2018.37872 -2032.54729 -2041.39150 -2042.88058 -2043.56379 -2042.54126 -2036.90120 -2035.89567 -2037.39954 -2044.37200 -2060.93082 -2071.75619 -2071.85619
616.37628 616.47628 548.48486 461.92105 459.77884 487.05902 498.27655 480.07611 384.45994 245.40578 122.86619 131.55257 138.23555 164.31538 124.01360 103.13627 102.84332 114.63414 116.67004 88.20483 29.94684 -20.21524 -35.29046 -47.18556 -65.57691 -69.53709 -72.67142 -67.00788 -70.04872 -65.62744 -67.24065 -62.07336 -64.63529 -65.40348 -71.77797 -83.72398 -102.31503 -108.17293 -106.75282 -98.46525 -95.17692 -92.20218 -95.83137 -97.02407 -104.73330 -108.55088 -114.09472 -116.99749 -121.40571 -125.47994 -126.60327 -133.67170 -138.36704 -148.74813 -160.60276 -166.73552 -303.50420 -407.64928 -580.69279 -766.27161 -779.62805 -848.33656 -956.58761 -1143.41437 -1242.82954 -1411.51670 -1471.77667 -1629.13950 -1687.99934 -1713.20098 -1795.27899 -1849.67682 -1897.66176 -1945.24135 -1981.63765 -1998.51069 -2002.15803 -2004.48094 -2022.08117 -2038.05684 -2041.11349 -2041.75600 -2042.78780 -2042.26027 -2038.27725 -2035.72376 -2037.30851 -2041.06851 -2071.83938 -2072.43815 -2072.53815
602.86496 602.96496 521.63388 452.04343 449.44258 485.97507 495.11360 478.97239 459.79949 292.76502 238.55723 226.37076 216.05187 191.47706 89.18534 85.78990 79.96646 88.07054 99.42099 82.41411 24.50727 7.81322 -39.50501 -61.23832 -61.44778 -67.27685 -64.58106 -61.08784 -53.40448 -57.08856 -62.77343 -63.43687 -64.83598 -68.86644 -75.33256 -84.34362 -102.64131 -106.67791 -100.09840 -88.69048 -84.34892 -89.74706 -92.00194 -99.03919 -105.21514 -111.56419 -113.49151 -115.50216 -118.99217 -121.53749 -126.14665 -131.12095 -134.95910 -154.01211 -160.52262 -242.73839 -371.89031 -524.16606 -709.30904 -771.11308 -840.30679 -888.51574 -951.62078 -959.65735 -1152.57515 -1299.68944 -1435.60933 -1499.76638 -1547.35953 -1647.43985 -1728.85816 -1804.14230 -1870.41755 -1935.71192 -1957.62196 -1995.85811 -1996.90623 -1995.83396 -2012.49028 -2025.20935 -2034.37968 -2032.76384 -2038.40279 -2038.84605 -2037.22959 -2037.13988 -2039.52682 -2048.50346 -2061.80790 -2071.07579 -2071.17579
524.31770 524.41770 493.02875 415.66560 414.24186 471.10519 487.75045 500.24973 504.10257 421.42890 315.84683 327.76562 276.26462 199.95000 109.95700 44.85153 27.92405 40.33346 47.09102 49.50367 20.80117 -40.13233 -49.99250 -57.30063 -52.97525 -53.80496 -49.01500 -50.45902 -50.76452 -57.31652 -60.69646 -69.00318 -69.03061 -71.71997 -83.71919 -95.94384 -100.90079 -98.42435 -84.55010 -79.40247 -81.37125 -84.17386 -95.52815 -102.54100 -105.87782 -108.50357 -111.56089 -112.64472 -115.52305 -120.27395 -125.52304 -125.71310 -136.70649 -140.68446 -159.58965 -271.44080 -432.48799 -563.18246 -705.52569 -854.36292 -892.46235 -931.14097 -940.83338 -957.36818 -1070.46002 -1200.51154 -1267.38647 -1415.62067 -1510.06478 -1585.48464 -1608.71982 -1775.56764 -1801.81728 -1889.91954 -1934.35598 -1967.42954 -1970.69994 -1989.30023 -1997.00903 -2010.78208 -2027.52829 -2025.69500 -2031.76457 -2034.96859 -2035.77742 -2037.33641 -2042.17294 -2044.88977 -2061.93095 -2072.42564 -2072.52564
436.56520 436.66520 420.51006 408.34354 419.48498 446.83709 470.85683 510.22045 537.11896 500.82451 461.92305 390.24683 313.62458 164.55615 81.99347 35.35067 17.88343 -2.81579 13.12613 11.12776 -43.29826 -48.40028 -58.94519 -45.08919 -47.43182 -44.97761 -46.14139 -46.47861 -49.34038 -59.16466 -68.05346 -76.30578 -73.70976 -83.26785 -87.06011 -98.01844 -105.37961 -98.00780 -82.74434 -77.50424 -79.72531 -83.07028 -91.76454 -100.48177 -101.60459 -106.15532 -113.46606 -112.77890 -115.30366 -120.47779 -124.82891 -125.79338 -133.33844 -142.69987 -153.08739 -294.53308 -425.03838 -489.07656 -624.78817 -943.20413 -964.80362 -952.82729 -944.24044 -962.13827 -970.05472 -1062.77149 -1178.77939 -1324.39269 -1369.82352 -1420.23630 -1539.13368 -1608.22954 -1751.34355 -1767.85481 -1848.33299 -1881.66381 -1945.52125 -1960.13052 -1984.68128 -1990.55200 -2010.13419 -2022.02223 -2032.03313 -2032.27104 -2037.57466 -2041.34477 -2048.87599 -2054.61607 -2080.06408 -2076.30169 -2076.40169
404.82807 404.92807 410.20039 404.49280 410.92101 441.63039 463.90734 507.20034 549.94449 536.68759 495.32590 400.78033 279.62778 132.17954 58.11412 41.95851 43.59207 -12.34377 -27.94943 -32.59592 -40.91887 -49.11148 -44.22424 -37.10626 -31.95927 -42.95439 -46.31100 -51.56526 -60.83683 -62.58153 -76.59319 -80.00002 -80.26160 -90.18865 -96.44124 -101.90383 -98.94863 -91.86362 -83.14254 -77.65250 -78.64482 -82.87933 -91.03398 -97.95476 -100.49404 -105.32526 -109.77680 -115.53785 -116.76670 -119.11718 -125.46683 -127.08426 -134.61041 -141.21040 -146.66030 -225.98303 -386.12556 -485.63153 -648.17583 -835.85905 -967.89738 -990.61515 -984.71524 -972.70347 -974.75980 -1013.46082 -1152.03484 -1189.88654 -1305.69071 -1361.42345 -1421.84708 -1473.49281 -1632.06179 -1732.80166 -1761.35372 -1814.29272 -1891.65707 -1953.03911 -1961.38161 -1993.50560 -2005.41777 -2021.59183 -2029.54969 -2036.44041 -2043.32545 -2044.69321 -2057.85434 -2070.59888 -2081.52298 -2093.02335 -2093.12335
400.40479 400.50479 401.64761 401.06375 416.15861 442.32680 461.21626 495.30874 500.77959 491.79552 453.90801 349.58641 246.46227 100.74595 80.81289 78.11614 28.39820 -8.90085 -40.82927 -38.16280 -33.93080 -26.81102 -19.66692 -12.49394 -22.77418 -30.94730 -48.67259 -55.56340 -63.65173 -64.04532 -80.03474 -92.57733 -92.60421 -98.67830 -96.46971 -94.19226 -92.15346 -83.91430 -75.23768 -75.65773 -78.19772 -83.63245 -88.20784 -97.49923 -100.93929 -107.09515 -109.53810 -108.23227 -112.28991 -114.00560 -124.38330 -127.86922 -137.40596 -140.82959 -145.78251 -204.29419 -250.00852 -451.16270 -588.96649 -803.82555 -936.74498 -997.51509 -1014.72952 -1026.84415 -1022.64864 -1076.28033 -1134.45158 -1148.80689 -1196.93030 -1249.89617 -1332.12376 -1433.92513 -1542.20674 -1616.37771 -1730.58190 -1750.05573 -1869.61423 -1938.22142 -1968.31624 -1979.77200 -2011.07571 -2026.63216 -2032.58968 -2042.64304 -2049.62666 -2065.45151 -2073.77184 -2082.65820 -2092.67797 -2109.88662 -2109.98662
406.12878 406.22878 409.14797 399.45277 410.87521 441.28632 461.03959 474.58225 443.10462 412.49642 382.11672 319.88156 263.95199 118.43215 109.16669 88.97631 36.84642 7.07965 -38.99650 -34.26530 -27.40149 -22.32195 -12.46087 -12.74375 -22.45936 -28.14553 -44.85221 -55.69238 -71.39271 -82.49489 -83.98184 -86.35895 -88.53376 -94.31904 -93.02850 -83.77740 -78.70109 -74.24553 -72.73330 -74.61987 -77.33654 -87.17454 -90.88953 -98.82188 -102.18064 -106.15456 -104.31323 -101.43476 -102.97446 -106.56203 -117.85930 -123.02811 -135.21657 -137.43732 -143.42990 -149.48249 -194.67738 -230.45735 -381.68287 -627.06957 -937.20968 -985.49181 -1042.23545 -1053.05461 -1085.60357 -1094.22111 -1127.74211 -1132.85940 -1136.84778 -1211.82217 -1268.25971 -1302.06159 -1359.89344 -1544.69988 -1584.81084 -1681.23249 -1804.11239 -1938.64755 -1956.87484 -1992.29034 -2026.41239 -2031.34603 -2037.67917 -2049.81174 -2054.40489 -2070.43614 -2082.19796 -2091.75027 -2121.59340 -2122.64000 -2122.74000
430.63807 430.73807 411.43338 403.55114 394.76922 416.98392 441.37997 446.22335 432.62165 397.89895 379.04997 370.82454 290.33297 179.45917 105.76438 84.89176 42.59164 -6.16968 -32.94247 -31.20542 -23.08075 -23.01517 -22.73186 -24.33969 -34.93530 -35.50454 -55.20131 -65.65006 -75.04226 -84.13252 -81.31355 -72.06646 -76.35380 -81.18846 -79.39174 -74.76696 -73.93439 -74.13597 -71.25392 -73.74544 -78.76741 -88.65600 -92.74003 -97.77945 -98.13898 -98.00852 -95.91238 -93.39442 -98.32164 -106.55746 -112.71072 -117.51342 -125.46756 -135.39972 -140.81593 -142.15892 -149.30277 -155.41418 -291.35160 -435.38932 -802.40322 -972.00757 -1058.70180 -1105.00822 -1118.67401 -1120.69945 -1116.43341 -1124.62221 -1111.76619 -1117.70668 -1157.14762 -1208.17572 -1221.65179 -1365.60324 -1439.72625 -1510.51389 -1806.47468 -1871.01873 -1954.67047 -1977.96440 -2030.71064 -2034.02719 -2044.34272 -2050.66109 -2059.68049 -2071.94383 -2091.82893 -2106.67880 -2121.94339 -2131.82005 -2131.92005
447.56147 447.66147 450.70661 389.18029 387.30964 399.27261 425.91368 433.06688 391.94195 392.98371 373.17319 352.20678 260.14126 194.94983 135.69768 65.57620 27.19659 4.07877 -21.91406 -27.45362 -28.10974 -29.95951 -40.79141 -48.91561 -49.67725 -52.38505 -58.37522 -71.04628 -79.53529 -84.84538 -71.23483 -65.60732 -58.39475 -66.83871 -70.97389 -69.60752 -72.80641 -73.48606 -76.54624 -79.64216 -85.63803 -90.34852 -94.34875 -92.18679 -94.14868 -92.09391 -89.16899 -91.97717 -94.96185 -103.00353 -107.18275 -111.02615 -121.53031 -127.20170 -131.68491 -131.31645 -134.14417 -153.65791 -162.89394 -374.66355 -760.95492 -983.69278 -1054.30763 -1087.75309 -1124.11159 -1127.29300 -1131.65010 -1120.82143 -1115.40233 -1104.74822 -1114.10662 -1130.05912 -1186.59382 -1279.17545 -1325.23903 -1468.31609 -1704.26160 -1858.13064 -1950.73024 -1993.57598 -2022.75333 -2029.87825 -2033.29625 -2040.09506 -2046.94187 -2062.53351 -2097.98827 -2100.85521 -2121.27082 -2135.03981 -2135.13981
474.88163 474.98163 430.62177 390.14989 380.04290 381.83770 379.55727 376.47407 366.13220 370.11318 300.92462 269.50353 247.50370 215.65356 141.59991 58.29897 7.73880 1.28830 0.81614 -8.32412 -29.91650 -40.80459 -46.08434 -54.25051 -74.49649 -69.02596 -76.66478 -76.50459 -85.81859 -79.07627 -66.20238 -55.23815 -56.35976 -56.99566 -59.40275 -65.48093 -67.82328 -73.92395 -77.97875 -81.42906 -84.96293 -89.85208 -88.99319 -87.01444 -86.42788 -85.31776 -92.01552 -95.22682 -98.84601 -103.35981 -106.25066 -113.12342 -121.48276 -126.84651 -126.88572 -128.48695 -130.61933 -144.71631 -161.76808 -302.05145 -678.02319 -950.39641 -982.49704 -1097.99124 -1115.48500 -1140.17960 -1136.39634 -1136.52597 -1123.48157 -1103.63133 -1115.01881 -1124.77864 -1161.22067 -1179.40282 -1260.22062 -1470.15316 -1603.53960 -1798.98717 -1919.08229 -1976.67984 -1995.51809 -2001.51435 -2012.91086 -2030.70139 -2036.23854 -2054.34026 -2078.30339 -2100.52562 -2117.36966 -2127.49872 -2127.59872
493.82768 493.92768 445.34924 396.56185 382.45132 342.21481 319.51978 304.84089 299.36836 207.83004 226.76378 219.31948 225.45724 195.30833 169.86265 95.81762 24.83481 9.73211 25.15122 -1.03946 -26.69548 -46.36961 -60.57343 -60.59652 -61.99427 -65.05697 -81.32798 -77.58357 -82.56676 -70.52738 -65.99715 -50.70063 -50.25319 -49.01420 -51.87339 -53.97516 -60.10881 -70.26041 -71.99788 -78.02742 -76.09264 -77.06836 -77.63550 -79.29813 -81.59344 -92.27961 -101.37693 -104.18719 -103.46012 -109.32075 -114.03660 -117.26514 -120.19718 -122.15002 -121.25871 -123.68949 -130.16003 -141.39680 -155.54837 -314.78935 -490.10813 -870.89810 -968.36590 -1029.29506 -1084.00965 -1112.80349 -1138.12758 -1138.48850 -1135.04329 -1121.26234 -1102.18724 -1105.99325 -1102.97477 -1139.36238 -1273.23348 -1385.65261 -1591.03229 -1756.39820 -1869.70262 -1882.89585 -1929.07156 -1936.90868 -1940.98446 -1968.73830 -2002.31536 -2043.47063 -2057.09502 -2083.49720 -2110.20809 -2114.41369 -2114.51369
537.61292 537.71292 470.51587 389.64685 380.89585 309.58710 277.65336 231.07266 225.21427 187.90966 135.06058 144.12379 177.70540 175.96736 162.42321 112.10588 58.97733 32.26485 43.24623 23.61904 -47.44597 -56.81714 -66.95273 -52.09429 -38.73250 -45.05762 -50.34553 -59.08913 -62.04279 -68.39502 -61.04478 -52.76449 -43.56429 -46.03068 -45.17057 -50.66957 -51.29331 -59.00777 -68.37619 -68.00548 -68.17207 -69.76863 -73.70570 -76.17678 -85.02249 -90.30550 -102.64664 -106.65200 -108.92455 -111.11566 -116.60199 -120.17299 -119.65562 -118.15136 -117.86206 -122.09946 -131.86676 -140.88091 -148.97240 -193.36478 -478.07244 -743.74218 -794.31242 -1001.69244 -1054.08478 -1086.65891 -1109.91502 -1130.27800 -1132.04507 -1120.22859 -1109.07719 -1090.74362 -1071.77729 -1090.34653 -1135.77333 -1274.90246 -1393.73053 -1592.66287 -1740.22939 -1822.03909 -1858.63040 -1881.19990 -1882.64642 -1890.13106 -1959.57024 -1979.14281 -2044.44589 -2044.33244 -2093.34329 -2098.06973 -2098.16973
553.83841 553.93841 504.78057 416.31156 351.35598 317.87505 254.17120 233.86979 163.85586 104.71419 93.70146 115.62301 145.38347 163.43388 153.67987 128.70691 99.69831 66.92285 34.75487 15.51850 -51.02110 -61.95757 -65.80160 -54.96654 -34.79225 -29.04197 -33.68720 -50.36313 -54.85949 -57.38172 -67.82724 -51.78724 -44.51399 -40.98159 -44.08362 -46.42499 -51.21339 -58.41478 -63.06637 -64.94131 -66.43208 -66.34125 -75.12739 -83.51084 -82.52759 -95.81330 -104.86406 -102.55238 -104.53795 -109.85277 -113.62953 -115.33596 -119.11185 -114.21832 -113.24786 -119.16135 -130.47146 -140.01159 -149.22622 -225.89346 -317.67143 -485.23129 -576.65454 -857.25866 -896.55448 -1043.37085 -1066.53561 -1095.58759 -1122.75584 -1116.77273 -1107.10329 -1083.02546 -1069.75208 -1077.59413 -1099.66236 -1200.53275 -1281.42156 -1439.87251 -1546.61452 -1595.40409 -1687.71760 -1753.18981 -1750.80515 -1761.09972 -1881.11475 -1953.00932 -1998.46185 -2030.69424 -2031.93738 -2065.58869 -2065.68869
623.08971 623.18971 647.76097 391.82058 382.49500 346.55612 314.74136 258.10400 188.69014 115.73764 57.67170 72.32718 108.66792 135.28963 133.50303 125.71962 96.68432 73.28197 39.24960 19.31112 -29.41842 -44.55146 -54.56460 -52.44676 -34.54737 -25.87981 -27.90409 -42.01899 -43.12179 -52.74143 -54.50426 -51.67725 -40.24801 -39.42812 -43.07449 -48.24255 -50.28975 -54.51800 -58.57300 -63.70745 -64.07427 -71.26870 -77.96661 -86.67278 -90.72744 -96.38715 -100.48487 -97.00769 -91.86171 -100.93542 -108.72622 -110.32816 -111.56088 -113.99000 -113.74568 -114.93632 -130.85232 -137.45251 -141.17914 -191.53591 -311.66787 -334.79069 -364.71088 -538.34388 -709.40260 -810.06507 -1013.08571 -1029.62445 -1079.46364 -1092.04604 -1090.10840 -1073.38458 -1061.81821 -1067.55798 -1123.94440 -1205.19777 -1271.51318 -1358.58040 -1463.64578 -1502.48242 -1529.16093 -1580.29154 -1592.09977 -1704.86298 -1706.14330 -1813.74072 -1960.19882 -1968.92673 -2027.26024 -2015.42990 -2015.52990
776.23254 776.33254 675.28937 468.92522 400.04158 427.61446 398.53560 276.79945 240.40371 139.56874 50.27108 46.96604 61.87472 65.33402 81.24977 91.39840 92.38571 83.05496 79.74990 31.88665 -2.62514 -28.87739 -44.58267 -55.09818 -44.59960 -26.11482 -21.56654 -28.04459 -37.60903 -43.38003 -48.60229 -48.40082 -42.37253 -41.16865 -46.45663 -48.89973 -48.59790 -52.88547 -57.14791 -63.71749 -68.64668 -78.98674 -84.03514 -87.54337 -88.18486 -91.55306 -100.50025 -92.58985 -90.18354 -91.86151 -98.49610 -99.52360 -103.36697 -108.21193 -112.10717 -119.98677 -128.16776 -129.16340 -139.15223 -142.62158 -292.49527 -326.35090 -320.25878 -334.18328 -421.36694 -606.92805 -883.36834 -1012.05273 -1001.89380 -1037.41057 -1045.62966 -1059.63136 -1048.73932 -1068.53910 -1130.12914 -1222.87541 -1232.28678 -1314.57821 -1335.34625 -1348.03950 -1463.90484 -1561.41502 -1531.34109 -1583.86536 -1617.16550 -1682.94021 -1779.70206 -1874.03848 -1918.24929 -1944.73927 -1944.83927
839.40819 839.50819 761.93053 507.68345 476.19712 474.20816 412.53382 333.08958 256.94115 151.23196 71.26664 60.31510 45.94159 27.72960 15.68101 40.42063 64.65982 71.23668 77.96347 51.71627 3.92862 -20.73802 -39.90412 -60.49123 -40.70331 -26.02604 -13.23401 -17.81104 -22.82223 -31.39481 -39.75725 -45.60164 -44.28227 -43.36713 -52.50052 -55.87004 -55.25398 -57.90913 -62.60930 -66.58785 -76.74487 -81.62070 -85.01251 -82.90849 -80.63471 -87.18657 -90.93780 -90.65838 -86.12858 -93.23611 -96.20512 -99.60015 -101.07883 -105.39052 -111.91556 -119.16409 -123.44604 -130.23384 -139.07109 -140.26431 -209.23945 -232.54748 -275.30392 -264.37764 -413.78280 -463.34618 -511.57372 -787.81600 -877.21016 -803.81146 -912.36360 -1025.88372 -1036.45793 -1057.54480 -1106.73741 -1179.71516 -1193.05991 -1257.69495 -1239.36698 -1300.60419 -1324.51465 -1363.57155 -1383.43019 -1425.48848 -1460.76321 -1574.69043 -1622.14529 -1744.89111 -1863.93832 -1853.61645 -1853.71645
1065.17224 1065.27224 807.31151 579.04814 490.42394 540.84543 372.53668 296.90009 185.23625 151.47755 100.67559 99.06491 48.18871 19.21006 -12.22457 7.69377 26.64544 41.76219 57.00803 49.17516 -18.92995 -27.78866 -48.10509 -41.17533 -23.23274 -11.82660 0.55148 -15.32486 -15.70533 -22.26008 -30.19411 -40.50815 -42.53541 -47.71140 -55.06033 -65.85228 -65.49276 -64.21742 -69.50780 -76.72899 -76.54233 -77.93942 -74.09421 -74.50714 -75.49258 -86.19440 -89.45785 -88.16548 -89.18485 -92.82884 -98.41402 -101.70567 -102.28710 -106.08194 -112.49876 -117.10739 -119.18236 -125.95542 -131.56517 -134.01754 -143.63045 -187.12465 -191.49734 -186.87205 -245.15471 -229.18147 -363.97242 -445.31369 -479.04788 -536.73107 -756.65235 -1005.96650 -1030.46684 -1059.24966 -1097.48687 -1165.69024 -1201.43461 -1194.76644 -1197.12054 -1144.17708 -1079.84471 -1084.83115 -1194.31618 -1229.05761 -1333.55996 -1376.86341 -1532.68409 -1524.14144 -1739.31647 -1748.55011 -1748.65011
1100.16834 1100.26834 880.84471 637.62255 572.49844 501.48938 415.92886 229.36651 166.18702 115.00257 82.95811 82.12369 27.16023 24.31461 -12.45250 -24.13810 -10.90116 37.39696 53.60056 15.82858 -0.66024 -39.58713 -42.77801 -20.65389 9.78423 24.03552 11.08399 16.63194 -5.96249 -13.49052 -25.30599 -32.62816 -42.65932 -53.43100 -56.56148 -64.14632 -67.92282 -68.37082 -68.52128 -70.40144 -72.73782 -69.39848 -68.80778 -66.56338 -75.21835 -81.94902 -89.10603 -87.43256 -91.67043 -93.59342 -93.77956 -99.26097 -106.53928 -107.98318 -113.06644 -115.95844 -116.05466 -121.19883 -126.08997 -133.07473 -140.66338 -145.78909 -152.04269 -153.32982 -196.03545 -211.49213 -227.85936 -227.28060 -249.10953 -375.02591 -553.55570 -894.43044 -1018.45057 -1037.73608 -1096.29464 -1147.04494 -1193.91492 -1166.92619 -1140.41594 -1067.40465 -1065.83921 -1072.76148 -1073.25910 -1049.74167 -1145.49337 -1308.20949 -1365.37606 -1441.36442 -1539.26429 -1611.95814 -1612.05814
1146.30277 1146.40277 1199.85956 709.18021 695.55129 617.70973 505.10279 315.46208 192.55953 128.27755 72.83254 58.13551 54.30301 37.90372 -20.45256 -13.75228 -12.16922 4.07700 13.12507 5.30011 -15.86743 -34.56490 -22.66601 27.86110 42.45640 36.78011 31.03104 28.21772 12.36039 -12.25888 -22.77015 -34.97695 -39.74952 -48.43549 -50.66215 -59.93527 -57.37849 -56.17388 -55.29133 -59.11377 -61.68744 -59.69448 -64.73997 -67.39685 -76.78913 -83.14980 -82.27619 -84.32054 -87.72536 -88.70815 -89.74497 -93.91955 -104.10620 -108.66491 -109.91188 -112.42248 -115.43361 -117.50469 -123.13930 -129.85039 -135.49486 -143.44047 -147.48218 -152.09337 -167.01743 -177.90612 -184.26418 -209.18312 -224.44519 -372.15766 -427.69584 -705.27719 -967.94336 -1016.70906 -1091.29445 -1141.75483 -1125.13149 -1114.33512 -1070.31500 -1031.33912 -1013.33331 -987.91828 -974.26788 -1013.22892 -973.08140 -1096.33526 -1285.40458 -1299.42501 -1395.45259 -1462.07013 -1462.17013
1374.95010 1375.05010 1131.45464 840.76105 772.31731 728.77499 621.77929 411.60590 244.90986 161.19750 123.71035 113.72577 113.77729 94.99869 62.48304 -13.35571 -22.29740 -16.01023 -13.78340 -35.50100 -34.52725 -45.86627 8.33361 31.47885 50.28430 46.86219 41.54891 43.85425 17.37776 1.74710 -19.36419 -33.83768 -40.97281 -55.57611 -47.67229 -48.24930 -51.25170 -51.22540 -52.84074 -51.93948 -55.49701 -60.59964 -66.19453 -72.51307 -75.16119 -81.21556 -78.85060 -76.45131 -78.46333 -86.26053 -86.02720 -91.37253 -101.30677 -107.46328 -109.77538 -110.28123 -114.59777 -117.59474 -120.72307 -127.71790 -132.69942 -135.42814 -140.74425 -148.12576 -153.88835 -154.69566 -156.00740 -174.44344 -192.71332 -358.07682 -532.19105 -737.83500 -879.82787 -943.38644 -976.81201 -1039.61587 -1090.46625 -1067.77934 -1039.71520 -1018.11116 -974.30674 -932.28192 -899.58267 -903.90191 -892.02282 -905.87629 -1023.51912 -1126.70369 -1248.33062 -1321.69309 -1321.79309
1167.12054 1167.22054 1112.07525 907.84613 799.62824 752.94045 690.97592 502.26731 405.06706 254.71891 174.68766 195.36558 169.34443 146.08122 58.25766 12.41939 -3.18817 -27.76417 -32.80488 -38.99876 -45.13266 -46.85650 13.59239 48.15804 75.53024 74.71240 42.79743 35.13821 25.01907 -12.23673 -22.75330 -29.07776 -42.87185 -42.47885 -43.65354 -38.69254 -42.63430 -43.02998 -45.99600 -53.71657 -59.61125 -63.18079 -67.40246 -73.22436 -75.27102 -77.03554 -75.66337 -73.59628 -73.16372 -79.60486 -84.22558 -86.93920 -95.67891 -100.39094 -103.09599 -109.10418 -113.43200 -116.76815 -120.74766 -123.75680 -130.07126 -133.14759 -138.60845 -141.16900 -147.28528 -148.24049 -152.63254 -153.55522 -181.89628 -199.28183 -455.08736 -710.00025 -835.09353 -799.87000 -952.49284 -988.45221 -1020.01459 -1033.73605 -1030.75700 -972.29884 -949.15088 -914.22200 -909.26799 -813.79606 -789.45365 -820.30251 -871.07305 -990.25628 -1116.37364 -1211.01297 -1211.11297
880.99972 881.09972 956.75476 724.19276 701.32992 709.11251 631.79301 563.50267 368.00332 341.86328 267.64061 225.95724 228.66638 129.86917 75.69839 13.98180 16.82290 -8.86628 -18.15390 -25.95297 -40.09888 -5.86555 52.04939 90.38264 93.11750 83.41598 49.50696 13.76498 -6.06994 -26.09309 -29.01693 -37.17861 -33.00072 -26.97243 -25.63597 -34.22923 -35.57970 -42.45446 -49.83776 -56.84545 -61.93339 -63.18023 -66.39074 -69.12966 -71.80035 -70.60001 -66.85179 -70.76139 -71.90960 -79.64095 -83.74152 -89.08702 -93.29758 -94.54794 -101.02717 -104.74796 -110.19345 -113.01467 -121.40687 -121.96212 -126.09557 -129.38315 -134.53106 -139.95701 -142.97584 -142.47598 -149.04005 -154.00086 -159.68340 -186.57100 -461.19018 -592.99088 -750.92632 -794.61285 -862.29026 -915.35043 -958.29907 -965.21357 -982.19444 -960.93140 -897.43833 -853.00017 -818.58828 -726.22390 -729.84936 -753.31569 -829.17245 -860.25381 -1137.09605 -1133.73874 -1133.83874
853.18135 853.28135 727.42903 583.33076 584.54607 640.80095 603.25072 585.04662 465.51581 439.91400 396.14316 304.06662 295.99489 190.41050 61.54678 31.41768 52.55177 34.65241 4.49326 -23.07731 -22.65246 7.07605 50.47876 94.78959 102.38391 88.48320 43.17671 -0.48888 -25.00108 -31.57879 -32.04905 -31.42522 -25.24255 -21.05163 -24.25790 -32.55513 -40.38962 -44.26092 -51.43001 -55.15854 -57.51347 -60.08841 -59.23569 -61.61869 -65.03824 -63.08424 -66.02461 -68.33419 -71.02157 -76.70954 -85.90804 -88.30739 -89.53786 -91.30211 -94.51517 -102.99175 -109.75344 -110.14363 -115.10891 -119.91959 -124.51215 -128.03207 -132.65417 -137.31080 -139.92922 -140.57720 -145.49814 -150.79237 -161.10602 -169.35167 -258.42682 -402.20879 -627.02663 -665.55844 -832.24287 -889.42988 -908.44336 -936.55953 -951.84457 -909.01337 -892.44909 -814.93505 -726.87577 -687.17306 -705.00709 -698.54997 -779.10102 -862.23819 -983.75056 -1067.92707 -1068.02707
744.00561 744.10561 677.83768 493.14029 482.02619 486.96956 479.04403 466.07850 485.75605 514.63480 471.93006 387.04811 285.28502 170.00532 91.68189 100.00875 95.31300 80.05789 65.08625 9.29551 19.64281 16.80770 41.95979 78.18146 99.06224 73.09653 35.83266 -12.15983 -17.62736 -19.86473 -20.82479 -19.90101 -17.71602 -3.08725 -22.70980 -29.69500 -40.54439 -44.17290 -46.81852 -45.76759 -52.69261 -53.20382 -58.89776 -62.70690 -65.22194 -64.13084 -66.22763 -69.42023 -72.14146 -75.57826 -82.60830 -85.63816 -86.69227 -89.45190 -92.35461 -100.98390 -105.86657 -106.76536 -112.93347 -115.37305 -120.69288 -127.71813 -130.53416 -134.87656 -136.62429 -139.72178 -142.46216 -147.94196 -156.96610 -160.97660 -192.44528 -314.33634 -345.78981 -351.90792 -627.50213 -797.40437 -818.20223 -927.39648 -926.38915 -887.52687 -856.84172 -722.64326 -695.70202 -670.40651 -673.47161 -678.73553 -740.48018 -864.55413 -945.80281 -995.26668 -995.36668
650.52999 650.62999 515.47236 372.86720 358.50045 364.38716 400.45023 405.75019 524.28031 570.42614 547.51357 447.09994 299.69631 236.98055 112.40735 126.22188 150.75173 89.54134 98.84266 81.68728 45.05582 30.54953 60.05895 70.70552 104.53130 89.00542 72.51416 25.77205 -14.31894 -16.37153 -15.66784 -3.68582 9.13351 15.54036 -0.71416 -20.43556 -33.54508 -33.50803 -41.33424 -44.42218 -48.72942 -55.85411 -66.23131 -65.97011 -68.34201 -65.51737 -66.11706 -71.76125 -75.77470 -78.50000 -80.18725 -83.06334 -87.13158 -88.46876 -92.18888 -99.20850 -106.03371 -107.15793 -110.31270 -117.08122 -118.86725 -124.63819 -129.54979 -131.77020 -136.46110 -138.67335 -141.19017 -143.25777 -145.60216 -144.49883 -181.53452 -203.66300 -203.54226 -193.32648 -269.45871 -551.69008 -730.65877 -791.01361 -842.71998 -809.96677 -721.90229 -649.63445 -600.39972 -592.51959 -626.11157 -609.79254 -661.62728 -692.50895 -897.00505 -901.44295 -901.54295
587.16607 587.26607 476.20213 363.93901 282.40592 242.17063 275.11540 385.25421 468.76134 518.13901 509.90237 446.11874 311.48088 241.65678 176.27529 197.17511 183.68958 147.01863 118.32294 150.45195 113.26810 94.71691 115.01425 82.63222 151.57427 136.67460 124.66786 75.34044 20.44800 27.35058 33.61208 47.43214 53.82571 50.09920 17.66795 -9.96019 -27.92450 -30.32415 -34.58402 -41.75408 -51.93094 -63.18015 -73.66043 -75.80410 -77.89596 -73.58713 -71.81221 -79.04167 -83.01574 -79.94221 -80.30756 -86.28285 -89.30510 -91.29439 -94.17516 -99.54832 -103.04187 -106.19649 -112.10709 -116.94542 -119.51511 -123.97793 -126.27366 -127.05080 -133.76030 -135.60383 -139.99074 -139.99845 -141.01529 -143.00194 -146.48031 -173.60914 -189.81622 -176.42328 -255.99345 -314.84992 -561.09532 -685.66580 -704.14277 -736.59396 -651.49418 -599.58474 -537.93307 -530.36832 -539.86517 -537.39238 -568.64149 -610.93460 -730.88224 -792.46729 -792.56729
502.33263 502.43263 527.70652 305.82849 243.84606 220.12388 222.95187 306.61114 374.80714 408.66453 408.37501 403.33530 394.32757 287.97293 290.42384 275.70959 288.32307 221.35409 167.77735 172.43729 174.87585 118.17266 141.03857 188.77130 183.94645 141.26365 132.31613 88.69897 77.66732 84.92828 108.50148 117.82310 98.39482 68.96823 51.42745 3.87591 -11.53953 -24.83813 -35.09942 -45.70837 -57.63748 -69.54553 -76.63404 -85.53607 -90.26278 -86.11545 -86.61883 -89.38973 -87.63543 -84.71099 -84.19314 -87.30157 -91.64038 -95.32610 -97.66064 -103.84773 -104.81218 -108.98964 -114.28108 -117.54914 -118.83512 -120.45507 -123.51623 -126.08968 -130.27453 -133.29966 -135.84851 -134.55005 -134.36193 -138.84480 -139.91361 -143.21231 -152.57740 -167.87131 -174.17499 -248.66987 -340.04734 -491.30429 -519.86752 -538.67592 -619.20550 -502.55852 -516.65993 -501.11223 -479.06987 -506.89297 -528.75075 -568.47332 -671.51529 -683.04941 -683.14941
503.78964 503.88964 448.89994 348.35404 254.61756 197.10394 172.49335 244.99343 270.80979 325.51051 385.80210 378.64965 393.15002 391.90821 351.91039 339.14491 322.43576 322.50823 276.57028 269.49322 198.96840 213.10397 222.76336 226.48851 190.29540 166.57742 130.02673 83.56759 75.14572 88.34835 135.90072 121.69041 96.69045 59.72931 19.37843 2.81060 -20.81956 -26.72930 -30.20199 -42.48932 -56.76643 -70.21697 -83.68210 -84.83734 -82.22887 -87.79232 -93.09740 -95.95219 -95.45839 -89.30356 -88.15311 -92.09078 -95.80042 -95.78571 -97.82288 -103.10147 -106.25323 -110.35661 -114.56251 -116.05021 -118.98023 -119.37928 -122.10901 -124.09762 -129.12976 -130.88329 -130.91472 -131.31310 -130.78680 -133.32797 -136.29189 -141.14148 -144.17931 -156.31240 -159.74109 -162.73984 -168.87542 -407.67325 -313.90034 -423.93480 -509.95717 -479.11598 -428.76229 -402.71469 -409.89782 -440.19479 -494.00558 -502.73712 -599.77113 -592.00451 -592.10451
481.60843 481.70843 440.67543 359.46302 277.72251 174.30472 137.77136 154.40047 200.68732 203.50209 263.07316 303.68569 390.20884 417.24987 371.78495 352.44070 330.46882 341.73826 308.47962 293.58992 274.73856 252.74365 243.42874 227.57676 170.03328 115.68071 94.88304 37.27369 44.17154 44.27972 69.51564 101.18358 53.81219 28.46940 3.80963 -8.10736 -31.88897 -32.37422 -39.38951 -43.70562 -58.42576 -71.16697 -79.06128 -80.28805 -73.03249 -82.33481 -86.78985 -93.82609 -96.77596 -96.79529 -97.35518 -97.16906 -99.01566 -100.74999 -100.10603 -104.86573 -110.14306 -113.47748 -114.52482 -115.59879 -115.94152 -116.97201 -119.53101 -122.53081 -123.53707 -128.25255 -128.15429 -128.49150 -130.45718 -133.06500 -137.34985 -140.90652 -146.12668 -148.27761 -156.25813 -158.81902 -161.08293 -170.59335 -175.60895 -270.46664 -236.00647 -347.19064 -350.96620 -385.66422 -382.76810 -417.85756 -439.37411 -468.95038 -517.79758 -527.47652 -527.57652
473.64684 473.74684 405.00893 299.63805 286.70931 132.81719 86.89507 106.54764 112.94438 179.62332 197.89211 224.52494 297.17526 335.68355 341.59307 319.04500 294.58361 309.06643 271.62298 287.46718 269.69672 278.68282 223.29833 182.97702 85.24548 68.63148 70.24549 44.65808 22.64627 28.06622 52.72853 36.69046 8.34746 -15.97930 -25.50887 -35.93265 -38.36429 -48.45176 -56.58308 -67.90952 -69.94999 -65.68831 -76.12817 -80.43805 -73.67495 -76.51166 -86.51160 -92.46926 -97.00604 -99.35596 -100.14240 -103.89032 -105.09845 -102.30531 -105.25608 -109.98760 -114.39346 -115.49665 -114.35982 -114.81228 -114.57635 -117.16290 -118.19126 -119.97330 -122.06618 -124.03321 -126.45269 -128.88609 -131.72552 -134.40485 -137.75719 -139.97697 -143.16368 -147.17860 -151.42001 -152.53329 -157.96396 -166.90440 -172.24443 -178.28065 -178.61572 -227.91595 -289.27328 -319.50997 -348.16842 -359.95596 -435.84696 -463.65703 -490.44850 -500.71428 -500.81428
492.11971 492.21971 409.09773 305.13873 211.26552 139.79590 83.27324 88.79195 50.28604 62.43601 138.14800 164.47441 206.13577 298.82976 281.23735 269.96860 281.69341 244.21106 232.01135 221.59662 268.37683 281.49950 232.03738 169.97414 101.65557 60.75970 65.57051 81.07823 52.78905 14.00948 2.69479 9.74078 2.88875 -28.79354 -49.93706 -35.72259 -40.68099 -54.43809 -59.61730 -67.78576 -65.34457 -64.59298 -60.43540 -61.46621 -72.92104 -74.85552 -79.08991 -87.97355 -94.89865 -98.64861 -95.97841 -98.22355 -104.60034 -106.16382 -105.75805 -110.18564 -113.74073 -114.09554 -114.52102 -115.97062 -116.71808 -117.93245 -120.34789 -121.20435 -121.23504 -123.80511 -125.22921 -127.02381 -130.50132 -132.41116 -136.39426 -137.57822 -141.79344 -143.00706 -147.73274 -151.12699 -152.03896 -159.01211 -165.55320 -173.67412 -173.97824 -200.18450 -217.11170 -266.09297 -278.61819 -345.49156 -410.46310 -477.41801 -504.24819 -534.99119 -535.09119
496.32971 496.42971 513.24191 257.02942 212.66121 150.06829 102.01445 89.56848 47.92167 45.03910 92.40728 127.49018 204.34260 210.67176 197.93555 231.65646 212.85766 172.14768 156.60749 174.43027 225.81154 288.32270 259.46289 221.72357 194.16069 121.67058 86.07088 95.57921 78.56624 48.08163 -13.74137 -10.63396 -24.60589 -21.00221 -32.41949 -28.80823 -33.49076 -39.69124 -46.17933 -57.45809 -56.33311 -53.14362 -53.36124 -52.70001 -57.87633 -66.73114 -75.12350 -76.33035 -86.89651 -92.57186 -92.07211 -97.50074 -102.94078 -108.02719 -109.30453 -108.93733 -111.87023 -111.89301 -115.09398 -115.25037 -118.63610 -118.95856 -119.31310 -121.33088 -121.52083 -123.94776 -126.40813 -126.87570 -127.87290 -130.89977 -132.64155 -136.19009 -137.48029 -142.26276 -143.32758 -148.83550 -149.43400 -152.28438 -160.22471 -164.51296 -169.30769 -168.58415 -191.54713 -207.65811 -257.66925 -327.77636 -389.12119 -484.24125 -556.33706 -644.71063 -644.81063
557.94015 558.04015 448.84607 313.21188 223.18405 185.30165 162.72641 165.54326 30.93570 28.74012 46.03258 87.27186 127.69516 128.64943 129.64043 152.10390 190.85759 149.58314 99.35345 132.44766 206.35622 264.14653 261.97764 261.17943 221.48056 220.95889 159.30672 139.92614 101.81933 42.00929 -0.71752 0.29109 -2.54632 -10.01075 -13.59068 -3.32716 -9.99336 -24.77793 -27.43048 -30.18771 -41.99789 -45.46953 -42.88103 -47.96551 -56.90851 -64.17068 -73.45979 -74.61772 -83.56323 -87.65400 -92.04064 -93.92734 -103.25551 -105.64763 -106.07808 -106.73410 -105.69512 -109.30562 -111.84192 -113.73441 -116.61466 -118.12559 -118.16753 -120.48006 -122.39349 -124.25135 -124.74420 -125.61056 -126.37776 -129.08575 -130.33909 -133.42896 -138.51709 -141.00501 -141.60570 -144.29580 -146.75485 -149.44245 -151.46895 -154.61380 -157.78380 -165.32871 -178.99029 -197.74873 -211.28526 -280.69095 -383.78218 -441.77326 -697.18326 -734.70748 -734.80748
570.72164 570.82164 461.28866 353.80979 293.01477 269.73359 257.51378 212.96354 144.95103 45.84240 16.08594 13.95211 80.03341 80.82622 112.12134 108.73569 81.89402 55.52704 76.14187 96.84702 141.15580 211.78693 237.67666 227.08457 237.11076 232.17250 182.99437 150.34441 114.24362 49.65192 22.23949 14.84118 14.40604 12.69127 11.27955 7.28175 9.11440 -1.20359 -18.37367 -28.05675 -31.66558 -36.94637 -36.21123 -43.71509 -57.36694 -69.66234 -75.13286 -80.58593 -83.77845 -92.30501 -94.20154 -98.54427 -101.08772 -104.31261 -103.25955 -104.63789 -105.27664 -109.04649 -111.75587 -111.87213 -113.36165 -115.50596 -117.45200 -120.10984 -120.80904 -122.37768 -122.72879 -124.29526 -125.91427 -127.12165 -129.12226 -134.06539 -137.35661 -138.01533 -140.43072 -142.20547 -143.64255 -146.28583 -149.43247 -152.03514 -156.95707 -158.94779 -162.22300 -164.83623 -226.31267 -264.05087 -377.12593 -491.41376 -615.46256 -696.58863 -696.68863
523.50677 523.60677 570.34511 437.82785 424.31684 335.75381 288.36417 225.42767 153.83142 90.97348 47.29165 35.17681 46.34531 81.19283 110.14795 100.19243 48.66878 42.97689 69.65581 123.75912 157.46868 190.01018 171.93774 195.90993 226.76961 216.65620 183.44933 169.78463 121.64689 89.73682 38.00046 32.53614 29.83198 18.79494 23.37952 26.92783 23.73898 9.34051 -8.09915 -22.76022 -33.62425 -32.02983 -29.70550 -41.57933 -53.72216 -64.85574 -76.48752 -78.38239 -82.76419 -87.37161 -95.79258 -98.37071 -102.16489 -102.23593 -103.55325 -104.65654 -107.73075 -108.58584 -111.42866 -111.81174 -113.21260 -115.09052 -117.04440 -118.16989 -120.19600 -120.82109 -121.18319 -123.29468 -126.17169 -127.70629 -128.98332 -131.50699 -135.10828 -136.80988 -140.11120 -141.52090 -143.89613 -144.67524 -147.87580 -148.92602 -153.04140 -152.58182 -151.12842 -161.02083 -167.26147 -222.21448 -364.91807 -395.55635 -579.56698 -610.79246 -610.89246
635.86659 635.96659 661.87007 563.69696 510.48835 362.33085 337.16550 247.49588 169.24536 119.07669 98.11738 68.30717 40.91111 78.62409 85.52333 65.73088 29.49445 18.97549 52.77546 83.67396 134.52935 151.09765 154.95078 161.05076 198.83619 203.01236 194.78815 168.61461 137.65096 84.91021 39.08230 39.35310 35.05352 34.82325 31.27690 28.31145 21.84250 9.29394 -6.20948 -17.28425 -29.98713 -30.16181 -28.05069 -37.01812 -51.07115 -62.12022 -66.48321 -78.96614 -78.94155 -85.69723 -91.03089 -97.99700 -99.81465 -102.27042 -103.40111 -105.12204 -107.39711 -109.16731 -109.84868 -112.99160 -114.82681 -115.20336 -116.81185 -118.21386 -119.22869 -120.40036 -120.57796 -123.00262 -125.91395 -128.39084 -128.77593 -129.78769 -131.59332 -136.16931 -139.82226 -139.86246 -140.51775 -143.78092 -146.31983 -148.16901 -146.74210 -144.61777 -139.22606 -149.84409 -154.75153 -162.15985 -243.59755 -294.04742 -345.96678 -494.78113 -494.88113
775.97162 776.07162 695.89738 630.04199 554.34479 431.47027 335.81800 270.96082 163.54946 110.44526 98.77234 64.66629 28.43920 27.21831 27.21240 28.13874 -13.79542 -8.65724 -2.72504 54.82422 100.32891 87.89600 132.53140 152.34216 176.03960 175.19569 171.02317 149.84873 108.75423 86.49911 36.12079 28.80800 36.38542 24.03141 16.66518 -3.71425 -10.54863 -5.10256 -11.73299 -23.92425 -31.59243 -31.51619 -26.47834 -35.27893 -44.16305 -54.50134 -65.98146 -78.84231 -81.61056 -84.38335 -91.42765 -95.92536 -97.86252 -101.40093 -103.20590 -104.60274 -105.60608 -106.70499 -108.57299 -111.76775 -114.72102 -116.70785 -117.41207 -118.65470 -120.08398 -121.03643 -121.25389 -122.51653 -125.54173 -128.27893 -130.15344 -130.60872 -132.47978 -135.05660 -138.22172 -138.94035 -138.78442 -140.99808 -141.49394 -141.94520 -141.21657 -142.23679 -129.75857 -131.42416 -136.41165 -150.65595 -159.57544 -199.93434 -329.20093 -346.05667 -346.15667
728.98706 729.08706 717.94251 547.39080 552.97159 375.38114 325.52745 192.89308 132.74267 46.89138 54.82013 29.59493 7.39313 -1.88923 1.54384 -5.54199 -9.37686 -14.85970 -8.72609 -4.89760 11.52944 69.06083 81.13147 122.35788 156.55406 164.62165 148.02851 126.14956 83.97945 47.55810 21.84231 21.91422 14.90491 -0.91425 -15.02854 -13.08971 -23.69875 -20.97218 -28.38317 -30.99733 -37.67658 -33.42287 -27.91024 -29.23468 -35.20507 -48.06300 -58.81520 -69.81986 -80.05842 -85.60233 -91.68752 -93.06597 -97.83631 -101.11630 -102.30982 -104.11826 -105.16229 -108.33955 -109.51981 -112.73805 -114.74180 -117.31376 -117.97108 -119.32167 -120.20252 -121.25862 -122.56981 -124.13491 -125.16658 -128.62355 -129.68867 -131.36272 -133.12627 -135.71832 -137.51222 -138.10916 -138.87260 -138.06232 -138.15968 -136.43815 -132.33861 -121.40314 -122.42576 -116.67344 -130.28600 -137.93720 -154.06998 -163.71673 -221.68768 -178.47806 -178.57806
643.95262 644.05262 594.24355 490.57575 418.34647 359.86921 252.51725 161.32580 127.14176 75.39082 35.43465 24.73855 16.59270 24.34156 28.70781 24.21619 -0.69756 -13.28873 -18.41758 -12.65847 7.70528 27.59007 71.56261 83.99769 109.71527 137.86441 140.93570 114.22987 70.21262 33.07630 15.27462 -0.69979 2.45244 3.79600 4.11783 -8.48974 -11.93567 -24.70673 -27.79511 -29.47938 -36.21715 -31.70850 -28.44976 -27.72249 -30.85034 -38.97736 -56.90593 -65.97418 -73.06938 -81.47014 -86.74175 -89.16393 -96.31188 -100.96348 -102.78953 -104.46042 -106.45072 -110.51511 -113.05986 -114.37261 -116.69064 -117.48312 -118.47658 -119.53827 -120.06576 -121.36636 -122.92897 -124.25172 -125.73950 -127.28855 -129.32843 -130.40871 -132.08547 -135.59659 -135.96960 -136.45625 -136.59628 -135.39489 -134.26840 -130.76804 -127.78627 -118.64840 -110.36391 -109.65759 -117.83372 -136.62036 -147.03851 -149.13757 -163.57218 -158.42632 -158.52632
496.48816 496.58816 438.81813 419.05837 337.78285 285.58755 214.47995 220.63123 172.87920 151.16290 112.28592 60.17207 55.63677 69.03747 81.59341 48.07036 11.26665 0.35743 -15.79086 -19.05790 -14.36642 -12.90567 26.03315 46.03662 79.02598 91.56549 112.21611 92.97745 65.63657 20.70440 17.72280 0.00350 17.17642 36.69980 37.87985 32.00431 11.69710 -19.62501 -16.55307 -20.31904 -25.02128 -36.39720 -34.96107 -30.85289 -29.00320 -31.16569 -46.92952 -58.34735 -68.25866 -79.97239 -81.08941 -85.83160 -89.19949 -97.47704 -102.69621 -105.92771 -108.11909 -111.39834 -112.59770 -113.93422 -115.13465 -117.39566 -117.65415 -118.98479 -119.54040 -119.47364 -121.38744 -122.15288 -123.62601 -124.37006 -127.03117 -127.98580 -130.55749 -130.27532 -132.39282 -133.12523 -134.03178 -134.07713 -133.85949 -129.95074 -120.59733 -113.92985 -111.15787 -110.37693 -109.15450 -131.68410 -138.17021 -146.10955 -152.22040 -155.94364 -156.04364
372.26180 372.36180 417.15078 335.13277 336.06928 301.20181 285.65106 271.50833 264.63406 240.07445 198.86590 138.29315 146.74715 116.15705 121.96017 86.86443 31.49569 3.01568 -0.27439 -16.40263 -21.71948 -17.31491 -5.17274 30.78608 43.11167 65.02787 83.50201 90.76497 75.13667 47.26762 25.39304 26.85700 42.63191 68.68421 61.95565 37.94326 21.24371 12.24891 -4.90080 -21.53999 -28.07698 -38.39159 -47.13897 -35.29446 -25.11865 -27.70553 -35.23313 -49.06423 -68.79985 -75.51876 -76.61036 -80.86631 -88.36811 -95.13683 -100.49046 -103.81251 -106.62681 -110.73989 -110.16165 -110.25649 -111.84506 -114.57066 -116.77589 -117.78297 -118.13620 -118.03285 -120.26181 -120.95483 -122.34416 -122.43815 -124.35086 -125.28809 -125.71952 -126.01595 -129.38876 -130.77810 -131.83216 -131.79677 -130.22029 -126.81256 -118.24211 -116.56759 -112.10831 -109.75792 -109.48396 -112.35738 -128.25687 -140.40949 -150.09977 -152.24554 -152.34554
400.95459 401.05459 326.32854 303.93959 320.41577 335.14749 372.03948 342.07802 308.02129 249.23611 240.82012 245.82465 251.17240 228.25662 196.69822 124.86480 85.15494 37.17214 12.93864 -6.29795 -22.49871 -19.15795 -8.32973 -1.27745 28.80012 63.07729 85.24317 92.50413 85.82955 63.41259 55.69963 52.05967 69.72346 77.30831 68.26100 43.80055 20.38107 8.21424 -0.55792 -27.06324 -36.10516 -41.80396 -42.22234 -38.77412 -24.78464 -26.14451 -27.38316 -40.92293 -56.21578 -65.42796 -66.64881 -77.97036 -85.67571 -93.91551 -97.98104 -98.16772 -102.86591 -106.81193 -106.86515 -107.49879 -110.62218 -112.35293 -113.69881 -114.24617 -112.32135 -115.00919 -115.71166 -117.96513 -119.26720 -121.36787 -121.42650 -123.09250 -124.63963 -125.76459 -127.09718 -129.44704 -130.49447 -128.87431 -126.39129 -124.06427 -119.23317 -117.72553 -114.40082 -109.69582 -108.15793 -112.00740 -123.41027 -128.45152 -141.10228 -140.43690 -140.53690
382.51146 382.61146 324.60878 294.14962 277.99216 313.55802 336.18505 342.28225 316.14840 311.31619 315.83243 283.66232 345.55917 292.69179 206.83148 170.47005 98.01632 46.29554 33.80573 -1.36090 -25.35537 -23.40911 -24.28349 8.12100 27.45242 56.64348 68.04873 75.89742 78.16540 76.34482 61.23525 59.65479 68.34725 80.36255 55.44649 31.57240 5.49950 0.91961 -16.43541 -35.99785 -45.01859 -46.68519 -51.74830 -48.31345 -27.90863 -24.24405 -24.83033 -30.59331 -45.04435 -52.48650 -61.94004 -69.79199 -80.12433 -88.92171 -93.00133 -96.41606 -98.09541 -101.69501 -103.98148 -105.85385 -108.19406 -111.48862 -111.25731 -110.23757 -110.61868 -110.04403 -109.83473 -114.46706 -117.31130 -117.87197 -117.50363 -119.20755 -121.36659 -123.71452 -125.90963 -126.90500 -127.51281 -127.81345 -125.16632 -122.32158 -120.38778 -117.60077 -112.75694 -110.48944 -108.60141 -112.41249 -119.86694 -124.62300 -124.20931 -130.90000 -131.00000
306.36064 306.46064 319.42315 228.52877 240.95105 265.42283 274.57593 337.59849 338.52308 324.30183 319.18091 322.75466 316.90112 307.91859 262.82905 191.83160 152.37063 91.30881 58.51083 -3.24446 -21.14423 -22.93028 -26.22339 -9.94379 31.40397 48.84988 50.43386 50.09605 54.20891 62.68895 63.71957 60.59641 54.90362 53.50790 34.73134 16.71197 -0.07900 -15.85480 -28.09976 -40.64314 -52.97301 -57.77236 -53.42513 -45.21554 -36.27641 -31.72109 -31.19869 -32.46608 -37.67450 -45.00758 -56.30867 -70.94498 -81.55781 -83.95321 -87.00032 -92.98366 -96.33342 -97.08678 -100.27764 -104.93083 -104.90688 -104.05957 -107.39211 -106.86782 -105.78790 -105.26719 -107.51248 -108.51860 -111.17739 -115.09593 -115.54123 -116.95618 -119.89518 -121.97743 -123.84659 -125.00968 -125.92716 -126.36233 -125.32245 -123.59510 -122.74352 -119.28719 -117.12289 -110.28928 -109.71480 -112.34551 -119.35829 -119.24573 -122.73434 -115.08201 -115.18201
274.46660 274.56660 239.70648 216.07989 231.80658 239.13064 257.98099 279.56797 311.11943 307.57252 310.00060 307.50222 308.10480 295.32905 291.40458 246.41110 158.18884 128.45896 72.29408 35.65443 -12.31984 -21.19893 -25.01683 -22.49308 8.21054 40.77056 35.63884 20.65248 20.81135 27.41159 50.46710 50.21804 44.69618 33.68308 1.96833 0.04705 -12.37437 -27.27830 -34.55509 -42.05935 -56.12249 -62.58195 -58.57769 -47.86506 -47.01571 -41.97615 -39.97208 -39.20783 -40.17743 -45.15633 -50.89684 -63.82541 -74.30973 -76.71983 -85.53397 -88.21236 -90.46116 -93.55310 -97.23388 -96.80603 -98.93919 -98.47586 -101.31584 -101.57399 -102.07527 -102.86179 -103.19405 -106.14196 -108.11183 -110.79030 -111.79835 -115.21361 -118.79795 -120.90516 -121.86182 -124.21164 -125.29418 -125.17767 -125.99200 -125.99555 -126.31226 -123.98975 -122.03466 -116.67352 -113.04433 -109.85140 -111.64680 -110.35043 -110.03291 -109.93519 -110.03519
269.31710 269.41710 230.88717 202.99209 225.29171 230.96181 213.07208 256.88732 283.26469 297.54884 283.74740 269.12149 273.54082 276.86063 298.00597 261.15434 200.89934 126.65672 108.66127 40.92377 6.53173 -14.76197 -20.63579 -23.87204 3.79727 10.79407 18.50377 -3.45756 4.89851 10.13425 12.76062 21.01080 17.10600 2.11192 -5.90524 -9.06380 -21.08381 -36.99272 -41.61740 -49.90640 -59.84345 -62.48950 -62.97584 -54.60373 -50.66129 -53.09115 -50.83568 -52.78147 -54.83534 -57.44369 -55.26748 -64.99656 -63.59479 -72.38273 -73.95229 -82.86515 -88.66356 -88.17227 -85.97323 -86.49549 -95.20734 -95.07305 -97.44282 -97.10739 -98.62319 -99.48087 -101.87775 -103.56680 -104.54902 -106.68626 -110.67747 -114.78194 -117.06436 -119.37510 -120.62454 -123.34567 -124.97055 -125.80019 -127.07620 -128.07110 -128.02480 -127.34900 -125.16971 -122.22298 -114.75658 -109.84305 -109.06516 -108.38150 -110.18440 -113.96813 -114.06813
245.23934 245.33934 211.75654 200.03130 222.93359 211.44503 207.77197 221.41633 253.84572 265.53461 245.07867 228.34778 239.97845 266.39890 294.56156 270.75851 209.33460 139.78991 106.86074 42.32055 12.49802 1.38359 -18.63723 -22.44256 -16.21032 -7.71209 -9.29349 -16.53597 -19.05362 -13.57700 -10.60384 -3.54841 -2.39997 -4.93318 -10.82907 -11.98304 -22.72949 -33.32944 -45.41366 -48.01295 -55.80290 -57.00095 -63.46171 -63.63600 -62.26361 -62.38990 -66.19782 -68.26738 -68.84048 -62.88734 -62.47012 -66.22588 -66.64944 -65.73916 -70.08761 -72.26030 -78.49944 -79.28842 -82.07548 -85.78204 -88.51502 -93.05591 -93.46749 -95.38424 -96.18760 -98.63698 -101.09279 -103.15078 -104.40786 -106.77774 -108.09190 -112.65950 -116.28929 -117.90068 -120.15074 -123.22653 -125.61158 -127.91620 -129.83308 -130.60258 -131.46386 -129.35556 -128.43760 -128.89293 -115.09535 -110.61718 -111.36162 -111.24662 -118.13433 -118.22588 -118.32588
248.64185 248.74185 212.07381 185.91697 193.10324 187.09815 190.46252 218.68121 230.83442 241.82830 219.44489 198.56801 194.48485 215.02806 249.33082 251.60466 231.26489 189.34533 141.67542 62.31555 38.17061 0.30479 -16.03348 -23.06786 -23.25932 -19.12948 -20.60201 -28.34574 -26.29147 -18.10497 -9.07884 -8.01068 -6.27835 -9.53312 -13.58830 -16.25673 -15.00143 -30.52292 -35.03746 -42.03517 -44.06169 -51.71055 -51.25321 -60.25055 -58.59493 -65.29231 -66.62449 -70.54787 -77.23580 -75.54307 -75.58673 -78.52536 -74.88711 -68.24354 -69.30089 -70.10300 -71.73806 -75.70804 -80.09955 -82.39261 -87.30809 -92.39314 -95.03394 -99.07278 -98.06600 -101.89732 -103.89724 -102.61870 -103.14621 -104.58805 -106.81368 -110.98237 -115.53429 -118.06161 -119.78235 -123.36553 -126.03841 -129.08452 -130.34933 -133.13915 -133.45820 -132.67832 -130.77656 -130.30475 -125.10852 -118.50457 -115.21251 -116.13177 -120.69605 -122.17107 -122.27107
260.99375 261.09375 253.98873 172.73424 165.88338 166.28693 185.50828 219.86778 237.51230 242.08169 228.48125 216.84344 191.82310 194.76634 210.34473 243.37188 220.16001 208.11261 164.93416 91.80045 2.99383 -13.62099 -17.51246 -28.15381 -26.36297 -29.84294 -26.58841 -30.18561 -28.33387 -19.46802 -15.28754 -10.29366 -15.56446 -15.55030 -12.95914 -15.23560 -15.61398 -20.79676 -26.35450 -31.51283 -32.75300 -36.93796 -46.59034 -47.28970 -52.73621 -54.19255 -54.42316 -61.70821 -74.60878 -79.61140 -80.73018 -82.39077 -85.00706 -82.11215 -75.51674 -75.62286 -78.94657 -76.99329 -83.64350 -88.51942 -97.56447 -101.72198 -102.91869 -103.75349 -107.24231 -106.48414 -107.35270 -106.20811 -102.78125 -104.32984 -106.53930 -111.66527 -115.29670 -117.68159 -119.14273 -122.83295 -126.99164 -129.75743 -133.49986 -135.09614 -134.83520 -135.09739 -133.64278 -133.90037 -128.21843 -121.83089 -117.86514 -121.52288 -121.22795 -127.87531 -127.97531
249.08758 249.18758 226.32896 190.86744 171.22330 164.57317 185.31891 194.38061 241.95471 244.29719 241.43944 220.17217 183.91673 184.67215 201.46339 211.03265 219.12534 211.79894 171.00223 91.76245 9.31325 -3.42152 -20.56614 -21.70535 -22.36717 -22.40098 -23.57406 -29.11892 -29.70659 -27.56996 -23.21639 -20.18726 -22.30894 -21.73535 -16.98567 -13.16766 -13.86037 -14.53162 -20.61077 -23.49167 -22.64857 -35.75990 -36.50720 -39.66631 -43.15902 -43.28592 -48.09134 -53.89964 -63.94968 -70.47829 -75.94033 -77.23605 -84.01725 -92.53057 -88.42758 -89.66373 -92.22263 -88.54779 -89.97566 -97.32902 -101.09317 -103.51206 -102.35905 -107.55110 -107.31271 -111.59906 -111.37958 -107.41217 -103.67536 -104.78443 -108.57515 -112.78931 -115.97310 -117.66105 -120.94962 -125.73138 -128.21929 -132.25952 -134.96103 -136.55598 -138.75824 -139.23063 -137.53372 -135.19922 -133.44819 -132.07654 -128.25628 -126.10646 -134.36099 -137.61189 -137.71189
241.03000 241.13000 221.08344 185.42702 181.00134 160.55226 170.44801 198.25378 219.14991 234.02773 240.06659 212.16339 179.98626 172.20357 189.45483 199.43678 194.65814 165.99840 138.14648 79.88647 19.41514 0.91786 -1.86198 9.50992 6.64740 -10.08419 -19.30143 -23.46412 -28.62501 -29.60805 -28.50169 -25.86668 -24.28259 -23.14741 -17.53374 -11.48831 -12.55219 -13.84545 -11.92140 -11.69841 -14.20755 -23.67424 -31.49291 -35.39297 -41.38293 -38.93927 -46.52155 -56.08792 -58.89933 -65.61141 -61.93138 -67.96968 -74.60822 -89.05703 -88.95432 -93.54205 -94.46309 -94.52587 -95.25045 -97.93555 -97.06295 -100.76149 -98.16570 -99.65955 -97.78907 -104.00854 -112.52208 -113.35242 -107.58887 -107.64698 -111.07836 -112.97544 -116.06649 -121.00784 -124.64548 -127.61791 -129.10739 -134.80734 -136.56327 -139.94196 -140.28681 -140.47898 -140.71839 -141.03284 -141.76194 -139.42298 -134.60267 -136.50352 -139.31840 -146.29861 -146.39861
226.16197 226.26197 208.59556 186.33197 183.87252 162.67773 171.47626 185.63750 228.13613 222.95875 218.41136 168.04860 164.19055 179.77580 189.46666 215.00835 209.77277 195.79515 132.67028 68.81790 19.49604 10.67635 22.45323 28.63837 30.11973 17.09477 -10.43746 -18.06711 -22.66758 -21.29231 -21.71657 -25.24410 -23.71347 -26.43632 -24.65272 -23.61893 -19.29803 -17.39156 -11.00414 -9.22592 -8.79148 -19.67905 -23.08004 -33.92781 -39.63597 -43.44527 -48.24620 -51.47928 -56.77039 -58.79235 -59.41178 -60.35081 -70.00009 -75.89955 -82.75882 -86.55389 -91.75288 -96.80355 -89.56188 -92.39754 -90.42121 -90.90700 -90.36299 -93.95010 -95.45168 -103.37758 -114.56565 -116.60694 -114.23399 -111.95275 -111.93011 -112.32876 -121.78201 -121.97683 -126.37115 -128.48100 -133.51904 -135.30921 -140.28333 -140.86210 -143.35082 -144.30474 -145.22641 -146.43664 -148.46897 -147.36154 -149.86590 -147.89210 -152.01832 -154.62855 -154.72855
222.10351 222.20351 208.21712 181.18747 173.08992 162.90858 169.43661 184.00668 203.84205 209.58655 189.84352 169.08779 168.41368 177.32806 199.78626 225.08362 239.38614 211.81317 153.14889 95.51431 51.32443 49.92433 82.63443 68.30726 48.08033 25.31814 -4.67011 -9.04962 8.77515 -13.28053 -14.20060 -16.29775 -17.86051 -24.94311 -27.59222 -29.83492 -30.46420 -26.98883 -15.66092 -11.93815 -15.07359 -19.33237 -30.13388 -35.98072 -44.66986 -48.13078 -48.98099 -54.72704 -59.91477 -56.62671 -59.40413 -61.53367 -67.92903 -72.03451 -74.11078 -78.05714 -83.13593 -85.90888 -85.90811 -81.48582 -86.71049 -88.39368 -92.83696 -94.29366 -97.09177 -103.62216 -111.31043 -119.43493 -115.12442 -115.32155 -117.53071 -123.87342 -123.73504 -125.68674 -129.40243 -131.20764 -135.84533 -138.78667 -141.56535 -143.56562 -146.59691 -148.10022 -147.68906 -147.29289 -149.72022 -153.10453 -153.04307 -158.00701 -160.06478 -170.02498 -170.12498
220.71873 220.81873 202.63240 178.97130 171.13687 162.85070 160.86805 176.09868 192.62554 190.55226 174.38491 166.64608 160.26852 176.65182 205.97068 221.49343 249.57240 225.39814 178.08316 125.93108 102.01632 86.74084 101.44802 109.94311 62.47057 37.99214 30.58725 36.15187 25.87883 16.92454 2.38377 -15.26102 -23.37919 -26.04390 -28.15410 -29.84213 -37.08734 -32.70489 -30.79299 -22.87864 -20.92227 -26.54624 -27.82257 -37.95632 -52.58405 -57.17940 -60.10109 -62.80763 -63.29460 -64.55627 -64.45464 -67.37348 -71.68286 -74.62731 -77.18365 -75.39619 -76.42298 -78.64019 -80.60078 -81.28654 -89.56594 -95.17566 -94.39739 -97.47077 -98.59685 -105.16633 -112.77092 -118.95076 -119.52155 -121.11796 -123.17741 -126.92277 -129.21244 -129.62947 -131.11684 -136.84404 -139.30740 -139.79548 -143.99606 -145.71818 -149.44309 -150.56664 -150.89170 -150.52579 -158.22519 -159.84219 -165.97142 -165.28696 -179.64367 -194.78604 -194.88604
236.50482 236.60482 207.34638 175.61065 169.26385 159.18426 158.87856 158.56261 164.51840 166.28561 166.82984 161.01195 163.28777 164.78400 178.82088 196.15549 232.88639 220.01092 177.30363 177.45937 195.40965 170.72173 202.64143 162.75835 66.69035 68.01906 68.19596 81.61648 60.33816 38.33053 11.47058 -3.41779 -21.80234 -24.93448 -22.03867 -24.11919 -34.89826 -37.28428 -40.27000 -35.95391 -34.82547 -36.91423 -37.75643 -45.49455 -55.32794 -63.02577 -70.25879 -70.16648 -75.76329 -73.68311 -70.85345 -78.24622 -77.51236 -82.76493 -82.96509 -78.72217 -80.23559 -79.11266 -84.50247 -90.26814 -94.41613 -98.98737 -101.20283 -101.97548 -103.74489 -106.91610 -111.23937 -117.94184 -121.14150 -121.83637 -125.13555 -127.38440 -131.02840 -132.74987 -136.55385 -138.89187 -141.56356 -145.75814 -147.00303 -148.31661 -151.76383 -153.42572 -154.83221 -156.53942 -163.78000 -166.84179 -169.24944 -195.37442 -241.79260 -256.50697 -256.60697
249.80910 249.90910 210.25409 169.37767 171.08545 167.90748 164.84386 158.99857 158.24315 158.28367 158.66480 160.86003 165.79589 172.47083 177.97610 195.01963 213.18510 204.11932 174.21304 179.12284 209.45523 219.33127 208.52615 173.09188 132.19939 115.94119 108.95134 125.84985 83.84756 64.68044 38.36657 -3.93042 -3.31217 -18.77287 -1.88053 -4.78958 -25.32506 -35.65536 -40.88890 -39.71235 -43.16576 -45.21336 -44.05816 -50.88807 -59.05009 -63.74322 -66.75139 -63.16988 -74.85351 -77.46948 -75.70572 -75.01269 -77.68547 -82.47593 -84.19411 -82.14571 -85.08747 -88.40302 -88.86025 -93.12663 -100.42033 -103.42875 -105.92458 -106.97587 -108.41185 -108.53307 -111.57130 -116.14754 -120.49452 -123.65032 -124.04380 -126.71119 -132.27512 -133.09656 -136.39982 -142.95919 -144.54588 -146.43873 -150.55004 -151.87844 -155.07451 -156.71074 -156.68665 -161.13316 -164.73230 -168.70202 -203.84927 -233.83679 -293.45020 -325.35090 -325.45090
242.04158 242.14158 203.89228 201.37712 196.66261 186.99679 186.40851 167.56088 158.89758 158.09322 159.92613 160.21733 166.97341 170.71729 184.09356 184.79345 201.68893 221.97885 201.99405 205.96042 253.90390 270.64414 251.85227 242.70474 166.78522 166.65502 171.72541 171.74684 174.89082 104.36839 82.96827 41.74238 40.13765 66.34036 32.89012 30.70294 0.98660 -0.30343 -22.20340 -29.59691 -18.43258 -37.48385 -40.29687 -44.98667 -55.68698 -47.07821 -46.52169 -46.84718 -48.64356 -63.40514 -66.37835 -64.90832 -69.35776 -78.63187 -83.17488 -85.22022 -87.28099 -89.79700 -93.46347 -92.61842 -99.01452 -97.46304 -94.09928 -104.47621 -107.85282 -112.22352 -114.32753 -117.76713 -122.30202 -125.24480 -125.37826 -131.20891 -131.56010 -133.35137 -141.06577 -146.72228 -146.72534 -153.21798 -154.66778 -156.91253 -160.59074 -160.73875 -165.39412 -166.71520 -166.82949 -175.69785 -232.53579 -288.10050 -347.03890 -379.83616 -379.93616
272.86211 272.96211 214.93382 234.68202 218.95434 211.80883 186.35233 161.08764 157.92397 158.09244 159.57705 162.20871 166.71851 170.20638 173.90692 181.41271 198.52059 226.44587 239.11978 240.46324 266.68493 278.48313 298.14044 255.50765 207.34281 206.18783 209.49048 209.72025 163.01147 156.86133 118.46818 94.13267 76.92318 61.36247 62.79734 43.59318 28.75427 14.91967 -12.70841 -16.39589 -17.08213 -22.37910 -27.46945 -65.68668 -33.22965 -33.81325 -35.21433 -38.70506 -51.02814 -55.20977 -59.97778 -65.58254 -70.87014 -72.26499 -73.52382 -89.27054 -91.18859 -79.76525 -83.48849 -102.21011 -88.18365 -89.76271 -94.33438 -98.10338 -106.04444 -114.75008 -114.82950 -118.58749 -121.94508 -126.52135 -127.95256 -129.52981 -136.83987 -137.29738 -138.63420 -148.27293 -148.29981 -153.53068 -157.69392 -161.80097 -165.91495 -163.47085 -164.13910 -169.09225 -170.09579 -171.15149 -187.72944 -357.28585 -395.80541 -413.11193 -413.21193
272.86211 272.86211 214.83382 234.58202 218.85434 211.70883 186.25233 160.98764 157.82397 157.99244 159.47705 162.10871 166.61851 170.10638 173.80692 181.31271 198.42059 226.34587 239.01978 240.36324 266.58493 278.38313 298.04044 255.40765 207.24281 206.08783 209.39048 209.62025 162.91147 156.76133 118.36818 94.03267 76.82318 61.26247 62.69734 43.49318 28.65427 14.81967 -12.80841 -16.49589 -17.18213 -22.47910 -27.56945 -65.78668 -33.32965 -33.91325 -35.31433 -38.80506 -51.12814 -55.30977 -60.07778 -65.68254 -70.97014 -72.36499 -73.62382 -89.37054 -91.28859 -79.86525 -83.58849 -102.31011 -88.28365 -89.86271 -94.43438 -98.20338 -106.14444 -114.85008 -114.92950 -118.68749 -122.04508 -126.62135 -128.05256 -129.62981 -136.93987 -137.39738 -138.73420 -148.37293 -148.39981 -153.63068 -157.79392 -161.90097 -166.01495 -163.57085 -164.23910 -169.19225 -170.19579 -171.25149 -187.82944 -357.38585 -395.90541 -413.21193 -413.21193
