41.52854 41.52854 54.73443 29.13468 51.94433 55.16435 50.49980 26.75966 -11.29104 -2.02198 2.70693 -0.83180 -1.57143 -37.01924 -48.72940 11.91894 -29.28684 -125.85044 -533.18769 -674.70783 -743.07851 -651.44982 -819.13690 -869.44644 -827.38700 -954.31563 -959.81292 -959.09946 -925.88937 -852.51744 -840.01265 -905.87455 -1016.09269 -1106.57117 -1173.65034 -1359.75718 -1418.04618 -1465.50095 -1513.96119 -1516.38596 -1477.89959 -1471.95653 -1427.63785 -1430.80704 -1468.27957 -1500.62890 -1556.67100 -1564.84278 -1557.71697 -1560.98949 -1564.49206 -1560.95899 -1660.22569 -1752.11697 -1668.30124 -1781.10512 -1924.85893 -2041.45472 -2076.12113 -1961.84415 -1888.30707 -1906.93267 -1855.43009 -1865.46887 -2011.64467 -2071.46326 -2125.27937 -2067.63605 -2135.75853 -2203.68840 -2268.65509 -2407.93063 -2433.94574 -2393.36327 -2487.40444 -2523.89103 -2506.27198 -2535.13959 -2536.28592 -2538.26878 -2541.82454 -2555.67595 -2553.79465 -2525.42759 -2498.85872 -2456.55853 -2456.74596 -2464.64333 -2449.74128 -2438.99310 -2435.73831
41.52854 59.00506 46.70118 38.16793 45.30613 50.48524 32.78794 14.57609 1.89252 -1.61165 -1.70133 -6.60959 -12.88737 -24.70331 -36.46635 -66.26962 -144.95818 -261.12952 -396.90861 -535.55822 -639.06837 -706.84551 -762.74121 -815.84382 -869.19654 -911.50608 -935.40950 -932.07146 -905.54345 -885.69753 -919.37762 -999.24259 -1093.11063 -1170.62856 -1235.18595 -1297.22156 -1357.38387 -1411.19241 -1462.32680 -1489.10638 -1483.25298 -1457.96293 -1444.46933 -1461.80081 -1493.29458 -1518.80960 -1537.49030 -1550.91654 -1563.42335 -1569.62973 -1578.76997 -1593.54789 -1626.63679 -1689.12688 -1774.50199 -1881.20273 -1981.80035 -2039.24176 -2037.52880 -1999.43647 -1943.62177 -1895.37239 -1884.31211 -1913.69414 -1962.41940 -2016.69133 -2070.73535 -2132.10374 -2197.07143 -2258.88433 -2314.58027 -2361.00545 -2397.22559 -2424.21033 -2455.55739 -2489.47421 -2520.39684 -2535.02170 -2535.40381 -2536.58630 -2541.69223 -2542.05992 -2528.94389 -2504.59312 -2484.25866 -2470.15860 -2463.20228 -2459.17598 -2454.20863 -2446.35087 -2438.99310
61.15382 75.98158 61.85594 50.62226 38.98803 42.11653 30.21770 9.79485 0.12787 -0.19889 -1.78190 -3.36469 -14.73490 -16.06692 -41.75021 -80.58779 -106.63148 -173.44047 -397.74937 -506.68001 -554.89167 -600.98758 -640.94714 -815.91708 -835.63209 -861.11252 -927.43066 -910.97131 -898.05810 -901.37494 -959.84300 -968.93890 -1088.32179 -1188.79284 -1226.79617 -1296.67288 -1385.33773 -1420.32084 -1455.19344 -1491.25368 -1490.70787 -1453.14921 -1452.66767 -1465.94885 -1460.44222 -1475.65506 -1498.58103 -1500.09458 -1561.57800 -1533.47471 -1537.78179 -1564.94280 -1578.80386 -1695.82975 -1784.81192 -1853.96233 -1969.16019 -1987.42003 -1987.26030 -1931.23333 -1924.94128 -1906.26483 -1851.29742 -1858.16174 -1964.04398 -2016.62458 -2020.97337 -2052.67706 -2187.44688 -2219.66397 -2273.40038 -2328.91935 -2394.52061 -2397.76636 -2428.51286 -2488.59723 -2505.72645 -2517.34369 -2526.71123 -2527.17371 -2540.30443 -2539.71051 -2534.71147 -2505.76947 -2508.89467 -2507.57988 -2464.06046 -2494.71092 -2505.51440 -2509.51798 -2470.82856
76.96335 90.30935 73.93080 53.69695 48.17052 33.48354 20.77259 9.12701 2.32883 -0.84730 -1.24840 -3.45371 -8.12965 -14.31327 -22.17161 -53.20843 -89.32349 -144.57352 -233.26583 -359.47816 -381.10887 -486.48837 -534.43523 -625.44864 -751.97969 -790.60109 -833.45300 -900.99723 -892.81604 -910.39056 -947.10981 -1014.57855 -1132.28604 -1201.89219 -1235.70507 -1310.07823 -1370.64367 -1414.08441 -1459.01467 -1486.91285 -1481.11331 -1463.69004 -1439.96427 -1418.40590 -1427.33956 -1419.85363 -1437.93471 -1436.86702 -1437.11804 -1477.96428 -1487.35713 -1530.82162 -1558.18378 -1593.66012 -1694.78545 -1758.74552 -1806.41898 -1893.62561 -1875.61890 -1886.00968 -1842.98129 -1791.80450 -1799.03104 -1793.10657 -1837.93748 -1899.60041 -1949.63603 -2026.69734 -2064.27637 -2137.67766 -2232.04801 -2259.48551 -2277.37065 -2335.23606 -2362.03427 -2381.11426 -2497.50532 -2491.89742 -2495.01644 -2497.82335 -2513.28915 -2528.49654 -2538.34143 -2547.60422 -2539.32208 -2552.93299 -2554.69778 -2553.69483 -2533.90091 -2548.70741 -2539.70972
115.50133 103.15534 104.79524 67.84589 46.74915 43.52144 28.14437 19.08070 3.00804 1.47036 -1.45634 -3.69971 -6.23796 -12.07132 -17.17854 -36.16428 -58.33795 -119.96360 -222.97284 -232.53635 -355.56131 -384.57753 -439.54280 -515.87160 -649.01025 -739.61414 -809.59036 -844.91081 -876.33275 -902.68318 -931.62042 -1023.77083 -1136.77521 -1202.75897 -1241.02794 -1299.31759 -1347.90478 -1406.69913 -1435.78416 -1475.58744 -1475.94145 -1442.23255 -1412.78686 -1399.43410 -1375.80493 -1412.29418 -1388.65539 -1385.11849 -1398.88406 -1437.29029 -1444.40746 -1503.00766 -1536.09967 -1573.44147 -1613.22319 -1692.13604 -1799.89202 -1790.66729 -1853.98988 -1826.54757 -1780.81813 -1766.14587 -1772.75446 -1787.00378 -1776.54146 -1809.25912 -1932.03343 -2026.82747 -2029.05008 -2124.89608 -2148.24667 -2171.93885 -2199.88192 -2234.66179 -2286.48164 -2327.71051 -2392.98452 -2433.20642 -2480.48379 -2489.03024 -2502.40531 -2515.69611 -2534.62343 -2543.59227 -2547.04768 -2556.11940 -2561.26512 -2558.64273 -2556.92070 -2558.20509 -2563.17295
51.75287 121.60031 110.08094 95.82094 68.60681 50.65609 42.86352 39.12490 18.69071 4.00696 1.14531 -2.91165 -5.50868 -8.69274 -12.84218 -20.42548 -47.42394 -104.24432 -118.02322 -185.40106 -159.07144 -255.19060 -343.52162 -474.41465 -611.09670 -655.28357 -737.29608 -761.41994 -834.95020 -872.28577 -922.86337 -1007.82834 -1046.04331 -1131.20682 -1186.51106 -1266.91731 -1281.69982 -1382.70079 -1421.41833 -1437.52025 -1436.25009 -1414.58607 -1393.73150 -1344.03656 -1325.99667 -1310.54556 -1324.81754 -1347.74906 -1344.41673 -1399.82547 -1418.79731 -1467.17070 -1488.76355 -1502.19429 -1497.20419 -1642.17414 -1649.52149 -1735.42025 -1691.75919 -1725.03352 -1747.24950 -1719.72482 -1705.12631 -1683.86864 -1703.91546 -1729.27202 -1733.64941 -1918.50643 -2008.71773 -1986.22166 -2051.98350 -2088.77112 -2106.02834 -2140.98874 -2173.12327 -2233.78057 -2308.90880 -2323.23855 -2406.95303 -2453.10011 -2470.30868 -2512.43828 -2521.72949 -2530.59790 -2531.18380 -2541.02832 -2549.95777 -2554.09241 -2557.60841 -2553.73723 -2549.76937
6.48458 190.94776 141.75072 177.17224 162.99654 66.76018 52.46045 55.12217 34.82304 4.68735 0.41037 -2.79536 -3.50030 -5.46164 -10.73055 -15.23973 -24.26871 -39.51359 -50.28534 -91.13615 -110.07948 -156.62683 -274.70005 -406.54051 -535.86230 -641.82749 -668.08177 -751.30794 -813.91625 -867.70955 -883.04241 -977.14404 -1017.64397 -1051.17912 -1146.91338 -1217.47180 -1264.97426 -1336.67580 -1391.57220 -1429.55872 -1418.49540 -1386.92544 -1351.59137 -1329.13122 -1273.54455 -1259.11645 -1271.34918 -1286.84763 -1320.63437 -1345.34477 -1367.88643 -1416.77375 -1456.98381 -1488.45953 -1447.47770 -1472.06590 -1607.89277 -1626.93538 -1635.94588 -1659.55380 -1683.82571 -1672.62903 -1656.25698 -1645.81001 -1675.13133 -1685.13371 -1757.18977 -1838.85876 -1941.12540 -1958.68152 -1971.11425 -2004.57845 -2017.59864 -2033.99828 -2082.88082 -2183.23303 -2204.95649 -2222.21707 -2287.74161 -2372.95604 -2424.74250 -2452.19543 -2492.80525 -2498.52981 -2509.47957 -2505.07395 -2515.24790 -2529.20154 -2539.94901 -2545.45198 -2552.37181
45.92192 374.91093 331.33588 327.14223 311.60060 265.23245 125.39981 63.90373 57.05558 49.35188 17.17065 10.56754 -2.39322 -5.01074 -7.70850 -13.13784 -22.12941 -29.25067 -46.45673 -61.13756 -65.40097 -112.89503 -203.19149 -401.46243 -466.70453 -511.46987 -619.77321 -707.82130 -782.99402 -852.81432 -876.51653 -873.94048 -877.80546 -1007.88367 -1008.39555 -1111.02662 -1149.62203 -1300.41458 -1389.74323 -1394.20478 -1386.61127 -1373.84213 -1317.68553 -1274.55902 -1230.31206 -1225.82219 -1242.59382 -1262.25175 -1272.08408 -1320.94687 -1340.29257 -1384.80262 -1381.07185 -1432.26615 -1429.35244 -1401.98782 -1467.84607 -1532.52402 -1630.82483 -1626.18075 -1653.16038 -1657.30256 -1625.89969 -1613.95590 -1662.66599 -1691.57112 -1728.68413 -1822.61791 -1886.43239 -1898.48829 -1941.16741 -1950.71946 -2000.57105 -1987.45578 -2001.89232 -2054.27287 -2132.25668 -2184.28832 -2253.30254 -2346.81013 -2364.71249 -2438.08977 -2459.64982 -2467.97044 -2488.88604 -2492.83722 -2508.60760 -2510.54526 -2532.15583 -2539.03214 -2550.36638
1031.38895 703.39994 691.23509 530.07535 527.80049 284.57487 127.50453 108.43671 75.68265 57.24802 29.83281 15.19209 -2.54210 -3.88879 -5.18592 -9.43343 -18.95465 -28.09453 -32.84294 -43.90576 -52.46788 -63.21685 -141.20524 -198.19402 -354.37840 -464.55998 -601.02536 -646.83132 -754.53316 -791.34396 -793.54938 -756.65706 -780.66386 -820.65114 -859.60070 -943.84818 -974.96721 -1173.58450 -1330.48339 -1359.39444 -1367.73927 -1333.25640 -1302.77727 -1243.62207 -1216.59486 -1197.12967 -1210.42962 -1222.75379 -1240.38710 -1265.50544 -1279.72359 -1283.93424 -1333.15933 -1334.78237 -1343.66340 -1358.52795 -1350.75477 -1482.45642 -1541.84830 -1573.01521 -1604.38493 -1613.39396 -1614.48790 -1581.98218 -1637.83860 -1652.83146 -1700.41712 -1733.58004 -1835.25409 -1883.46453 -1888.48662 -1894.23339 -1902.77101 -1949.90269 -1957.20434 -1990.65711 -2045.96874 -2085.02077 -2230.93568 -2241.83431 -2324.12963 -2349.29566 -2411.09157 -2419.12179 -2462.68175 -2481.91462 -2488.43481 -2501.85893 -2514.56508 -2528.19791 -2547.10436
1076.10260 1074.30238 999.78129 755.36378 671.49043 452.61611 240.47355 168.41950 113.40993 83.40445 83.66298 42.81616 19.13646 -2.65478 -3.94527 -10.03576 -13.99089 -25.05265 -30.78336 -37.97006 -46.01896 -58.11888 -63.86169 -143.81240 -196.13033 -336.38668 -534.15553 -613.74032 -678.89962 -761.74928 -705.99861 -627.24999 -586.14433 -649.47422 -754.58319 -809.48719 -970.64398 -1079.91301 -1216.24664 -1308.90329 -1319.92979 -1319.44900 -1269.11666 -1240.51244 -1196.61761 -1187.01989 -1180.87196 -1178.68708 -1200.18833 -1198.52949 -1225.15187 -1257.83133 -1254.17566 -1261.71371 -1268.30627 -1281.69735 -1316.20667 -1392.01196 -1422.80546 -1493.05054 -1511.97217 -1586.52885 -1571.69169 -1564.64155 -1549.73678 -1596.16028 -1643.81427 -1684.83191 -1773.85134 -1857.27476 -1845.84627 -1856.88699 -1867.71376 -1888.90592 -1916.18113 -1948.05360 -1946.38033 -2007.97734 -2110.51805 -2137.52126 -2249.46104 -2306.87463 -2386.05106 -2385.04924 -2403.93390 -2432.02862 -2471.70477 -2475.25535 -2506.26616 -2509.79145 -2540.71648
1354.02793 1072.00215 1082.54545 1035.97403 851.68420 530.97406 345.67834 182.70721 159.25051 113.76618 93.65015 93.20560 33.37068 14.59818 -3.61872 -9.09656 -11.98384 -19.37924 -30.02734 -36.22433 -40.18602 -49.69803 -58.25112 -75.33928 -169.12183 -229.80471 -418.35156 -534.30664 -616.88986 -691.89492 -629.87671 -597.64535 -539.83522 -532.63903 -606.94966 -728.76257 -851.48114 -1028.77797 -1107.03830 -1210.80207 -1223.64644 -1241.83876 -1264.29777 -1245.04959 -1191.53207 -1182.68484 -1174.66133 -1159.18253 -1153.18611 -1152.93677 -1147.31289 -1175.06871 -1171.63833 -1173.26581 -1199.53365 -1242.77598 -1205.25540 -1275.97530 -1342.31542 -1401.93318 -1450.71879 -1530.65583 -1548.11931 -1530.17576 -1528.86150 -1542.23602 -1563.47879 -1653.48087 -1717.08313 -1795.24556 -1798.50589 -1827.10815 -1818.05758 -1852.05462 -1883.58964 -1900.54589 -1913.44232 -1922.89503 -2009.04560 -2081.91139 -2177.59453 -2221.11594 -2330.62282 -2312.86586 -2369.74045 -2388.54383 -2414.71295 -2442.85111 -2467.03994 -2479.36642 -2521.76035
506.45058 789.47636 891.56710 1054.29011 952.90695 669.60986 589.92641 337.63378 210.22427 173.75842 167.26918 125.65654 72.43764 52.04343 -2.55668 -7.80390 -9.01105 -17.51769 -27.90135 -34.44500 -40.44597 -47.27673 -53.39484 -78.99510 -98.11562 -185.84947 -249.62788 -409.98319 -514.54386 -549.74873 -519.44687 -491.83241 -459.25369 -460.99186 -507.21792 -647.07449 -786.37691 -939.67193 -1035.04410 -1078.59889 -1155.43581 -1205.22995 -1256.12696 -1252.41373 -1215.23130 -1186.80120 -1175.50984 -1157.26705 -1139.67883 -1129.03546 -1116.90073 -1116.33720 -1094.44818 -1090.10035 -1111.27822 -1164.39305 -1155.05784 -1227.52192 -1299.99050 -1391.27282 -1404.99513 -1459.37510 -1495.65724 -1492.34965 -1492.40866 -1534.50076 -1571.46761 -1583.12237 -1658.60233 -1736.22235 -1769.51590 -1800.92244 -1815.46171 -1843.65072 -1868.04144 -1892.07258 -1907.98315 -1919.88555 -1968.09641 -2040.05910 -2144.06593 -2204.78681 -2246.12780 -2293.47054 -2301.59456 -2351.05277 -2363.48112 -2398.75692 -2442.38399 -2437.47249 -2490.26993
921.04396 855.51016 952.25558 1094.08899 978.35054 831.65129 575.28082 426.62505 279.85299 268.42570 231.15236 177.09966 153.65274 80.95294 37.01075 27.12899 -9.01787 -15.81553 -24.31108 -33.69475 -39.29031 -41.11319 -44.04711 -65.51941 -102.27423 -123.83907 -196.85753 -340.59404 -403.94286 -495.34393 -506.59208 -433.54259 -396.10488 -410.38947 -477.87443 -514.66263 -721.67128 -788.76617 -897.07440 -965.60138 -1074.87797 -1187.37803 -1249.17076 -1265.74280 -1239.93485 -1204.64788 -1168.58654 -1138.63642 -1092.08912 -1085.20573 -1080.93415 -1078.13824 -1044.51133 -1055.15716 -1072.81198 -1072.86395 -1086.57632 -1132.36075 -1199.09242 -1284.60561 -1327.71986 -1437.49798 -1435.54124 -1430.06163 -1487.73765 -1531.64477 -1551.54338 -1595.20576 -1643.61356 -1682.49729 -1747.90605 -1754.25249 -1800.48007 -1818.71314 -1860.79978 -1871.63070 -1887.55153 -1898.46171 -1946.94805 -1982.13279 -2050.67131 -2124.18343 -2170.32374 -2220.57694 -2258.77584 -2278.67575 -2307.05775 -2323.33529 -2383.91745 -2385.17505 -2442.26623
884.06150 1041.35629 1136.88951 1216.16048 1100.55864 800.27196 601.56938 524.48248 364.98606 333.72567 313.38277 252.60270 189.81880 114.93251 105.69273 54.86047 6.42377 -3.60942 -18.87034 -25.36851 -39.27816 -42.40377 -44.47039 -52.08919 -94.45573 -124.48010 -195.09425 -238.27275 -320.37536 -380.04856 -430.35259 -401.94404 -350.99070 -343.67609 -413.87147 -422.26977 -523.78380 -694.37905 -750.73575 -870.32500 -1055.72673 -1168.07900 -1226.09206 -1242.32617 -1236.72585 -1206.61098 -1137.58550 -1121.53202 -1065.87515 -1018.84039 -1031.56660 -1044.88196 -1021.98148 -995.61848 -977.66324 -1004.00915 -1010.31272 -1056.52597 -1180.91873 -1148.57029 -1167.87147 -1299.26771 -1400.38869 -1403.03333 -1463.49507 -1482.34755 -1542.94556 -1590.08447 -1644.89356 -1654.25749 -1714.17071 -1749.65437 -1776.73406 -1825.46694 -1850.41818 -1858.71483 -1871.04494 -1886.37001 -1905.61177 -1968.02879 -2037.72249 -2054.27559 -2137.40547 -2177.83293 -2192.53988 -2208.94581 -2272.26191 -2287.69173 -2284.02638 -2328.58388 -2272.49271
1354.44586 1198.15108 1261.57135 1374.10991 1370.00984 886.81024 601.23834 555.05273 437.15396 342.97136 351.13928 303.31933 270.72529 193.09047 150.45306 141.73562 55.69910 18.35178 3.41189 -24.47866 -34.21173 -45.37225 -45.67539 -48.06078 -50.10852 -108.46938 -121.30938 -208.02334 -257.27271 -317.42755 -354.79400 -340.58721 -287.33419 -281.81560 -294.86457 -319.19306 -292.66978 -487.67505 -666.00110 -762.87786 -949.55800 -1041.50372 -1220.21241 -1227.48590 -1185.54536 -1131.01494 -1087.24997 -1080.73874 -1017.74699 -977.03599 -968.92463 -976.71738 -981.92655 -979.88948 -968.15195 -957.74351 -950.38419 -957.70632 -960.61780 -1041.89008 -1124.45956 -1158.02009 -1283.97058 -1377.99949 -1409.18579 -1481.13882 -1497.69859 -1588.23809 -1608.32649 -1661.42851 -1699.75624 -1756.86822 -1795.03642 -1841.59735 -1846.37568 -1855.52821 -1869.17909 -1884.29232 -1897.66581 -1915.83063 -1975.17261 -2019.11233 -2075.60357 -2110.95355 -2124.63607 -2130.82244 -2205.60882 -2237.90213 -2278.65815 -2271.01365 -2332.20431
1624.83091 1411.74099 1364.86779 1530.27145 1321.80289 1079.10850 807.92920 595.64765 591.33070 520.29121 450.07984 419.09464 311.94496 224.24385 219.10906 162.66601 131.50029 76.93966 54.71653 -21.01427 -28.66226 -40.56188 -43.01415 -51.19478 -54.96723 -67.81570 -110.89617 -144.71282 -169.79510 -179.27423 -160.44859 -190.36884 -197.47170 -225.71067 -217.29437 -231.80022 -272.83135 -383.99062 -561.80160 -747.45932 -933.05791 -979.62979 -1142.11615 -1169.81142 -1124.16958 -1096.01387 -1025.74649 -1005.10791 -899.26380 -929.85110 -949.08865 -938.18262 -945.47165 -960.58143 -954.47404 -922.87078 -896.19910 -858.91235 -901.68026 -971.41402 -1003.79966 -1127.49603 -1209.69328 -1314.28521 -1418.55818 -1471.05112 -1497.76050 -1539.89743 -1617.31918 -1664.97709 -1704.64348 -1761.63076 -1824.33724 -1845.81943 -1856.95565 -1869.41158 -1875.43706 -1894.33136 -1902.84088 -1917.63609 -1945.45777 -1999.04979 -2031.13871 -2045.33064 -2053.84228 -2083.62812 -2136.27715 -2149.79983 -2212.49712 -2210.32299 -2150.13233
1924.57792 1668.40946 1793.76528 1643.33646 1533.33696 1176.09363 1089.59510 881.98845 816.93263 722.34411 527.29068 437.10193 369.41181 344.72419 315.27996 220.35411 219.97710 191.43720 123.25685 59.09874 -14.64729 -36.51980 -43.88528 -51.71648 -54.48953 -71.11766 -82.62136 -94.03520 -120.21512 -128.03909 -129.91522 -118.54038 -173.47259 -156.51345 -144.63675 -176.85314 -223.49907 -279.53658 -456.56470 -736.58753 -859.14027 -969.29336 -1096.30317 -1146.10112 -1112.97621 -1022.91945 -985.36002 -858.79977 -801.92138 -841.95377 -847.90732 -908.29986 -913.04441 -930.51120 -943.20012 -901.06416 -882.89717 -842.66634 -852.53129 -846.57630 -909.97475 -1025.91772 -1182.12013 -1301.23162 -1390.80905 -1472.78736 -1493.93790 -1541.45462 -1617.76418 -1668.82313 -1726.42693 -1804.94697 -1835.67274 -1867.49014 -1868.43485 -1890.37386 -1908.20447 -1901.20134 -1907.75926 -1931.32829 -1964.60457 -1971.86678 -1998.58364 -2015.69760 -2044.41880 -2053.11257 -2072.02438 -2094.77714 -2118.81932 -2157.05528 -2192.37187
1894.47298 1781.69122 1804.32841 1827.55894 1550.83062 1440.30754 1282.33002 1112.55943 1038.13560 877.90091 844.54280 552.11307 492.03012 501.14137 429.23401 372.21599 297.04598 280.32029 251.73867 97.55293 4.21808 1.54413 -38.53440 -45.34366 -55.58517 -58.40370 -62.23346 -70.67696 -78.92842 -92.93478 -98.90964 -98.07445 -121.43082 -123.32045 -131.37193 -127.79098 -159.87901 -248.11612 -412.36442 -611.93605 -840.96637 -863.70373 -1081.74440 -1085.77542 -1084.38139 -970.05888 -899.10515 -819.79426 -768.16579 -745.20014 -827.70545 -853.84773 -896.77295 -927.82193 -939.57659 -909.99425 -900.30077 -855.98291 -843.77856 -855.45526 -866.16550 -974.28740 -1148.73767 -1330.91640 -1396.60203 -1489.23145 -1531.16132 -1591.39270 -1611.94732 -1690.62965 -1738.05721 -1821.81567 -1886.86100 -1910.50533 -1906.65875 -1898.27223 -1911.54213 -1924.14159 -1927.58101 -1948.93024 -1967.00111 -1977.20257 -1984.22235 -2008.06919 -2009.22526 -2022.25910 -2040.61545 -2071.85373 -2099.42431 -2122.23868 -2144.03889
1846.50072 1814.34597 1890.60464 1961.65256 1789.53462 1661.05294 1472.80102 1438.94618 1251.69136 1140.47850 987.67321 812.84863 545.16248 595.36587 548.00391 405.32396 332.41836 377.90420 310.38913 236.94281 41.96810 5.89882 -9.97784 -39.72156 -53.07099 -54.70422 -59.89200 -64.47825 -75.84746 -78.14608 -87.83719 -92.50096 -105.69250 -94.03919 -94.09340 -103.13777 -160.60488 -220.54202 -333.29971 -460.26958 -786.30080 -862.65930 -975.26136 -978.28295 -976.51745 -878.39673 -772.67849 -699.90646 -688.76267 -652.83402 -718.07207 -743.95870 -835.79428 -907.53534 -919.14839 -917.63885 -908.04011 -906.79610 -845.59720 -811.08052 -833.22531 -918.77515 -964.58689 -1235.26886 -1456.56312 -1498.54422 -1546.47308 -1598.93951 -1655.65848 -1709.52149 -1779.35723 -1879.23681 -1902.12897 -1932.41811 -1936.68807 -1928.32515 -1929.41255 -1931.67277 -1943.82891 -1986.83115 -1986.56056 -1993.48352 -1995.53685 -2000.63429 -2005.59426 -2016.90851 -2034.12154 -2045.78206 -2102.20047 -2100.93848 -2118.43000
1984.46201 1832.90014 1892.69627 1920.84626 1907.37021 1815.52613 1773.01633 1706.12802 1464.21015 1374.76073 1019.66275 764.05711 624.65790 656.02141 598.40287 554.64899 471.35949 494.73414 479.40462 356.12649 119.85265 84.56504 -7.92960 -37.47792 -46.60572 -48.77261 -59.95678 -63.82296 -68.18600 -74.61333 -80.47235 -86.75700 -92.81036 -92.95059 -93.22098 -90.09076 -138.12083 -216.69356 -364.36588 -462.28916 -720.85054 -784.90164 -904.04981 -935.97655 -833.81859 -733.03411 -639.76304 -617.76050 -601.07313 -614.41866 -632.32042 -697.87332 -776.21036 -848.76039 -903.30793 -912.09628 -920.42201 -915.04324 -870.16455 -811.21980 -825.18024 -844.91350 -982.22043 -1286.97474 -1517.41856 -1537.60108 -1610.06419 -1629.73982 -1677.30745 -1758.05600 -1818.82997 -1882.12087 -1956.93987 -1965.87310 -1970.70276 -1956.05758 -1960.26131 -1959.52490 -1976.30934 -2001.10303 -1999.17646 -2017.62780 -2013.38041 -2011.20339 -2011.92865 -2018.65940 -2031.62567 -2046.60808 -2064.90366 -2083.94696 -2067.45544
1932.66416 1680.83826 1710.06496 1663.03711 1618.53780 1805.25073 1944.83398 1948.27973 1758.80616 1446.02105 1176.34734 870.95669 770.47220 691.14429 742.51536 649.91406 581.76510 530.79788 523.85915 370.80499 335.01949 169.67211 102.86804 -18.13255 -29.08010 -44.22638 -54.64824 -62.16379 -71.12120 -75.42071 -82.53001 -85.89664 -91.02031 -90.99548 -89.31210 -87.33818 -128.58704 -209.25086 -305.11228 -484.58585 -564.33617 -663.00294 -772.70984 -828.20251 -750.92472 -638.04802 -564.73996 -576.64343 -548.20440 -556.36568 -596.08446 -622.19016 -693.01820 -818.32284 -852.61491 -906.40454 -921.98226 -898.63327 -877.47572 -831.43061 -823.24517 -845.96005 -1060.64681 -1200.24271 -1450.84802 -1583.44716 -1624.05863 -1687.13187 -1758.40184 -1815.52739 -1840.36865 -1907.98303 -1960.25132 -1981.77320 -1985.84864 -1980.04391 -1989.95847 -1992.47921 -2004.54842 -2010.51159 -2022.48430 -2035.51743 -2033.89493 -2029.57075 -2025.86697 -2025.37118 -2038.58630 -2041.11466 -2064.03807 -2074.66416 -2078.31662
1175.68647 1428.51237 1595.50185 1470.94328 1461.84345 1546.74575 1967.82919 1974.31382 1823.19061 1495.75962 1167.69967 1070.70679 811.98482 715.90642 732.72042 697.11756 659.33890 641.95362 647.28385 510.70623 375.50037 184.05022 101.58300 -10.19825 -22.18335 -32.24613 -39.98424 -46.15370 -61.80057 -78.39776 -83.32041 -88.46572 -91.26284 -91.60034 -88.46271 -84.41138 -91.37593 -182.65139 -323.37750 -388.70237 -559.09974 -615.74220 -674.59526 -704.52791 -719.41477 -600.23551 -535.48437 -528.79034 -486.06651 -541.84817 -551.69805 -577.54363 -598.91020 -717.16820 -817.13322 -903.39068 -916.54230 -926.05842 -912.93029 -858.03809 -826.57673 -934.05032 -1003.47516 -1194.15314 -1382.71045 -1512.42495 -1621.65891 -1705.78749 -1734.88559 -1805.39592 -1856.24409 -1919.13482 -1956.15210 -1981.80966 -1990.53248 -1992.79886 -1995.37108 -2005.81401 -2010.88868 -2020.62103 -2038.13204 -2039.58035 -2047.09035 -2043.22496 -2032.39052 -2030.94599 -2039.47775 -2045.73229 -2061.42216 -2071.51169 -2071.76720
902.32746 1165.66992 1213.75018 1294.34884 1242.36409 1524.12293 1657.98484 1976.10447 2022.35159 1719.02737 1370.87099 1092.91541 952.56555 747.78942 680.93882 602.78462 619.91858 695.00137 729.63164 622.32483 451.04064 235.96840 148.39212 7.97158 -1.43403 -16.47194 -18.76171 -36.52316 -54.37373 -71.06429 -87.50032 -89.50950 -93.87001 -93.87250 -93.03782 -86.83082 -117.01342 -142.75118 -196.40119 -404.50144 -476.99043 -583.18503 -592.44798 -589.10930 -549.31273 -491.90057 -470.86950 -449.91755 -442.05577 -435.57081 -460.68620 -492.80610 -577.87534 -678.28180 -758.93291 -834.43396 -886.84601 -936.24955 -926.31502 -906.30646 -852.81538 -922.44502 -1015.44393 -1181.44934 -1364.51805 -1545.41449 -1609.99785 -1710.82114 -1717.52535 -1779.16745 -1849.53096 -1895.56067 -1950.31134 -1972.83805 -1988.72794 -2000.67621 -2006.33837 -2014.79272 -2019.07178 -2033.55966 -2042.56253 -2043.85791 -2044.26898 -2043.10947 -2036.95842 -2035.56890 -2036.83054 -2043.70296 -2060.65044 -2071.75619 -2072.50068
967.79762 1066.98377 1062.89275 1068.75074 1213.16357 1340.48962 1670.85797 1892.05622 1925.82248 1682.79545 1349.43563 1242.19437 923.70552 894.50427 687.24217 565.29063 567.35638 691.28142 719.43599 648.40688 461.81589 210.84780 127.55175 78.77677 10.79877 -5.28678 -13.62001 -25.94027 -51.63124 -69.31990 -76.62574 -88.55919 -94.25718 -94.77674 -93.25967 -94.11968 -122.15056 -135.39616 -157.53992 -307.22300 -454.97792 -481.81772 -548.80196 -505.89855 -448.95388 -428.34859 -407.41623 -402.43946 -392.21485 -416.86909 -421.06061 -475.74900 -511.57531 -594.42331 -716.73090 -773.78395 -875.92873 -912.20798 -938.91282 -916.23021 -887.94471 -890.25719 -980.06283 -1145.81580 -1247.88304 -1420.25006 -1478.01422 -1636.72870 -1693.88859 -1717.53953 -1798.68017 -1852.29146 -1900.33940 -1948.64230 -1984.10986 -2000.48284 -2003.16984 -2004.97391 -2022.85791 -2039.18485 -2042.17715 -2042.48178 -2043.40129 -2042.69116 -2038.37187 -2035.41226 -2036.68444 -2040.31609 -2071.83938 -2072.43815 -2073.62012
1167.23972 1117.36174 1042.33801 994.77039 1102.88679 1355.21651 1596.80503 1882.55637 2034.34051 1747.77283 1628.16564 1319.24488 1180.89383 985.34620 592.07106 568.62444 577.79290 618.91267 709.60524 633.73660 402.31336 341.47652 163.69414 54.38893 29.67360 3.08702 -2.87090 -22.73546 -35.08788 -54.41417 -66.15457 -85.12356 -94.92277 -93.77478 -92.79679 -92.60037 -111.82709 -113.28096 -133.74449 -201.73370 -297.47068 -404.66461 -438.05836 -439.71819 -383.03392 -361.03802 -356.83412 -349.79943 -362.13836 -367.09933 -373.93414 -407.14623 -444.24438 -575.86021 -612.37874 -779.68673 -860.98183 -916.26873 -971.78814 -933.89102 -913.79417 -911.51631 -949.93276 -954.52259 -1151.88050 -1301.87434 -1440.00432 -1502.11176 -1550.60404 -1651.05410 -1731.24692 -1806.35249 -1873.86182 -1939.92965 -1961.35460 -1998.00850 -1998.15381 -1996.75686 -2013.23674 -2025.97436 -2035.01070 -2033.18827 -2038.66605 -2039.06832 -2037.19564 -2036.72049 -2038.91744 -2047.87902 -2061.44144 -2071.07579 -2070.22594
824.85902 971.36038 943.36727 876.31246 882.82867 1284.84168 1572.61895 1697.82565 1780.63116 1755.47938 1629.07071 1580.52709 1304.18158 1085.17112 867.99426 600.43075 574.72586 580.49191 581.67855 544.05716 390.08509 168.69050 122.03143 63.85180 61.22746 30.84673 5.45362 -16.43656 -27.38263 -42.38603 -44.85663 -79.98126 -86.64241 -94.15963 -92.51289 -93.28796 -94.52187 -104.37795 -139.74170 -176.68125 -218.29914 -283.09988 -354.19605 -340.72200 -311.47872 -307.22963 -328.07703 -326.19232 -337.31045 -318.08983 -331.33124 -326.98250 -405.73654 -428.73836 -580.09787 -741.29183 -882.99998 -930.48461 -956.00246 -966.92124 -951.95592 -933.50772 -940.15644 -951.20333 -1065.19406 -1197.65269 -1265.81475 -1416.23723 -1512.35201 -1588.40124 -1610.05997 -1778.12661 -1805.20127 -1894.97540 -1938.66892 -1969.75655 -1972.47646 -1989.71326 -1997.42314 -2010.99098 -2027.81017 -2025.68799 -2031.72786 -2034.74906 -2035.23956 -2036.79413 -2041.47758 -2044.15200 -2061.56449 -2072.42564 -2069.04959
905.73210 688.33877 707.63158 777.24855 928.94423 1125.63556 1332.74959 1629.37347 1671.04190 1681.50981 1762.27742 1689.20523 1479.74820 1137.14916 828.49893 691.12617 590.25234 469.89721 485.01973 425.75480 192.42097 138.31469 85.61806 94.78019 62.83715 33.33563 2.89694 -3.68325 -21.38108 -31.17285 -52.54102 -64.83468 -82.51354 -90.02042 -92.83252 -91.59959 -93.14795 -101.74057 -109.28530 -122.44051 -170.50861 -177.00156 -196.74645 -234.90273 -246.09096 -280.85049 -292.62487 -290.76754 -271.40681 -291.52570 -304.66221 -320.47201 -325.51430 -378.51534 -460.51590 -695.89603 -898.77252 -919.42530 -968.36574 -998.67729 -980.04213 -962.51072 -941.89425 -955.52593 -959.83831 -1055.07121 -1173.44792 -1322.72533 -1368.93217 -1419.76917 -1539.63254 -1608.61348 -1753.91602 -1771.30323 -1852.69724 -1884.49287 -1947.25102 -1961.16550 -1984.56860 -1990.40824 -2009.91571 -2021.93257 -2031.86583 -2031.81804 -2036.92646 -2040.78214 -2048.23502 -2053.97409 -2080.06408 -2076.30169 -2060.08003
252.05211 470.44544 567.66301 714.56486 803.75565 1051.36310 1151.02994 1361.74817 1466.73879 1627.90941 1707.81143 1688.71818 1508.53718 1151.07794 871.85609 721.34404 699.67441 443.04838 344.13281 301.71241 160.04861 103.85978 104.64726 115.05775 88.17319 29.20119 13.15956 -4.67991 -24.82958 -29.69400 -43.23538 -59.99829 -66.02406 -86.38718 -88.87596 -88.80286 -92.20493 -97.86968 -99.39401 -116.18684 -127.54516 -139.58637 -160.22362 -201.12904 -215.77365 -203.13845 -207.77680 -246.38881 -257.80773 -240.46075 -253.35362 -254.93674 -304.19345 -355.53403 -411.94583 -643.21057 -855.51913 -944.19181 -980.15640 -1013.34581 -1011.07909 -1002.09080 -984.16407 -966.65666 -967.82683 -1007.82599 -1145.87199 -1186.36614 -1302.79753 -1359.45252 -1420.42468 -1472.33197 -1633.10337 -1735.76243 -1764.59245 -1817.13498 -1894.54291 -1954.20537 -1961.71028 -1993.36086 -2005.38579 -2021.63588 -2029.51667 -2036.13774 -2042.90122 -2044.30362 -2057.45726 -2070.16821 -2081.36036 -2093.02335 -2110.24501
305.01545 427.34938 504.89129 604.61085 801.90650 967.09932 1081.63030 1147.99789 1319.91375 1588.59592 1535.99115 1496.09796 1442.50534 1146.95381 934.69399 870.59586 634.23837 461.64223 337.44708 298.50578 118.05472 120.56632 136.84671 163.65554 129.40524 87.62732 10.87345 0.85454 -12.92387 -25.35598 -39.08504 -50.86062 -61.68363 -70.37419 -78.61396 -87.35944 -93.02364 -93.43051 -95.29250 -97.95857 -113.08689 -132.92711 -141.73230 -164.31096 -175.84410 -188.83755 -198.16688 -208.24691 -219.31792 -202.96263 -196.59796 -187.08988 -257.97269 -294.52513 -395.12977 -597.53133 -802.60233 -886.12451 -997.86299 -1032.01822 -1046.31314 -1051.92740 -1017.81946 -1026.86026 -1018.90382 -1075.79538 -1133.22710 -1145.10591 -1192.80343 -1245.75987 -1329.10748 -1432.21025 -1542.22334 -1617.78579 -1733.59586 -1752.32305 -1872.76925 -1939.94746 -1969.07621 -1980.38396 -2011.29364 -2026.90191 -2032.75395 -2042.73206 -2049.57883 -2065.57757 -2073.85953 -2082.52550 -2092.51535 -2109.88662 -2097.63324
460.56208 549.18331 531.85508 489.68579 611.48222 845.02999 968.63528 998.18404 897.99447 1049.73324 1184.44981 1291.68440 1282.37747 1067.24069 952.98451 777.29809 601.09486 509.73800 278.86649 232.57425 124.96113 125.00317 144.53615 166.16375 141.69729 119.55843 47.23216 0.22007 -11.30788 -21.33669 -30.37163 -45.88088 -50.20721 -65.21482 -72.98424 -76.31996 -95.89551 -95.79604 -97.90528 -100.27054 -101.52531 -111.76211 -116.07540 -127.80931 -166.25000 -154.79565 -170.16624 -186.89713 -189.81251 -168.77718 -166.30514 -160.52520 -217.78160 -241.19189 -361.27830 -504.57268 -662.19675 -849.91617 -988.43353 -1032.40045 -1069.55617 -1074.63014 -1074.82010 -1062.17384 -1090.44714 -1095.12019 -1127.19332 -1130.79127 -1133.99427 -1207.19000 -1264.44406 -1298.59219 -1357.14234 -1544.39969 -1584.61385 -1682.10632 -1805.35620 -1941.51249 -1959.04103 -1994.63314 -2028.00902 -2031.86109 -2038.06560 -2050.13971 -2054.81795 -2071.05342 -2082.67264 -2092.06159 -2121.59340 -2122.64000 -2113.95996
724.92577 637.30454 540.07208 488.76212 451.43517 611.61001 802.59134 890.28317 863.35926 875.37528 1037.69151 1105.20775 1128.76211 963.08525 827.42333 748.72754 560.98007 379.46744 219.91003 202.75476 138.43926 153.14558 164.00349 182.60540 158.46156 114.12040 32.25012 -6.98775 -10.55857 -15.71976 -26.20083 -29.32003 -47.77305 -57.34290 -60.39893 -78.82417 -84.93131 -100.05918 -102.15590 -103.24307 -102.47277 -97.80456 -94.10025 -98.73055 -108.67470 -136.41985 -146.59475 -157.95792 -162.96838 -158.08129 -140.93049 -145.57521 -164.80009 -208.57768 -314.93283 -478.85518 -657.81540 -734.02311 -968.30998 -979.32053 -1067.64660 -1082.20134 -1105.70622 -1122.09469 -1131.39614 -1125.31897 -1116.44010 -1122.65616 -1109.31641 -1113.09674 -1151.90905 -1203.57825 -1217.24123 -1362.48786 -1435.80331 -1508.35344 -1809.36861 -1874.65828 -1959.49374 -1983.11948 -2033.36045 -2035.61657 -2045.07380 -2051.38507 -2060.47409 -2072.70862 -2092.56149 -2107.04326 -2121.95925 -2131.82005 -2129.10028
605.06492 685.57087 694.86719 489.27374 471.67960 524.98461 715.68242 785.25561 745.20049 858.91987 1025.58843 1104.44760 1040.13374 995.03173 895.39404 715.46662 544.32053 442.08959 228.44591 162.66061 172.15813 186.54388 199.66577 186.30630 172.25569 112.07894 41.81228 6.37172 -8.00541 -14.60044 -20.92636 -24.04884 -29.02315 -44.84771 -60.66168 -68.39712 -93.54263 -99.25068 -103.37935 -104.17153 -103.42950 -98.76779 -91.62968 -87.49636 -98.76296 -108.38357 -120.16926 -131.43908 -133.59201 -131.66933 -125.44142 -115.41409 -134.19348 -153.64721 -277.69285 -357.89497 -542.03826 -721.46670 -796.14507 -929.01529 -1020.52865 -1104.70663 -1125.38553 -1134.57661 -1139.44259 -1140.98976 -1137.07930 -1120.24571 -1113.57992 -1101.00385 -1109.16578 -1125.54799 -1181.28784 -1272.87650 -1318.58832 -1465.83120 -1709.07692 -1864.85774 -1957.60534 -1999.77186 -2027.15680 -2032.23335 -2034.71197 -2041.45224 -2048.35110 -2063.76855 -2098.68750 -2101.37857 -2121.28668 -2135.03981 -2138.75958
658.02343 765.57682 679.47413 583.32078 494.80651 455.85846 542.49337 624.55443 691.65317 709.36099 841.86130 934.47285 1018.97942 989.39761 865.73506 730.64950 554.71256 500.20341 379.74634 248.50540 181.23861 203.15670 215.04073 188.78662 162.67145 115.64043 49.76603 14.27511 2.80155 -11.65980 -21.05012 -25.20430 -28.78482 -37.33991 -46.87384 -73.89923 -86.21096 -98.53514 -103.24932 -105.85701 -104.74097 -97.77481 -93.06251 -86.95609 -86.14942 -92.18497 -102.49998 -111.95872 -116.49761 -118.24275 -124.53371 -113.13136 -119.75854 -139.15584 -161.40351 -331.73267 -394.41081 -565.59093 -682.79554 -804.54162 -965.55452 -1068.24655 -1083.33059 -1139.38724 -1145.71343 -1155.63538 -1142.89777 -1139.95883 -1122.54538 -1100.55387 -1111.46473 -1120.98192 -1154.48700 -1171.12951 -1251.21143 -1468.75979 -1606.88167 -1806.50938 -1926.91241 -1983.31169 -2000.47160 -2004.79133 -2015.07744 -2032.48941 -2037.93889 -2055.83268 -2079.41620 -2101.29291 -2117.77029 -2127.49872 -2141.08376
979.18359 872.63021 742.45181 677.73505 593.61217 515.04264 519.91309 542.04048 578.39538 548.00023 664.91449 788.69893 871.40201 928.76917 924.33270 806.84716 672.94068 531.56629 456.61920 276.27523 196.25831 185.67294 186.68319 171.49007 149.43112 123.71660 53.50662 13.39006 -0.84454 -6.44938 -13.53656 -23.43358 -25.71803 -37.04132 -52.00662 -63.74135 -78.55807 -95.87644 -103.69152 -106.85323 -106.21960 -105.40574 -95.42415 -85.39985 -84.25586 -92.50257 -98.64693 -98.53205 -107.85744 -107.89531 -95.16367 -92.67498 -92.76540 -107.81329 -134.97610 -200.96630 -351.90194 -457.33782 -587.28625 -741.13807 -816.47096 -1004.09400 -1069.88290 -1103.09536 -1132.74531 -1141.12108 -1153.71916 -1148.56671 -1147.22014 -1123.63150 -1102.24708 -1102.75215 -1098.37749 -1131.81763 -1267.50759 -1383.71643 -1593.98543 -1763.32442 -1877.13799 -1889.98678 -1934.88270 -1940.83298 -1944.05046 -1970.71638 -2004.47312 -2045.57640 -2059.24538 -2085.00228 -2110.60873 -2114.41369 -2131.25764
1096.29505 984.71263 893.17352 816.12682 826.25430 675.32290 579.45666 582.80727 570.63879 547.78575 521.13539 591.37063 688.24776 808.00132 811.89108 836.01137 698.10602 603.48819 548.53555 434.41123 263.89723 238.22410 161.90704 171.47071 180.63022 126.70069 106.28916 37.97393 19.71530 -3.42472 -9.85878 -17.86687 -25.53138 -34.94633 -45.54450 -58.71888 -67.06315 -87.47099 -101.78820 -105.89652 -106.73221 -101.98995 -92.06871 -87.85287 -82.33967 -82.69710 -86.97859 -94.58614 -98.05915 -98.42232 -91.09709 -84.34416 -77.59077 -76.68455 -106.40340 -196.39422 -287.95340 -377.06246 -434.50254 -586.31158 -725.17315 -896.83239 -931.46128 -1086.23208 -1118.46414 -1135.68633 -1146.56655 -1152.56004 -1145.58059 -1125.12906 -1112.21927 -1090.31130 -1067.16022 -1083.80988 -1127.77614 -1272.06335 -1393.22000 -1596.35525 -1745.71551 -1828.11563 -1863.70567 -1884.25056 -1885.45749 -1892.59634 -1962.49834 -1982.14946 -2047.35408 -2047.45613 -2093.34329 -2098.06973 -2131.05078
1263.13435 1124.17349 1041.39998 956.60894 912.73124 892.35693 730.55611 743.50666 565.93407 511.06876 482.60936 485.10361 585.84839 686.43837 778.82012 830.62259 810.22852 683.86098 640.08089 580.33663 369.60210 309.12773 238.38296 170.55171 185.08553 167.99758 140.85060 64.63867 19.85725 10.70055 -10.17217 -16.40440 -19.32202 -28.05465 -43.95071 -52.06946 -67.13158 -88.54941 -98.66961 -101.90258 -104.71070 -104.61646 -98.17824 -85.28854 -78.27629 -82.51333 -85.13016 -93.69097 -99.13350 -98.72018 -89.60727 -82.07743 -75.10353 -64.16410 -76.46274 -109.69419 -238.50757 -292.38176 -354.20745 -486.10983 -555.28588 -696.30186 -762.96807 -1045.56852 -1056.52912 -1115.09937 -1128.40681 -1139.06314 -1138.65885 -1121.69491 -1111.79948 -1084.37231 -1067.86349 -1072.17550 -1093.36976 -1195.42016 -1278.56161 -1439.84679 -1549.00686 -1598.10085 -1690.03042 -1755.06577 -1752.38197 -1763.06299 -1884.49139 -1956.25272 -2002.22666 -2033.93358 -2033.73905 -2065.58869 -2116.24747
1543.01537 1333.84443 1356.75090 1134.48343 1176.12790 993.27943 954.14804 826.11733 781.49786 616.79230 450.80810 455.83979 479.88271 560.90719 717.85250 766.88817 798.96531 689.69293 648.19376 599.21401 551.17494 438.15586 303.26526 175.68636 188.89621 180.36481 164.96607 77.18829 62.64152 25.72146 13.33509 -11.22221 -17.08457 -23.21442 -36.53536 -54.34093 -61.39852 -76.51780 -88.17612 -100.64288 -101.96188 -100.55971 -99.00090 -92.54296 -85.33874 -83.35589 -89.78584 -93.66983 -100.41166 -96.58549 -88.05271 -85.73080 -71.35940 -60.94100 -65.10030 -72.01348 -185.30119 -227.91385 -242.17673 -368.19320 -510.56612 -549.63370 -672.38275 -850.08781 -986.86150 -1021.83649 -1098.65086 -1107.74769 -1126.40659 -1114.34885 -1109.97205 -1088.83457 -1061.09057 -1064.05850 -1118.71296 -1200.57203 -1268.82096 -1357.82446 -1464.49892 -1503.29372 -1528.75192 -1580.07385 -1591.90440 -1706.13215 -1707.95122 -1816.50670 -1964.58914 -1973.25106 -2029.06192 -2015.42990 -2086.62053
1909.10150 1621.72297 1688.20563 1495.21160 1327.86393 1339.82990 1287.38947 1038.42503 980.89713 717.62424 462.19734 452.99008 457.70797 455.56204 581.76529 747.23654 727.99824 658.46722 637.09486 585.30957 560.54373 500.86735 345.66740 196.58328 199.78092 217.03746 194.78781 142.32668 75.31602 46.39747 19.90537 -8.23873 -12.78910 -21.07322 -30.74374 -37.13795 -54.57304 -68.93475 -83.55659 -89.00739 -101.99317 -100.40298 -98.99244 -97.07598 -94.17063 -92.20846 -88.56243 -93.19977 -95.04284 -93.34480 -90.21822 -85.26833 -70.46193 -60.03311 -61.08942 -102.45679 -163.33797 -176.81047 -230.62092 -248.02343 -490.00913 -569.26677 -615.24465 -762.87130 -864.39389 -917.42795 -1029.02734 -1097.73970 -1089.33462 -1097.10262 -1098.97903 -1088.62824 -1062.00125 -1066.54138 -1127.71919 -1219.97873 -1230.11105 -1313.54082 -1334.22156 -1346.42987 -1462.93304 -1560.97657 -1530.45471 -1584.03195 -1618.11738 -1685.49779 -1783.43458 -1878.41603 -1920.17255 -1944.73927 -2036.36210
1750.37649 1882.32313 1825.68169 1771.62099 1816.93660 1631.94797 1451.82608 1287.91549 1225.77622 799.65815 516.17578 502.10088 490.65608 429.93533 499.94973 588.73854 619.84265 577.32019 570.64354 570.46365 543.76052 535.57529 416.17059 245.89579 222.03682 227.65668 228.53166 176.48361 141.36666 83.38113 28.90425 -7.19300 -10.38829 -20.09620 -25.43582 -37.90015 -46.32167 -57.79093 -81.25668 -86.13042 -97.84262 -101.69844 -100.84913 -98.91728 -96.34576 -93.59297 -90.75565 -91.92897 -92.18415 -91.10578 -91.19969 -84.28008 -77.52956 -70.21223 -76.01611 -97.05655 -138.16781 -177.83145 -235.17115 -242.19585 -401.53576 -452.19826 -580.38899 -677.66252 -822.41338 -834.85556 -873.47362 -1012.68075 -1079.62751 -1074.03771 -1081.88876 -1076.05034 -1063.17123 -1058.65752 -1107.74491 -1182.72495 -1195.83705 -1260.84704 -1237.01714 -1298.29261 -1322.31910 -1361.34830 -1381.32808 -1424.18720 -1459.92853 -1576.23632 -1624.82643 -1748.62511 -1865.86158 -1853.61645 -1762.99362
2144.71642 2013.76977 2038.72289 2034.19750 1903.86686 1936.43793 1655.06471 1553.13766 1334.39619 934.15929 690.49406 589.42488 517.14899 464.01796 415.95791 492.55673 522.07851 507.47343 554.20848 556.27452 523.91542 496.27265 390.54063 320.84461 292.87120 275.06105 260.92518 181.37142 168.49079 111.49284 60.83331 9.31221 2.93166 -12.56169 -22.10546 -27.45448 -39.54679 -44.40979 -67.78564 -87.13397 -95.01498 -99.16572 -104.24625 -103.68423 -99.82219 -94.29373 -93.20537 -91.56697 -91.24551 -92.01516 -93.75348 -89.00094 -85.65391 -86.85526 -93.48964 -93.35568 -134.05845 -189.90166 -232.58300 -240.20192 -301.30275 -408.90557 -460.30321 -508.04964 -664.05201 -674.72776 -828.99945 -936.70953 -992.42802 -1048.48352 -1059.63540 -1068.57017 -1063.72324 -1068.35264 -1101.00783 -1170.79359 -1209.46026 -1199.65592 -1197.82600 -1140.07241 -1075.84273 -1080.77493 -1190.26374 -1225.46196 -1331.36814 -1375.53578 -1534.34129 -1525.90579 -1739.31647 -1748.55011 -1643.98377
2046.63463 2030.45220 2080.14079 2177.27128 2129.17815 1990.26406 1919.37913 1721.09459 1437.34026 1122.15242 773.87389 690.98641 501.17562 488.18049 426.37839 395.18741 426.86738 509.27371 553.85346 520.29707 522.77894 449.85580 369.97600 377.33076 375.26731 366.23011 287.60194 289.55626 192.39691 143.90692 74.15732 32.53384 8.75988 -12.02960 -14.53884 -25.50727 -32.73463 -43.11536 -55.83879 -86.49844 -94.98982 -97.31227 -104.26911 -105.92374 -101.85353 -97.97728 -94.95233 -95.88784 -91.10602 -94.45152 -95.93290 -98.48053 -97.32576 -92.81173 -96.36205 -112.15299 -151.70831 -196.82350 -220.31526 -243.60338 -285.10413 -321.10021 -366.27031 -376.23665 -562.89897 -630.20569 -725.64360 -789.32544 -935.12028 -1000.73843 -1004.30994 -1041.13257 -1067.48882 -1071.15166 -1107.70604 -1154.70833 -1204.91917 -1174.44986 -1143.67953 -1064.01079 -1062.10604 -1068.93125 -1068.98036 -1044.67263 -1140.19185 -1305.84205 -1364.64805 -1441.51780 -1539.17857 -1611.95814 -1475.86618
1917.40946 1974.18083 1989.40250 2151.52179 2219.03454 2190.48217 2054.28681 1849.69187 1530.79949 1294.38259 945.90710 783.09025 604.05467 593.24297 409.83144 423.88740 412.55534 447.97073 490.31935 498.59599 524.86037 482.39036 441.05783 493.17633 509.51613 393.19168 352.41562 338.39920 268.96567 149.00258 88.44511 37.19049 30.62405 3.13239 -8.09577 -23.62698 -27.90063 -30.36657 -44.77242 -66.43957 -87.21863 -95.89516 -102.83039 -109.01172 -108.19264 -105.51592 -104.41325 -98.74337 -96.43112 -100.43632 -100.65127 -103.36691 -99.65531 -109.13520 -108.46896 -125.86578 -148.41202 -167.74660 -204.30143 -223.89632 -240.86623 -296.15087 -320.83797 -363.51935 -439.17876 -523.56797 -557.78199 -709.60110 -810.82493 -953.71054 -960.03842 -990.40423 -1048.77513 -1060.83480 -1110.83747 -1149.53483 -1135.66705 -1121.68611 -1071.59097 -1029.23621 -1011.10686 -985.14427 -971.02237 -1008.55390 -967.18675 -1091.61398 -1282.90967 -1297.27628 -1395.36688 -1462.07013 -1602.94716
2049.29622 1969.87950 1949.84697 1987.35442 2057.77878 2137.48188 2065.79535 1829.83373 1565.55333 1205.52179 1074.68835 863.91954 791.51608 706.48862 616.01430 419.46856 391.42188 391.18909 421.18796 414.39831 468.63417 490.43914 577.19900 606.19158 583.10033 530.90728 422.82272 414.41632 289.68024 218.82497 112.42084 51.60815 32.00545 -0.98319 1.30545 -14.80777 -22.71230 -30.84115 -45.38171 -69.16551 -75.20579 -89.70255 -101.62498 -108.77687 -112.17889 -111.66798 -108.10709 -108.88971 -109.33815 -105.46559 -114.68526 -105.71136 -114.46989 -119.40414 -129.53031 -145.08967 -147.11762 -158.61351 -155.53127 -189.66485 -215.82474 -222.63192 -252.59341 -312.86825 -374.77888 -393.23724 -431.63977 -515.43419 -601.17570 -934.61968 -950.59561 -989.65943 -984.27734 -1020.24212 -1011.06566 -1056.30529 -1100.92763 -1074.72083 -1043.37569 -1017.92513 -973.44229 -930.47145 -896.84341 -899.02855 -885.92757 -898.29746 -1017.13059 -1121.06361 -1245.32304 -1321.69309 -1181.81606
2075.39938 1889.96279 1942.39501 1863.57514 1868.51004 2075.84428 2097.08759 1796.73500 1752.31425 1498.05307 1206.93404 1082.67002 903.83676 844.51513 622.27509 536.11247 441.48559 366.30709 354.19297 376.69163 408.66186 437.22393 612.41195 720.76796 759.16927 679.78277 458.53646 412.83324 349.27684 203.95468 152.09358 121.96299 83.08402 24.92759 7.17749 0.18146 -16.89441 -20.16176 -41.04992 -58.16244 -70.95510 -77.06339 -88.93599 -106.47588 -115.59856 -118.35656 -117.11230 -119.37982 -121.79049 -123.41003 -119.42957 -123.42481 -144.32797 -141.88462 -143.57193 -145.98849 -148.99910 -149.10081 -153.61734 -163.42562 -189.61275 -204.74443 -231.38146 -243.25823 -290.65845 -321.98022 -374.09445 -375.79722 -536.13836 -615.18713 -828.59115 -937.20294 -946.00447 -896.37072 -989.27431 -1010.32555 -1031.28011 -1043.45547 -1035.68127 -974.71313 -949.04840 -913.20907 -907.47552 -809.60867 -783.52721 -812.86672 -863.66792 -983.57864 -1113.36607 -1211.01297 -1288.78720
1921.41861 1704.02620 1694.66655 1700.10977 1748.05257 1820.27111 1857.74590 1800.12187 1536.22670 1560.54553 1430.77822 1192.72096 1065.37762 827.39039 723.92983 590.54581 575.84294 458.00719 392.47968 375.55289 391.85352 446.70608 582.09611 705.08654 717.30119 672.35944 532.46503 441.44416 337.30824 258.06461 237.14819 188.94424 197.85113 175.88204 78.90129 11.17943 -5.48587 -14.89268 -22.04604 -46.14222 -61.47897 -76.46523 -88.09206 -99.15295 -115.84598 -129.49633 -135.19286 -130.97964 -130.64894 -127.57716 -131.50168 -140.69808 -146.16551 -146.47703 -146.76750 -148.64587 -151.87733 -152.33457 -156.04681 -158.69368 -171.74456 -180.89755 -198.37903 -231.26842 -251.31032 -255.37489 -326.54562 -363.08866 -386.57735 -543.29402 -690.82784 -763.59903 -832.83507 -876.14806 -913.99754 -977.72502 -1009.88259 -1006.98489 -988.50816 -964.71577 -899.97843 -853.04026 -817.79069 -722.87023 -725.78215 -748.06548 -822.74624 -854.83185 -1137.09605 -1133.73874 -1200.05040
1267.74137 1486.13378 1514.27041 1475.28734 1516.65293 1627.32702 1568.35751 1527.38371 1432.29957 1515.83436 1590.91711 1402.17439 1341.65190 1041.14226 730.90432 685.08753 628.46517 543.68883 464.08697 383.78223 392.62814 430.35557 481.28408 615.98955 617.72936 626.60996 529.27728 416.24178 344.08705 304.75860 295.84181 267.02208 284.29147 220.16259 121.51381 38.50790 18.37091 8.13990 -16.49674 -31.33545 -53.93303 -76.07309 -81.49212 -100.08112 -116.69271 -128.91327 -136.02337 -143.45814 -146.56959 -140.63792 -142.98333 -150.51936 -151.33145 -152.09882 -154.43745 -155.65410 -154.19794 -154.73379 -153.84338 -154.48981 -163.33742 -170.08310 -184.98358 -213.21200 -235.79786 -240.07522 -279.38982 -314.87911 -380.62707 -432.66333 -540.65980 -598.51425 -724.47852 -761.94119 -909.33239 -978.69134 -1005.87494 -993.83857 -966.17172 -914.24903 -896.53844 -816.37575 -726.65141 -686.07975 -701.96123 -695.59965 -775.01954 -859.24678 -982.77175 -1067.92707 -1141.08746
1431.54895 1228.26483 1355.71897 1305.45291 1345.26988 1338.98993 1273.99022 1226.86588 1318.19884 1516.70762 1598.93884 1518.20541 1299.52687 1065.19086 800.48611 778.11494 676.43420 630.39430 610.46103 495.28868 462.79795 457.21970 479.30618 527.89153 589.61837 568.94391 505.54624 398.87991 370.23733 360.64320 345.91468 332.17748 316.41019 309.10849 167.24767 122.49284 47.41596 21.64359 -9.23846 -11.94156 -49.29850 -61.28006 -85.73184 -90.57089 -110.21622 -124.04875 -137.23333 -149.21254 -151.51677 -160.57507 -159.22112 -157.62271 -159.98989 -158.19254 -157.82391 -157.09989 -156.78088 -157.76207 -154.92295 -153.70348 -154.80252 -165.39980 -163.55033 -195.25726 -207.03718 -224.06781 -237.54166 -274.24351 -336.23660 -369.09881 -445.73982 -532.79704 -595.53800 -643.77034 -868.76641 -972.22562 -986.67040 -985.85936 -949.75072 -900.54552 -865.38804 -724.25976 -696.27086 -669.49639 -671.90752 -676.46167 -738.10207 -862.07954 -944.82400 -995.26668 -1089.59042
820.19659 1024.48071 1020.01541 1148.39706 1158.15913 1137.67268 1141.89421 1129.94420 1362.60780 1495.16293 1562.81914 1523.22079 1319.60974 1190.68613 876.09570 809.16695 778.68453 674.06327 697.60949 619.81347 503.25402 512.85485 548.51480 529.61940 587.32958 578.82329 559.46864 471.43883 374.98748 370.73923 382.17894 399.95198 400.18158 404.69304 294.55087 168.28746 85.26164 59.06657 -3.10180 -13.55346 -30.27257 -58.27351 -68.25379 -88.25218 -106.33094 -122.23474 -126.00180 -149.57296 -160.02452 -161.55193 -163.21171 -166.36868 -163.03681 -161.39031 -159.21152 -157.79831 -155.99216 -155.80924 -154.56825 -150.42504 -148.25330 -150.95850 -167.55327 -173.43171 -202.77761 -203.69635 -209.50776 -230.77326 -248.73335 -256.28574 -397.30223 -463.97304 -519.05384 -679.35433 -794.24492 -940.74736 -971.87879 -971.96380 -889.59768 -852.06197 -753.37701 -654.84353 -602.59639 -592.42569 -625.44227 -609.22612 -660.14569 -690.16546 -897.00505 -901.44295 -1010.91861
1006.97109 888.29711 949.83141 1030.39926 1030.71286 944.57997 956.58868 1106.12029 1283.36069 1362.08740 1463.80455 1499.88571 1311.99176 1106.34179 962.51007 932.89250 853.11785 807.67072 709.51424 690.85873 618.70870 619.59268 621.33744 599.35635 637.00268 676.85949 669.25820 579.89838 469.07859 470.23203 487.65990 536.99993 536.78413 488.07724 340.91244 198.10987 100.85543 65.69591 37.41363 -3.52507 -15.40108 -36.83062 -53.28456 -89.21330 -95.85896 -117.76553 -128.22501 -143.99332 -154.12932 -158.77143 -160.56761 -161.73211 -161.99680 -159.34833 -157.16711 -154.28818 -154.62571 -155.06854 -151.91959 -148.34052 -145.09090 -143.49926 -145.82863 -144.84369 -164.67917 -169.28124 -190.43635 -199.57012 -228.65524 -250.22726 -297.67333 -401.22004 -570.19636 -694.20400 -812.40785 -854.25107 -942.03953 -912.13645 -860.99190 -814.14360 -698.99128 -606.68468 -541.76055 -532.52651 -539.36956 -536.16030 -566.21401 -607.65709 -728.83078 -792.46729 -683.99163
649.44915 769.12313 769.82782 969.19380 924.31350 913.13571 899.89391 1000.20733 1097.99021 1204.91500 1275.80436 1371.19066 1295.97499 1145.21392 1072.74332 1074.85355 1045.55625 914.97385 737.34417 712.65611 711.56034 676.07990 660.95925 678.61317 678.88579 701.66325 691.71583 625.35408 597.40203 602.82904 670.57484 697.56443 654.48829 541.61144 466.25895 271.07476 175.39396 106.60724 42.42343 2.79571 -5.10522 -21.63367 -40.38702 -69.27345 -87.91894 -113.46135 -127.00159 -130.38685 -149.18793 -151.33473 -155.43656 -155.12066 -156.54245 -155.61685 -153.92675 -150.40856 -150.66144 -149.10379 -147.80975 -146.48983 -145.42892 -139.92363 -137.28041 -137.50992 -140.91921 -145.77885 -155.37896 -161.32419 -190.55022 -238.42194 -256.18240 -360.65049 -492.90447 -671.51749 -813.38657 -863.42876 -885.69892 -825.28823 -790.47320 -712.53108 -668.96837 -514.51636 -522.61209 -503.08089 -477.79119 -505.19939 -525.77425 -565.21331 -669.46382 -683.04941 -774.52421
736.36414 652.35512 719.39084 792.91081 836.66566 807.33383 797.72978 901.63932 937.32230 1024.08372 1214.98182 1213.54189 1212.27023 1175.67280 1107.87467 1114.19761 1085.70497 979.66046 831.75889 835.38764 757.75251 689.12029 671.70672 641.90147 669.87589 686.18385 685.41607 635.91422 631.72960 648.47226 702.06216 691.75970 665.42753 532.87894 366.28109 279.39857 158.50802 92.32355 73.34022 29.20727 -0.66860 -15.83378 -28.88407 -54.33360 -66.35358 -95.86910 -121.57730 -127.39082 -138.64413 -148.08899 -150.39633 -152.06012 -152.43080 -154.05695 -153.54587 -149.90506 -149.04437 -146.16617 -145.09750 -144.91765 -140.53772 -137.73982 -135.22224 -132.63273 -137.98401 -136.39645 -135.15860 -140.48289 -153.68005 -196.15428 -259.69329 -345.62791 -440.29689 -685.96860 -761.75337 -819.66953 -797.59063 -792.05342 -698.91002 -690.96008 -559.06714 -514.17139 -443.38832 -416.05186 -421.33782 -444.74966 -490.94477 -499.68878 -599.82538 -592.07461 -501.59982
482.83708 567.84610 654.42348 690.26129 713.57076 716.88585 728.03429 748.02910 820.23986 851.56710 937.73236 992.50560 1161.07857 1111.95198 1053.77790 1116.11605 938.94404 931.30405 893.41653 891.83971 816.67551 690.48754 672.89547 634.32080 649.41408 652.49234 631.89184 576.26090 595.64205 560.95965 565.07008 612.28783 528.94545 468.81813 344.46308 289.47810 165.77049 121.49720 79.20448 33.34780 16.28813 -8.21241 -15.55602 -35.83845 -56.47311 -88.53892 -99.49870 -120.95410 -127.84836 -139.84250 -145.37705 -151.56739 -151.55541 -151.96476 -151.90199 -149.34002 -146.09471 -144.78893 -144.70947 -142.73178 -138.89501 -135.71143 -131.13838 -130.29111 -128.37464 -129.75943 -129.55916 -133.09923 -142.97120 -171.54912 -197.96730 -301.73096 -465.77586 -555.95985 -800.91991 -810.89466 -775.21232 -703.53837 -713.68390 -661.59677 -540.93955 -404.06271 -384.25158 -402.99643 -400.26829 -426.62081 -442.78993 -467.41328 -517.33597 -527.56258 -554.85526
647.51025 607.92817 585.61317 629.41255 642.70302 646.73058 647.65336 690.32150 715.63140 826.61153 853.40601 864.86350 968.96817 949.19335 918.05929 824.78187 808.31786 842.59477 874.57149 903.43057 826.01332 776.84326 657.88634 638.74837 616.01514 592.94229 598.92669 582.93226 563.49109 538.14510 508.92140 417.49791 363.40465 312.95719 257.36965 197.31163 161.24220 131.62518 99.19926 69.56371 33.87552 23.92688 3.96750 -30.06326 -38.22392 -68.53883 -101.18573 -116.47554 -124.99010 -131.45945 -141.97081 -145.45454 -149.86823 -151.48897 -150.59632 -148.08253 -145.13953 -143.79022 -142.62745 -141.52643 -138.27450 -132.98465 -131.20659 -126.16290 -121.76636 -120.88521 -122.99176 -132.16206 -140.04377 -143.20999 -180.58485 -189.63998 -383.56656 -585.34897 -761.49036 -768.70862 -779.35773 -709.65522 -664.54183 -534.80160 -498.53947 -387.20338 -364.91713 -373.99343 -375.75757 -385.00408 -441.97700 -463.79783 -489.97965 -500.76989 -465.83614
865.51586 736.97202 635.71919 615.13271 598.81918 612.10884 613.40281 668.92490 666.16029 666.88628 755.83031 772.95528 777.22134 886.41973 825.71291 761.79687 763.89153 802.17358 856.40236 883.17919 877.32305 856.76068 772.86067 743.54267 645.14424 588.21389 597.47503 630.38940 596.59674 499.78558 408.61821 384.69343 334.65939 260.18464 156.71193 204.49224 196.41072 151.25717 128.55824 103.66359 75.59641 69.21253 59.47556 52.90478 -30.78076 -57.71341 -72.61159 -101.23685 -123.24936 -131.92190 -133.86356 -143.19330 -150.41718 -152.44474 -151.64876 -150.03036 -146.58299 -145.17329 -141.35932 -139.43101 -136.18893 -133.64276 -126.51402 -123.23697 -121.44183 -120.60356 -120.68272 -121.93412 -129.93614 -134.08042 -155.67046 -165.23835 -362.54135 -481.06672 -719.91586 -752.19197 -703.00690 -635.33652 -541.90853 -450.67786 -418.99760 -363.82368 -322.00328 -343.27229 -341.97412 -379.14070 -427.70706 -480.41384 -506.39159 -536.20365 -426.65462
873.80953 866.48358 826.25836 734.90960 715.24244 619.92349 635.14838 640.81235 634.78028 636.03558 675.56505 707.28114 764.13696 768.69233 759.97308 747.12281 738.41172 753.09981 787.20674 814.13004 865.82869 924.00416 871.46111 820.84568 767.77632 676.27852 680.93381 693.59516 650.41506 567.95277 354.37520 336.41422 263.88797 255.17253 236.89822 250.57435 226.47806 198.58289 165.42678 133.53938 118.49768 98.12470 83.15692 62.01980 31.94340 -17.78664 -57.71854 -65.63766 -103.71980 -123.11078 -132.05960 -144.49740 -150.02984 -153.67079 -152.38241 -148.91896 -147.10927 -146.58608 -140.10086 -138.65003 -136.85337 -131.18204 -129.04653 -122.58457 -121.23471 -120.16493 -120.84194 -122.44251 -123.86834 -129.03753 -137.55648 -188.43241 -215.66319 -503.70751 -571.00058 -644.87313 -611.97903 -530.56902 -430.30797 -389.13651 -395.56452 -301.16537 -284.08701 -290.21753 -308.12906 -364.16608 -407.80603 -487.89238 -558.92670 -646.25268 -756.80171
893.70956 858.65763 944.70544 969.90052 828.11534 723.89365 691.41944 749.87667 588.67041 582.57074 590.89992 618.08984 660.48631 668.11777 693.74999 694.33977 733.44148 720.06897 705.69981 728.28014 836.27812 867.64599 861.50205 869.26447 800.63461 829.94721 785.97787 811.05498 741.15057 556.88464 370.36544 357.04922 327.31177 295.10982 325.67284 309.33058 289.03234 207.14615 187.31243 134.24661 110.54199 83.08749 97.55647 74.96928 43.73766 -7.16760 -40.70958 -59.41336 -90.60881 -103.51312 -123.56244 -130.76340 -145.50249 -153.90083 -154.38876 -150.79387 -149.31051 -145.96572 -141.26290 -137.96349 -135.24304 -129.99267 -129.28822 -122.58625 -118.89206 -119.87154 -120.97271 -122.58710 -124.77570 -125.95037 -125.76513 -183.44551 -283.18740 -429.24914 -487.11156 -522.84460 -447.32914 -389.55528 -348.03971 -308.14731 -270.87083 -273.86090 -249.32216 -238.43744 -250.24556 -303.60165 -396.44453 -453.55014 -750.98742 -774.29264 -726.32169
787.05379 823.10571 953.17217 1107.45989 1082.51207 961.53189 918.07093 820.24727 723.59773 563.91218 500.68890 507.04000 583.29828 596.81225 670.79723 676.31610 634.86143 609.18085 625.26966 638.27808 674.32929 754.70266 811.02483 784.11556 762.95173 799.83523 800.81755 837.09194 746.81663 562.05079 424.06191 369.13232 325.52944 326.35384 323.36896 307.81387 254.42830 214.38591 128.76384 115.18214 79.54881 79.63635 90.08083 91.75183 55.21757 16.23900 -35.02163 -55.57094 -72.36450 -97.28128 -113.10461 -125.20636 -140.49764 -148.76411 -155.50756 -151.75635 -150.37593 -143.55561 -138.19700 -136.99203 -132.68218 -127.73111 -123.98921 -120.95058 -118.62270 -119.22898 -120.13593 -123.04703 -125.16238 -126.81882 -133.29345 -194.69695 -293.65417 -333.72462 -432.04511 -423.96210 -415.82733 -325.55408 -291.70559 -250.54228 -233.26298 -226.28142 -185.02703 -170.00675 -235.71052 -275.99225 -385.84943 -530.04746 -682.18390 -822.76360 -925.34393
1071.50329 947.55450 961.60692 1243.60480 1304.53256 1146.46623 985.23332 854.16311 750.61571 588.23403 490.76055 491.48505 519.30857 597.71714 661.38181 685.15712 588.03411 570.72034 585.97996 649.27586 682.70258 709.57027 632.20334 641.74749 710.28385 667.97443 783.13351 777.67782 696.09049 620.42574 453.43677 411.64020 321.56704 316.66856 306.25976 303.16430 247.27942 192.81649 125.23769 87.12159 63.32757 76.07850 108.02829 98.33140 87.01942 58.62652 -5.78155 -31.93731 -49.24555 -66.74174 -96.69756 -108.50084 -131.15810 -137.88114 -145.80914 -146.24293 -147.25071 -144.97736 -138.69750 -136.32819 -129.59174 -126.94401 -122.21181 -120.80124 -117.16592 -116.98069 -118.32162 -121.84872 -123.99291 -131.02977 -137.22693 -179.24361 -261.41278 -311.64862 -361.90655 -364.25142 -306.66021 -218.87413 -203.49484 -182.36865 -168.20081 -152.53425 -142.96038 -150.21068 -145.86910 -207.15472 -407.81484 -440.22578 -660.59687 -720.68328 -903.12358
1291.90799 1119.98124 1188.16712 1296.79389 1337.36915 1252.74151 1185.93112 974.40536 770.21068 618.66220 508.97759 500.59007 510.62138 563.71538 592.53457 606.25752 552.05173 515.75817 553.11771 570.42087 625.41377 626.60893 590.76795 545.81785 578.04221 611.35923 667.40141 698.94473 626.91056 544.29050 436.38668 419.17396 326.69423 313.34225 287.35020 255.58324 226.01962 170.47075 117.73123 87.60945 65.09867 75.17789 81.69997 84.61951 87.69391 69.39160 44.72241 -24.14980 -31.65924 -56.76751 -69.71525 -100.83621 -112.57275 -133.39516 -138.26686 -141.06757 -146.12568 -141.97519 -139.99084 -132.36065 -126.14481 -125.20605 -121.48075 -119.20666 -117.81509 -115.96084 -115.79981 -116.12355 -119.99412 -130.26224 -136.73528 -150.19310 -153.06306 -277.89481 -291.88882 -272.43866 -219.40973 -203.23770 -170.68303 -172.42615 -138.37389 -114.97292 -88.24147 -103.53764 -114.74632 -154.68995 -278.63781 -370.65552 -401.60264 -538.74297 -711.58479
1250.11945 1185.30035 1183.13136 1269.20701 1328.92145 1324.45019 1257.99176 1059.55681 919.74136 693.45301 590.52671 510.08179 508.49534 484.74788 491.97409 547.94979 462.07730 449.55227 430.41399 524.47182 572.84970 518.94316 533.68007 529.45576 527.10223 547.28085 583.28791 587.66164 551.70177 514.06147 430.47409 373.25008 346.94016 301.08737 282.20013 248.44141 197.15533 159.91510 114.30269 83.95172 64.03771 67.43572 63.86354 75.95643 99.27577 97.61367 42.12395 -20.33352 -31.35260 -41.12526 -64.99600 -79.52195 -88.98662 -115.65946 -130.12220 -140.04468 -143.15135 -141.48870 -136.77862 -132.38698 -126.13157 -122.02752 -120.32082 -118.33065 -116.34899 -115.49460 -115.34616 -115.32001 -116.93934 -119.02629 -132.53355 -138.77688 -148.66365 -163.32247 -194.01349 -193.64143 -192.27876 -167.99926 -138.08064 -126.52335 -120.07723 -107.65188 -70.24325 -68.88358 -76.59473 -118.73207 -168.05626 -257.39525 -382.17438 -366.40116 -194.55935
955.31105 1070.55570 1058.04307 1224.68063 1255.59404 1219.63947 1196.13492 1044.49699 952.98122 746.90451 651.77950 535.38585 530.36024 454.87462 496.06467 463.22352 451.19278 421.59104 407.46524 417.86489 422.35105 486.34371 465.56802 489.30725 523.38317 538.23912 535.13584 536.51223 472.73028 410.59620 368.63827 351.93946 323.17405 277.64190 246.87626 240.06398 212.38583 169.11858 123.77228 84.79808 62.57335 61.47790 64.79144 85.71288 103.86490 101.87751 64.57782 20.84545 -16.50476 -29.20343 -48.10114 -52.76579 -80.59026 -101.71736 -111.58765 -130.64178 -137.04354 -137.03796 -135.05315 -129.92503 -125.66036 -120.92178 -119.27883 -117.06250 -116.35033 -115.47847 -115.50239 -116.06675 -116.69664 -120.38169 -122.66959 -131.58673 -144.86609 -155.06657 -179.96687 -167.16591 -150.60820 -132.46077 -130.53029 -110.37710 -92.14916 -66.74232 -59.25453 -46.29813 -69.62758 -83.10216 -137.07244 -187.85078 -275.78794 -259.76831 -312.20674
987.55987 913.09028 987.17912 1056.04865 1105.25080 1085.90087 1082.97358 988.02794 887.76211 791.93019 703.27462 630.15941 579.26153 592.84254 547.75035 538.19803 440.92123 382.86232 365.74063 381.89409 408.83882 416.07511 463.61754 471.44768 489.84828 512.97592 513.56998 487.78705 421.55971 355.06228 335.65998 287.08772 304.58403 309.74446 311.61370 260.74435 251.39122 151.97796 125.94100 95.15900 74.73474 66.59511 75.25689 93.99535 117.16249 116.56223 65.22086 28.79418 10.61434 -5.10771 -25.84769 -38.63654 -61.97156 -88.98812 -103.76188 -122.29855 -129.95004 -131.83305 -129.33535 -127.74691 -123.04980 -120.68275 -118.34081 -116.76178 -116.39629 -115.92015 -115.70124 -116.14214 -117.37612 -120.40111 -122.64540 -125.27521 -136.16170 -154.12672 -154.16734 -145.63884 -140.96833 -124.37626 -116.74593 -98.64261 -88.29490 -63.03841 -43.44429 -39.89480 -49.86818 -83.40919 -106.39583 -130.96351 -213.70195 -207.82988 -240.21983
762.65108 838.12068 891.31866 984.15076 1004.28801 992.81066 1002.71599 998.09692 914.49998 857.46598 755.00625 700.35388 700.41943 758.99064 743.10978 556.82874 441.45439 418.71891 367.20913 351.28881 351.87000 349.52539 398.71126 426.54518 465.50120 469.83430 473.07568 441.63444 402.38168 322.23492 333.46471 295.78625 347.15294 404.32609 392.27445 365.13397 273.37045 141.19291 109.39819 103.97250 83.27512 69.28633 82.34722 92.15725 102.92202 106.57516 75.53726 50.79862 31.25921 -2.39411 -7.28280 -30.33146 -45.36485 -71.36169 -98.13217 -114.00278 -119.91273 -126.33641 -127.05264 -125.45294 -123.30559 -119.41247 -118.40693 -116.83269 -116.41639 -116.34980 -116.23136 -116.41193 -117.05082 -117.70641 -120.98221 -123.02795 -132.85652 -134.48551 -133.11731 -125.01653 -124.59757 -120.07911 -117.90306 -110.69810 -83.61144 -61.82506 -47.30628 -43.05001 -40.65737 -83.46722 -97.57778 -123.44386 -164.30453 -175.93994 -144.55000
817.26106 827.94087 827.24061 925.12620 961.27636 1073.58006 1072.90352 1039.14692 978.70313 950.20733 912.06537 846.21923 887.05521 890.65900 886.52760 722.22999 572.12136 430.37960 399.83387 344.45241 298.88240 304.59679 344.74328 417.40358 444.68676 449.65590 456.90259 447.97701 428.85368 401.46182 361.16204 371.38244 423.21034 464.69867 426.91358 355.39273 256.70344 205.52120 126.84689 88.95170 78.92508 64.39810 49.69515 86.04836 121.01622 122.62608 106.24647 76.53556 32.21913 8.89604 -5.69803 -20.77127 -43.86057 -64.98901 -88.80763 -106.12479 -115.08033 -126.04778 -125.97696 -124.88715 -122.16634 -119.88561 -118.44302 -117.29374 -117.04496 -116.40124 -116.51020 -116.47595 -116.95827 -117.13173 -118.95390 -121.15902 -121.34462 -120.53597 -121.20784 -121.86981 -120.38950 -118.20757 -112.91535 -108.06857 -87.67231 -78.95691 -61.60189 -52.24662 -49.96233 -55.90562 -90.78384 -115.58629 -146.18947 -151.90307 -128.36621
931.49927 815.37024 705.98323 817.13419 974.07500 1061.56210 1173.44157 1096.77294 1067.21192 990.63310 994.73976 1062.72026 1137.06611 1135.60978 1172.56527 955.42074 848.18207 596.37597 430.59399 344.01214 281.72014 292.61909 336.92964 359.72868 412.19282 448.86263 468.81435 481.46476 469.92435 444.38306 440.01720 442.67075 453.38501 440.16414 416.96044 325.60913 246.97745 182.63969 150.75902 78.46348 63.52344 54.48104 63.96286 64.90477 109.18394 127.83087 125.77331 91.57700 48.44438 19.28042 2.92456 -20.77034 -37.90250 -60.65313 -85.38630 -94.82776 -114.56434 -125.76308 -124.78220 -124.08835 -121.42399 -119.03315 -118.39545 -117.04441 -115.05840 -115.39178 -115.50140 -116.29157 -116.32146 -116.66245 -116.83317 -118.61048 -119.63303 -120.05151 -120.06843 -120.39026 -118.95889 -115.87359 -110.84882 -107.05081 -94.85403 -99.68817 -86.44081 -61.18132 -52.49432 -57.40886 -84.32162 -93.97036 -128.57705 -127.45239 -148.56324
581.61218 698.74121 695.10798 744.13730 843.26895 1001.18141 1054.30990 1078.82128 1046.48017 1079.51622 1147.23470 1138.47314 1273.22934 1309.09552 1226.21633 1145.54215 950.59042 637.05794 503.35339 352.37856 251.96995 278.66917 288.56636 367.39345 401.47880 419.90961 416.19998 435.39556 446.53729 436.42564 380.86892 385.63123 395.13273 406.41300 340.37700 260.46133 185.42520 169.27642 119.10676 64.98458 44.44285 42.00482 23.27055 22.54557 85.15539 112.70182 130.78791 110.72687 68.85042 44.39688 12.27830 -6.65229 -30.11054 -49.85609 -68.14787 -95.14988 -111.11132 -122.24434 -125.50142 -123.31039 -122.23909 -118.82200 -117.65046 -115.62382 -114.56640 -113.97864 -114.59713 -115.26726 -115.94108 -115.92103 -115.43238 -115.70447 -116.51422 -118.52904 -119.25580 -118.61614 -117.48854 -115.53057 -111.38400 -108.03503 -105.71277 -100.73710 -87.75156 -75.27974 -60.68297 -63.55708 -78.67671 -89.20422 -93.98456 -106.84154 -120.14820
649.60044 555.89812 570.14467 655.36437 733.27678 861.09745 856.80402 1031.97013 1037.16779 1042.03821 1045.42079 1133.52092 1190.53261 1239.16339 1377.60784 1204.58727 1105.48611 846.92600 644.31463 356.84830 303.52518 299.57295 290.32281 303.96288 350.55701 339.71419 322.54842 342.87264 365.76264 356.91142 359.63697 348.50159 308.06513 302.79821 260.10772 221.99054 171.26523 130.55207 95.23949 60.20500 32.87505 24.54855 18.81341 13.33398 30.57872 84.40157 113.63334 107.18011 87.42964 60.18886 28.04043 -8.86913 -32.35285 -37.81051 -55.50311 -99.00221 -111.11562 -121.45395 -125.68542 -123.14767 -121.52932 -118.74691 -116.62679 -114.82305 -114.21487 -113.88480 -114.46811 -114.79363 -115.67992 -115.37824 -115.08776 -115.22515 -116.73011 -119.02675 -119.39634 -119.60779 -118.08045 -116.63001 -115.12246 -111.57466 -110.46023 -104.20965 -100.36349 -72.54934 -66.81666 -65.98726 -79.99421 -77.54935 -92.79039 -94.03488 -92.42934
515.65812 461.69580 500.89661 504.21892 649.50389 714.22963 802.55301 829.21168 914.19070 905.61933 954.97961 967.80368 962.91270 1097.06797 1195.57106 1207.35340 1111.68533 1007.29693 752.97747 586.96901 365.51500 307.41805 277.16580 246.31852 254.18381 311.89489 280.30934 265.81190 273.83954 285.02347 317.75437 293.15253 275.78145 240.62135 161.52905 161.95483 146.99852 110.40749 90.51977 62.10611 31.52634 16.69911 10.61765 10.56714 6.59125 38.25196 83.91163 90.70082 81.80246 61.08516 37.63533 -1.04801 -26.16523 -39.47044 -70.55279 -95.40468 -106.06735 -122.64969 -125.68537 -123.48551 -121.09102 -119.95516 -116.55279 -115.55321 -114.22125 -114.21939 -114.63553 -115.63217 -116.05689 -116.05728 -115.69102 -119.61895 -119.14881 -120.02654 -121.06020 -120.95673 -121.12626 -119.40796 -117.56940 -116.57824 -115.61279 -112.91385 -109.15910 -92.36784 -78.16207 -64.12710 -65.16626 -66.77225 -81.00658 -96.14041 -86.45089
408.29757 407.23348 462.35124 500.92424 559.29959 665.25327 641.89964 754.14156 818.04394 870.56662 859.40367 825.69177 840.90429 902.76740 1120.47829 1146.34463 1037.33304 931.37194 855.21707 613.61222 453.47580 329.87224 284.59775 235.43118 248.93812 251.32656 259.91555 235.33862 250.88001 257.72620 246.51095 226.75290 198.50231 147.44904 134.00695 130.76311 117.89739 102.22895 87.17412 58.69580 32.37805 19.48097 2.14381 2.42232 -0.95345 23.84932 45.56238 57.52370 49.09054 24.92968 12.27268 -19.09010 -22.24539 -39.33917 -57.77878 -83.34107 -104.61528 -124.90092 -125.70551 -124.46239 -121.06488 -118.97758 -117.19800 -116.06445 -114.28196 -114.45104 -114.86321 -115.75436 -116.58049 -117.93682 -119.85467 -122.41254 -124.29792 -122.52363 -123.76929 -124.76372 -123.86869 -123.20540 -120.43330 -118.96427 -117.18657 -116.76528 -115.32237 -103.62748 -79.62935 -62.69720 -60.39910 -64.17785 -85.50144 -106.32993 -95.74015
374.35016 405.66939 417.31296 480.56290 537.10213 553.44115 591.26153 623.86535 728.98467 779.97974 740.91877 719.91522 783.10977 884.47250 1029.21582 1030.06341 1026.71238 911.70125 821.84493 609.22705 480.11636 409.90112 289.31923 263.58920 226.60325 229.19566 219.38321 209.07765 209.06964 209.39594 189.51415 171.50667 163.43345 142.90452 125.48731 124.03537 114.65002 93.60835 65.87315 57.39541 35.69623 26.66083 5.14165 -1.73397 -1.83140 12.05137 21.93846 18.83399 6.12746 10.02052 -10.15042 -17.97938 -30.95293 -44.18487 -65.64543 -75.49987 -99.84703 -119.42695 -125.86435 -124.32226 -121.88079 -119.12457 -118.57650 -115.38218 -114.85533 -114.49841 -114.92215 -115.66329 -118.03737 -120.94481 -122.37267 -125.16341 -125.06335 -125.22185 -125.07301 -126.72329 -126.06767 -126.45500 -123.48404 -122.97473 -120.19975 -118.06998 -117.37982 -118.87694 -79.69803 -62.89097 -64.03553 -64.48782 -113.99762 -117.41971 -118.51369
466.80784 436.48862 420.18675 437.88018 447.83087 447.95127 509.30624 622.86176 676.29176 683.19003 630.95225 593.35056 588.89130 735.35644 889.31525 979.70369 978.86993 948.13767 819.45355 641.76195 553.92334 417.16253 305.84713 257.56607 215.76431 218.24201 206.73208 192.86624 185.49312 186.46283 189.04395 171.11722 161.30844 142.99400 129.68013 112.69449 105.64707 77.14361 66.26639 49.51605 47.37283 31.92545 20.07317 5.91158 4.20662 -2.82612 -4.10464 -5.07516 -10.67634 -12.75914 -19.48128 -23.55742 -35.41157 -40.15662 -59.93204 -81.36713 -103.97863 -114.83075 -123.69692 -122.58857 -121.71401 -118.68483 -116.33738 -114.65812 -114.26423 -113.39354 -113.60885 -116.64913 -118.38870 -120.82850 -122.33969 -126.08517 -128.16985 -127.39512 -128.32076 -127.53696 -130.35155 -131.63942 -127.85335 -126.22836 -124.31803 -121.57133 -119.50419 -120.40195 -102.19409 -83.44755 -74.44783 -76.97228 -97.88453 -116.82573 -116.73175
466.74237 451.86550 433.16020 383.36180 396.33274 410.36660 494.73391 637.02935 726.63893 693.85240 613.69618 569.30679 572.99495 630.57193 697.60764 893.03548 908.76344 892.53569 820.66239 626.96401 444.01135 351.40605 327.45715 243.00672 240.20366 203.76043 230.58739 181.55966 172.09407 157.80855 161.66842 160.15421 145.33438 140.88393 135.04963 114.55101 97.27774 75.18917 65.01606 55.57971 53.33995 43.94992 25.95211 19.72904 7.43754 1.44684 -5.50500 -8.56908 -14.68983 -18.54935 -22.33302 -27.16491 -40.70505 -45.39241 -63.05723 -83.79040 -102.61803 -114.58221 -118.97899 -119.30701 -117.97676 -115.33918 -114.62547 -113.44686 -111.77927 -112.09038 -112.10226 -114.43537 -118.18364 -120.43334 -123.62873 -128.74015 -130.53924 -130.61302 -130.66681 -130.38875 -134.36219 -133.31117 -133.11271 -130.68193 -126.27599 -124.92462 -124.06683 -125.38834 -110.57613 -93.12973 -82.72388 -87.20300 -97.68075 -114.64032 -111.33155
354.39152 403.37851 393.34050 373.46093 382.58609 405.21228 508.42550 547.78389 705.86115 702.79837 665.18411 596.24380 525.62308 595.40246 625.31202 658.85909 744.54754 790.46015 718.31089 598.02652 432.65241 401.31948 336.12741 317.52140 277.12239 276.32383 260.58585 181.53402 163.85846 138.99146 138.32630 138.86812 137.85393 135.11730 128.19517 114.29904 105.23978 86.60664 67.91000 60.75283 62.50606 40.26354 34.97829 28.22495 5.61079 0.44501 -6.86469 -11.18914 -15.22191 -24.93891 -31.11788 -32.71515 -43.24953 -53.58652 -64.39393 -84.66346 -102.96115 -108.07995 -113.53640 -113.84026 -115.08268 -112.12884 -111.53182 -109.26996 -106.65616 -107.35862 -108.91339 -113.99910 -119.30114 -120.44900 -124.93505 -129.81595 -131.76102 -132.21779 -132.64129 -134.85688 -136.95202 -137.40404 -135.42814 -132.90046 -133.27601 -131.84766 -129.75197 -127.23919 -116.80005 -110.82129 -99.79621 -93.69536 -110.79398 -118.44909 -122.75786
381.32906 346.42074 364.29197 350.84574 352.64088 367.17110 416.90144 525.78156 590.89170 651.72452 649.02309 547.22284 482.68710 461.85891 484.43579 526.24941 591.15350 641.20674 632.21152 564.53237 482.87635 435.43466 413.62620 424.29633 392.46490 391.82380 300.10650 242.85408 175.28944 154.46184 128.54604 131.56877 133.92777 126.26257 123.25091 113.20734 106.08648 90.25041 84.99333 80.86237 66.53911 53.13424 37.47003 20.45325 1.46059 -3.25418 -7.96184 -13.76172 -21.91103 -28.30731 -35.42283 -43.35032 -45.74379 -70.51084 -78.97426 -90.24478 -100.89969 -103.66800 -110.32547 -110.06672 -111.95063 -111.09021 -106.72520 -105.90952 -101.89526 -102.56883 -105.75264 -110.36707 -120.56164 -121.89278 -125.62209 -130.54106 -132.01746 -136.61060 -138.87940 -139.64884 -140.64949 -141.56629 -140.70516 -140.21181 -136.25261 -134.25820 -133.03751 -130.68393 -124.58226 -115.98841 -107.70638 -106.47404 -113.68267 -124.82943 -113.05873
350.46196 311.01243 300.85489 313.23207 310.27494 327.10195 405.92587 445.86812 587.14263 593.22178 586.38437 407.69129 392.99721 436.71753 462.92588 519.68876 558.30293 598.20283 600.74290 579.42870 500.53165 483.59874 482.22742 460.97578 496.88063 478.15619 379.63093 303.44938 208.37099 189.36327 152.96287 129.50974 131.27224 120.70941 109.08760 99.10434 102.03081 104.73151 100.90519 88.71399 77.14628 56.70320 49.75063 29.76648 4.34380 -8.47741 -12.93141 -14.98083 -23.26611 -33.50675 -40.02874 -40.68635 -44.43401 -65.79552 -86.38989 -96.78664 -98.08673 -99.02125 -99.54838 -107.94119 -109.18789 -108.49669 -105.16827 -100.98895 -99.17798 -99.90965 -103.82906 -111.96705 -116.82233 -123.44402 -124.71526 -126.36833 -139.79318 -140.51013 -143.07603 -144.28128 -146.67840 -147.39392 -145.39131 -142.51338 -138.71291 -136.00678 -132.80194 -131.68867 -126.21060 -123.40598 -123.53796 -120.51847 -130.02638 -137.10013 -114.71581
239.24713 271.06289 297.12973 301.32376 282.57448 300.59212 343.17869 419.16767 492.02193 549.70798 480.54255 411.13081 406.55307 437.44406 511.50630 552.22895 603.07353 644.17152 661.54652 630.82845 586.76165 572.99682 582.11976 562.38619 529.49990 517.10936 432.86223 338.99211 270.16975 215.32782 182.78058 158.55753 137.64841 131.38516 102.54495 92.37804 88.66785 91.11091 99.08441 88.85979 72.16103 64.76795 40.36724 26.93318 3.60401 -9.38377 -12.81845 -20.46688 -27.56111 -34.87452 -39.91455 -41.51051 -56.21015 -73.46258 -89.35352 -94.06683 -94.15548 -94.63561 -97.59797 -101.21720 -107.97596 -103.51084 -100.29223 -98.18741 -94.98623 -99.06138 -102.35603 -111.13993 -116.73134 -121.30226 -126.99770 -136.34129 -141.34480 -146.64464 -147.85978 -147.85674 -149.33583 -150.88723 -151.37139 -150.42797 -144.01617 -138.86948 -132.88434 -131.45563 -127.13507 -126.28831 -125.26084 -139.15642 -141.95664 -159.98445 -120.88280
145.46521 302.37865 307.29195 306.13607 287.02227 260.29265 256.48368 326.34407 433.37386 436.77114 401.64052 401.14514 385.48030 453.08199 530.14248 556.06022 596.85089 639.08568 655.51984 618.17994 630.67629 590.90043 594.19744 558.40816 526.73733 529.16534 509.72741 417.83391 295.94594 295.51097 261.22029 183.89446 146.22790 139.63953 128.76072 107.38418 78.36608 83.00053 85.70946 72.84832 68.08363 50.75457 45.40844 20.46797 -2.56242 -9.24656 -17.37077 -25.72941 -28.66202 -37.74836 -41.39580 -51.63329 -64.10203 -74.17864 -90.03953 -90.40546 -88.78831 -86.39095 -92.07195 -95.49644 -98.56614 -98.46111 -97.01114 -93.79627 -93.31859 -95.85757 -101.00660 -110.05139 -116.91177 -125.22713 -129.25019 -138.23515 -144.32323 -146.45609 -148.59845 -148.57533 -149.27649 -151.30131 -154.36150 -156.17583 -152.12967 -145.85526 -139.03495 -137.78137 -142.56083 -142.29250 -160.68498 -163.69810 -184.89820 -199.58609 -137.79599
397.52711 458.79209 364.13801 335.92867 285.22331 249.68041 237.94611 224.17501 265.21182 283.51727 293.02830 301.31271 369.25246 398.19535 462.92278 473.84748 542.79744 531.87461 549.29478 542.89404 540.22880 609.89150 603.54908 580.83937 495.16210 454.87246 445.16224 417.94303 373.78549 361.14630 346.61120 309.94989 212.61382 172.21289 161.01861 130.69396 95.31025 87.00778 77.58881 62.87545 55.66009 40.06124 26.91405 8.57669 0.67591 -9.68277 -18.50189 -24.18187 -33.32320 -38.58763 -53.13398 -72.51803 -75.87401 -84.32239 -86.17232 -87.27502 -85.19243 -87.32856 -85.86568 -88.25131 -95.79720 -93.83278 -93.57568 -91.83139 -90.81482 -93.22631 -100.65842 -110.46813 -119.10735 -122.80938 -130.61659 -139.58224 -146.20589 -150.15566 -150.19505 -148.68893 -149.44939 -155.71628 -158.82650 -161.07919 -164.25112 -161.26635 -150.37080 -151.50911 -158.21117 -164.92690 -172.37757 -213.35841 -251.56431 -261.87619 -324.66630
590.65681 519.55708 454.99605 352.85600 317.99872 274.28550 250.03269 210.23297 197.92856 200.35470 213.81815 263.34237 305.18648 371.27437 407.18599 459.41654 455.94096 448.15055 412.60376 416.06282 533.14458 577.62778 573.18680 527.08649 428.63208 382.69691 383.15816 360.34075 395.43970 398.46284 400.13088 322.71182 273.40305 225.34723 189.43162 181.07967 137.78835 98.03405 75.28698 55.86312 47.28719 25.27919 22.71473 13.76573 -1.40009 -9.83952 -18.26331 -23.62492 -30.81134 -42.35810 -56.59280 -74.68351 -84.60878 -85.66742 -86.98368 -84.14658 -80.32841 -82.07557 -81.21575 -87.60563 -92.53280 -94.19706 -92.52223 -89.90778 -88.21822 -93.90807 -102.92308 -110.75226 -118.96321 -127.12379 -129.43745 -139.87466 -150.87305 -153.47582 -149.88821 -157.06553 -158.96708 -157.07315 -174.33056 -172.35583 -175.99865 -184.68709 -163.11745 -175.09543 -184.70201 -212.26476 -220.84486 -257.58675 -312.25859 -332.13928 -268.16176
502.27603 447.95735 413.08796 414.89789 365.20804 325.42673 302.69135 222.69225 187.54085 178.04490 196.90277 198.60102 232.39744 264.13786 360.82909 363.45019 300.86621 285.24255 323.08878 323.91954 416.77135 474.61897 470.00985 464.87540 339.60184 330.73446 304.79287 308.05879 274.42102 359.16861 398.62182 343.82795 336.35377 241.83732 196.50492 197.33129 170.90400 166.97804 89.11417 61.30949 43.06890 31.00952 25.73402 7.93756 -2.08169 -7.55342 -20.03794 -20.85305 -33.33424 -41.15869 -50.13536 -78.35069 -90.37146 -91.89634 -81.71206 -72.78970 -69.72730 -72.69226 -77.15962 -80.72079 -87.74515 -91.14585 -87.57247 -86.66848 -85.85163 -95.03818 -102.96414 -117.24809 -127.35231 -133.14829 -133.52946 -144.20177 -149.25256 -156.50433 -184.92051 -186.32393 -187.34788 -219.09044 -200.57598 -202.90432 -214.72272 -220.84025 -261.47398 -238.28187 -241.28811 -353.63910 -398.18070 -375.16457 -377.88416 -396.61680 -364.54019
337.81997 393.13866 386.19682 409.95429 436.79199 397.03348 306.90010 202.39717 167.18599 167.66333 172.79561 188.14285 199.01850 224.53273 293.05545 321.16481 296.62147 286.57059 271.98551 284.45718 331.52821 401.28847 442.76810 397.30996 328.11135 249.45173 246.22797 281.25259 263.02547 283.70518 379.98818 388.78855 308.63349 225.26541 198.47739 205.73312 211.06690 168.96395 90.54379 58.65898 41.76347 29.32497 21.54964 7.31508 -4.79419 -10.44808 -16.47896 -25.22039 -33.55138 -41.14101 -59.09717 -83.37197 -97.63780 -92.32009 -78.99213 -71.24645 -68.76975 -69.56234 -75.02054 -80.89527 -86.17429 -89.80738 -88.12544 -84.55556 -84.51407 -93.99243 -107.04122 -119.55106 -128.25056 -133.88323 -137.97104 -142.64686 -152.63148 -168.34953 -184.39249 -202.23825 -211.22882 -220.96335 -224.30337 -229.25508 -244.23689 -252.85868 -263.17075 -267.68968 -294.08544 -358.78661 -405.91309 -426.63954 -436.21506 -429.19341 -422.67177
315.11333 337.81997 378.75499 433.21176 463.12968 486.66686 410.90303 97.39423 131.47482 167.64067 156.94838 202.99009 173.00426 249.54696 361.07816 348.77417 271.57814 276.01971 256.90042 236.88614 261.26795 470.54874 483.74772 351.35182 406.27098 252.17550 242.50420 315.77722 244.29835 303.88489 475.77118 397.08892 227.97843 141.39732 171.18938 212.48885 252.66985 126.36100 11.62362 26.27418 24.36796 16.38646 13.27430 -7.41947 -17.40347 -16.60198 -23.00983 -34.46183 -42.38236 -23.68484 -77.55334 -69.60614 -103.45550 -87.50239 -66.16417 -74.22316 -66.79305 -64.60414 -80.97874 -87.27000 -91.95330 -93.94047 -86.94350 -81.48569 -84.97258 -81.44364 -120.59000 -132.56091 -137.45007 -140.01590 -133.79521 -147.82269 -163.11609 -184.56758 -200.93544 -220.58400 -220.71940 -231.19788 -228.14339 -234.70679 -236.11510 -243.04661 -273.98282 -241.79393 -320.98120 -423.98778 -385.68664 -417.56401 -446.29059 -422.67177 -422.67177
