24.50781 23.79668 23.83425 28.06544 23.48338 25.57929 24.55830 25.26519 24.66537 23.68967 25.86799 23.98298 26.66170 26.84807 25.42456 25.50364 26.20913 24.81361 24.66119 25.75237 27.27615 26.19034 23.77883 25.07722 27.64108 26.21504 30.84526 30.60766 35.98430 38.52893 35.48467 35.96219 38.39661 34.86095 36.06401 39.95895 41.27620 35.34638 33.61328 32.47416 41.49351 47.24111 54.73109 61.86541 58.76384 58.32088 53.40344 51.08871 42.88726 41.09600 50.21263 51.53100 64.29508 71.67308 67.71892 61.30454 57.41008 56.83872 63.65406 74.00863 76.03704 74.45355 77.44586 68.41404 64.49356 66.75246 66.77422 66.43297 68.93407 72.04795 68.17358 61.92071 55.30140 52.71444 48.88084 47.97513 48.37144 62.03142 63.34171 59.13858 51.92332 47.63519 40.80703 32.13759 29.40943 31.83039 33.77876 31.27135 35.57919 43.01588 43.47205 47.13139 42.54541 38.07463 36.15309 30.32975 25.67416 28.14326 27.53742 27.79005 25.68933 27.00805 26.33119 28.89886 25.00826 27.44124 27.13287 24.60230 26.27364 26.00094 24.52394 23.60191 23.24384 22.86173 25.80666 24.46872 23.94234 25.52251 26.41606 25.87919 26.87662 24.93700 26.26098
27.83581 25.11967 26.02661 24.48798 25.81725 25.36027 24.69280 25.75002 24.86282 26.95953 25.48011 25.69726 26.40005 24.32995 24.80558 23.65463 27.90184 25.39508 24.55874 26.62834 28.82692 26.70911 25.07710 24.36940 26.72996 27.67834 27.38272 31.98065 32.25688 35.60125 37.23390 39.39047 41.62267 39.03335 37.85424 42.46987 44.17822 41.31791 36.28315 35.18563 40.16872 45.63673 56.32945 63.62027 67.50176 62.40736 56.22504 54.76165 49.54079 46.30609 48.36101 49.98447 66.34891 75.33641 71.62763 71.12155 64.37069 61.05930 67.71567 77.94920 81.71464 82.18484 82.40189 70.77220 71.49970 74.52988 73.88383 72.52622 77.61692 78.14904 75.32046 66.99772 62.73062 59.79745 53.28655 52.60127 59.37849 64.81367 63.35183 53.99785 48.69139 39.77393 36.49104 32.23680 33.21970 31.60571 35.27268 39.33691 41.83942 47.37522 49.35899 46.37830 41.51180 35.19562 31.33000 30.58464 30.19722 29.13193 29.26776 30.20788 28.34438 26.13651 26.35065 23.94528 26.57263 27.31750 26.51088 27.31038 25.90836 25.14751 25.78782 24.69162 27.21518 23.21763 25.94586 27.87412 26.22823 24.65701 25.47025 27.23593 23.01336 25.41342 26.49086
24.23692 25.88289 24.73352 23.80149 30.14521 22.97950 23.65157 24.60784 27.12445 26.07015 26.12635 25.70277 26.61929 25.41808 24.27623 26.60408 26.65408 27.17704 26.80916 26.66360 27.87539 28.48209 26.20068 26.20328 26.85081 27.35293 27.61044 27.72114 33.09697 33.41167 34.04146 37.27259 41.14251 40.03416 42.05826 44.51435 45.12060 45.12743 43.35564 40.50166 42.50424 43.60483 53.71566 60.56123 67.35988 70.02240 67.01360 59.56644 54.40935 49.30139 52.27752 56.39995 64.43100 73.79367 78.53790 80.03072 69.88513 68.41066 73.68422 79.63160 85.05456 86.52466 87.31413 82.44957 77.45481 83.88698 80.51688 82.92596 83.24150 83.46325 74.29916 73.51867 68.23831 63.07262 58.78268 59.28258 66.38290 69.28382 61.49886 55.73639 40.58968 39.35776 39.43006 37.24818 36.82274 34.88482 38.12294 44.85242 44.01288 47.14329 48.35905 43.89254 40.86669 37.26500 32.26777 33.46847 33.56709 31.88139 31.08689 32.33075 27.45196 27.00610 27.38572 25.01243 26.03670 27.61437 28.58438 27.03047 26.42296 23.72584 25.96657 23.49971 26.80737 23.65108 23.85235 24.27579 25.94292 27.00561 24.82107 24.49553 23.71221 24.45785 26.70339
24.12048 24.68206 25.03893 26.27081 25.34385 25.21875 26.65437 26.36191 24.65801 24.59037 23.54228 25.51308 25.40145 25.99625 26.02550 25.48865 26.77581 25.62327 24.28992 25.28420 27.67652 27.18819 27.97593 25.51797 26.39293 26.19313 26.92602 26.33652 26.13672 28.03163 28.96904 36.25859 39.94084 43.80963 45.35237 46.66147 49.44430 50.23130 49.27587 45.99776 46.36733 41.85842 51.61946 62.09501 66.64338 73.17448 73.09955 69.01040 58.51650 55.56230 58.50529 62.59356 66.16691 76.40866 83.62220 87.49274 76.14784 78.12881 83.11497 89.58663 92.39582 92.69057 93.77679 87.70832 88.37475 92.75759 87.07246 89.98434 89.93324 84.31440 77.26821 77.63572 71.96779 66.25816 62.47102 67.85631 73.59436 73.48819 61.34035 53.03860 46.72510 42.89137 42.74668 37.62803 34.27984 36.51922 43.67301 48.24858 56.01000 51.78403 49.10554 43.62567 39.18544 35.03788 34.30641 33.37240 34.26107 33.69019 28.24527 30.29595 27.85213 26.14588 26.95352 26.04003 27.12216 27.75659 26.33537 24.84723 25.43588 25.72946 26.08793 22.85183 23.69275 26.61862 25.66157 22.06516 27.03750 26.10741 24.99080 26.79861 27.02306 26.72621 28.18597
25.30158 26.31535 24.88058 26.61515 24.25475 23.84378 25.30345 25.02946 26.90869 24.72092 26.54836 25.90618 26.03934 23.90069 26.35454 24.66206 26.53801 25.93433 25.62545 26.11047 27.46240 27.44324 29.44762 28.20277 29.46813 29.58156 28.29575 27.96972 27.49773 29.19930 28.10841 32.27453 37.71899 42.82695 44.74535 51.01505 54.24854 55.80197 54.02344 53.15059 46.49744 44.82215 52.09403 59.89926 70.45485 76.59337 78.12439 74.40860 68.02555 63.46199 65.00119 69.50869 71.89687 79.16345 89.11808 89.59086 89.30611 85.05498 94.33165 97.47626 96.92913 99.62208 102.45555 97.81716 98.51880 94.87371 93.78919 96.50160 97.17705 88.55107 86.26868 84.21837 81.70617 78.14357 77.38097 78.51945 78.64788 76.34458 60.77704 51.97524 48.98933 48.99991 46.57752 39.85755 37.85777 47.12655 51.44276 55.04016 55.40860 54.39917 48.09587 43.29132 38.21001 37.19076 39.08779 40.78588 35.56561 35.73526 30.88461 33.52786 28.54192 30.36294 29.52709 27.79284 25.47456 27.81853 25.35294 23.64145 24.02564 25.06172 25.38687 23.31406 24.24550 26.46083 25.93635 24.49493 26.43492 23.17769 24.16222 25.62794 26.72925 22.28019 22.48640
24.62464 26.75385 24.75401 24.29295 27.96358 26.10832 25.72318 24.98772 25.53545 24.63547 23.02809 25.03799 26.53414 24.43923 25.92493 26.14861 29.25300 27.68543 29.21762 25.28903 26.47705 26.36936 28.57276 28.39501 28.46486 31.50144 30.76087 30.25116 30.56214 31.86649 34.91717 32.33231 35.90794 39.55624 44.34870 50.46239 54.20825 61.31936 61.27422 61.35356 53.44845 52.58815 52.74336 56.87273 70.31551 74.49568 78.17381 82.47781 75.02022 68.15527 70.15836 74.96647 80.01461 86.70600 90.96800 96.03903 100.24801 99.09447 98.83981 101.84561 105.01621 105.52504 100.07055 104.56263 104.50393 104.42603 102.71186 102.80597 101.65892 93.52216 92.75153 93.55736 88.36623 83.65990 86.86190 81.06496 84.31046 75.45246 61.25061 56.41894 57.78943 52.96066 44.70804 44.76345 46.74064 52.15305 56.63579 62.41738 62.97863 54.11568 46.57280 44.22957 44.00100 43.21629 44.66538 39.64907 38.83173 34.11023 32.41520 32.82679 29.87159 30.70196 28.60780 27.56941 25.81633 27.01462 29.12058 24.84227 25.55917 26.56487 27.82589 24.95075 26.46968 24.07547 24.77072 26.41232 25.12566 25.83460 25.62419 26.71965 23.27445 26.12793 24.46397
25.74991 26.01410 27.92164 25.82677 28.19902 26.14730 22.87147 26.66406 26.52953 26.42481 25.05271 25.97799 27.06603 26.87582 24.97964 27.30810 26.11907 26.97269 27.98405 27.82754 29.52943 28.69671 28.75690 29.39730 28.40164 32.73410 33.48415 35.98630 35.53643 37.63178 37.95686 34.43452 35.16552 35.96224 40.77278 47.59226 56.01547 63.38702 70.23313 67.72398 61.31044 57.87382 56.22623 55.34989 63.22802 70.46715 80.07783 83.58841 80.75010 75.73769 80.45986 82.83465 90.02217 91.72230 95.76514 102.57931 103.04811 101.49084 104.78447 106.38192 108.05507 109.42076 107.33010 108.30483 110.94475 106.18711 108.77477 105.66985 106.18249 100.60763 100.83839 98.90147 97.96830 92.75048 93.23236 90.42947 85.14739 72.99437 68.06869 63.00386 63.98814 56.11569 51.18479 50.28125 50.40427 57.44806 60.31596 66.60044 61.39450 55.63335 51.77146 52.35875 48.16549 47.35601 46.99176 42.45427 39.80275 33.95449 35.91347 33.28384 30.20287 30.15995 27.21710 26.94560 28.57965 26.30650 27.41781 25.11187 26.85496 25.67986 26.03347 26.38779 25.55451 24.55602 23.98102 23.50468 27.12895 24.23831 24.94854 27.15876 25.71581 26.00343 26.47572
25.60509 22.99781 24.20453 25.15582 23.15931 27.05321 25.45527 23.96200 25.42870 24.68487 24.02054 26.50501 25.61922 25.26417 27.04890 26.29181 26.70618 29.52274 28.52864 27.30912 28.34507 32.02910 28.80482 29.32931 26.77012 32.19002 33.98941 36.34528 37.04364 42.46526 42.20955 40.06562 37.89178 33.97027 37.54247 43.68395 48.74444 64.07625 68.12172 68.93948 72.54934 66.15887 66.70392 64.57605 60.44342 70.86221 78.54518 86.39420 87.75862 87.81316 90.89704 90.65133 93.29080 94.60567 104.00841 106.20843 104.69628 107.69017 107.95849 108.42710 107.02097 107.97052 108.57177 111.84638 108.08770 109.37920 109.86547 111.80831 106.30567 105.68839 105.78177 103.97427 103.82236 102.36531 99.00543 89.46980 89.31758 83.04503 76.53852 66.05628 68.33346 54.61801 52.55354 57.55367 62.92322 65.59665 73.14634 70.71265 63.24490 59.47849 55.08572 57.03293 51.20127 49.87370 47.81102 42.21053 38.49348 35.60418 34.22767 29.99804 30.11629 24.83016 26.00716 28.35883 25.63735 23.91464 26.87227 26.50074 27.25565 26.67284 26.11875 27.62369 26.60441 29.03713 24.23386 25.17141 24.19549 23.74220 25.03561 26.66097 27.52737 24.94962 25.70793
22.60490 24.71214 25.95710 25.69489 25.63218 25.88181 23.83815 23.91636 24.48155 23.43869 23.91040 24.04534 27.96494 24.57419 25.60267 25.05769 29.46717 26.24473 28.71024 29.66169 31.70291 31.59881 31.94920 32.22920 31.69080 29.86750 33.58948 36.21471 39.12939 46.73691 45.40284 42.71891 44.17942 41.21347 38.88873 40.50437 49.66666 60.25841 66.50564 73.33220 78.35090 76.64629 72.81248 74.59887 71.67761 69.98608 79.26156 87.22434 91.79308 94.04246 96.36850 98.51199 98.85086 103.32339 107.66925 109.13652 107.14991 108.60871 106.94384 107.03757 109.14818 107.43129 107.41481 108.77487 109.84686 108.77870 107.05717 109.93320 109.12466 108.72128 107.10023 106.97682 108.50898 109.34915 104.85528 102.08815 91.29383 86.97302 79.16389 73.41151 64.71379 58.10274 62.18115 61.50411 70.34717 77.74476 76.69980 73.79125 67.49117 59.80689 58.56729 54.19526 50.69131 45.14578 41.95053 38.37144 36.29603 35.13647 29.43464 27.77230 24.78292 25.49231 28.76719 25.23914 26.51273 25.81078 25.97730 25.73982 25.88769 24.83822 25.91705 25.76889 24.85390 26.10815 25.50731 25.19789 24.88530 24.93043 24.05888 26.30385 25.78492 24.94340 26.20712
25.15967 24.40351 27.27390 26.33773 22.73105 26.54596 25.42003 23.62999 24.31917 25.70338 26.09768 27.17247 25.74099 25.90756 28.20725 27.29152 26.59149 28.96850 29.47857 32.78454 29.63500 33.75098 35.57335 37.57254 34.93466 32.48559 32.54758 33.48636 37.99173 43.49098 46.95373 48.63008 50.98210 48.80971 45.94286 39.49074 49.06642 55.62228 66.72990 70.08777 79.17958 82.79119 79.80832 80.68356 82.66388 85.85478 85.71441 94.12471 98.32158 99.86848 103.69653 106.99933 106.76673 106.32348 110.37701 109.12997 105.72660 104.45171 105.49565 107.61439 106.69365 105.46498 107.82177 103.74360 105.39643 107.58360 106.87261 109.33863 109.37057 109.72047 108.55832 108.30991 108.04892 110.17180 108.06020 102.71263 100.71470 91.84809 89.66404 74.65370 68.88240 69.56508 74.38943 74.22434 80.75323 79.21430 78.35857 72.89450 64.94461 59.68949 49.67729 49.30760 46.06613 44.30747 38.39502 36.51688 32.91462 30.61238 27.95372 26.82534 26.48803 30.50634 28.19767 28.39795 27.52031 27.76579 28.42432 25.41212 27.13487 26.77946 25.95928 27.39098 24.70699 24.14531 24.57675 25.30384 23.79213 25.83795 27.02591 25.08714 29.38280 23.79652 25.45655
26.00942 24.20368 25.44192 25.99151 22.79579 25.71389 26.88335 26.08260 26.39454 22.45935 25.47078 23.77255 26.97924 27.08650 27.25803 25.70807 26.35569 27.35703 29.96383 32.08219 34.63712 34.82844 39.20304 38.58227 38.50416 36.69867 34.86086 36.86256 37.39941 39.83627 45.69025 53.01167 55.30833 55.13202 52.46300 46.75525 46.83926 53.23130 64.00418 66.71610 75.65037 87.32173 90.61674 91.76037 88.71759 94.08705 93.28876 96.55966 101.75376 109.50296 108.51186 107.04459 107.44412 108.11470 107.10975 107.24639 105.69110 106.14367 103.41415 105.22628 105.51074 105.50490 103.13527 104.00703 105.65903 106.05372 102.17945 106.56591 107.50910 105.33939 105.27642 108.46896 105.67465 109.11583 106.53306 104.98603 103.58095 93.60185 89.86545 83.27428 77.99557 79.70650 84.33871 85.75592 86.88193 85.19074 78.28609 70.34643 62.49519 55.09902 48.25147 44.66207 40.80397 38.32331 35.63265 33.96381 29.98839 28.87907 29.85965 31.87821 32.22250 31.30904 31.97219 29.28889 29.00804 28.20131 27.82735 27.53653 27.10739 26.04386 26.54620 24.84482 27.10378 25.71193 25.84358 25.96509 24.24781 23.14769 24.94739 25.33670 27.35484 26.38642 24.54686
23.40647 26.26428 25.32027 24.32043 26.80526 24.23806 25.15118 25.48768 26.62492 25.57614 26.62008 26.34375 27.12295 29.81591 28.61954 27.53952 28.84360 27.96985 28.38765 29.85972 34.56895 35.22868 38.87340 40.45995 44.20502 42.14622 42.35764 41.65337 38.80181 42.08577 43.89240 53.21072 58.01237 59.77571 57.74188 52.07982 53.95458 51.76838 55.27117 65.13239 74.30586 85.49680 93.43883 94.72648 98.42259 99.52166 100.16569 105.25525 105.50028 110.29841 107.46263 107.41095 107.10857 106.51485 104.50405 106.86668 104.46921 102.66104 103.32176 102.91149 103.30127 102.18701 106.34108 102.60568 104.10647 103.67947 102.92031 101.97554 104.50337 108.13804 104.67005 107.11069 107.93763 108.07055 107.59768 106.75359 105.68486 101.16209 95.40707 91.39971 88.13867 87.33113 90.45082 93.77385 88.17671 81.42459 76.08248 67.23599 60.31612 55.74408 49.28215 46.07620 37.94028 39.28823 33.67297 29.64892 32.30564 29.54720 29.94038 33.02022 34.40011 34.10444 32.52900 30.38823 26.94766 28.08835 27.48184 23.03111 27.15455 26.98307 25.65664 27.24196 23.44790 26.85196 26.63273 24.37592 24.46973 26.46256 25.46557 24.16866 26.38240 25.54973 23.63568
24.26995 26.13930 25.34352 23.28205 24.41831 25.90354 27.27251 25.99398 23.54826 23.66179 24.15626 24.50051 24.80771 25.92812 27.99142 26.65561 27.87290 29.62451 30.69188 30.82824 35.96611 37.11142 40.83297 43.33291 45.26320 47.43160 48.05127 51.79228 49.45153 48.00797 48.04030 51.69045 59.02408 66.27314 68.89368 62.36319 62.18551 63.76457 59.64849 59.58024 70.25615 85.08911 93.80715 99.42068 102.05932 107.96887 106.47338 107.35538 109.11289 106.56212 106.45765 103.48567 103.08386 104.89068 105.40369 101.51239 102.59692 98.99115 100.20463 104.86570 102.44820 102.08584 99.08450 102.13830 100.12876 100.64792 100.65232 102.82582 102.20197 103.34573 104.60245 103.43564 103.48056 104.67512 107.01999 106.27221 106.23842 105.31515 102.32692 99.35551 96.25334 97.30352 100.96469 97.78654 86.77943 81.56594 72.43926 66.52305 59.61039 57.32806 53.90547 49.66987 41.95569 35.31488 33.74946 31.75621 36.71869 34.52963 34.68011 37.02387 36.59565 35.03808 31.09705 29.67542 31.93819 29.61803 28.05220 27.80504 30.55008 27.54784 25.58268 26.64285 24.96095 27.81364 23.76113 23.79006 26.30642 24.78769 23.55958 26.71839 25.74461 25.61586 27.51763
27.10776 23.39666 26.51127 25.26303 26.28426 25.22459 24.48075 25.15975 23.17630 26.71505 25.34294 23.67957 25.98402 26.36580 24.56805 28.16239 29.48288 26.08759 27.73851 29.36767 31.00160 35.18110 39.64496 43.88401 44.92572 45.29132 49.35449 51.98320 55.94533 51.81170 56.65898 58.60376 57.24363 67.22451 72.51277 71.26114 69.33020 69.12175 66.18704 65.00777 69.33545 83.12710 92.96132 98.62592 103.56804 107.20508 108.06768 107.33983 107.68983 109.24209 108.45377 104.52460 102.91287 102.68657 103.72292 100.50225 100.92429 99.85921 99.79380 101.70598 99.32902 101.10509 102.55397 100.89521 99.66573 101.39869 99.20309 99.58453 99.95961 99.49842 102.92491 102.17296 103.88252 104.69156 105.47583 107.94237 108.41284 106.83389 105.53285 104.11595 105.11949 100.85381 100.91347 95.72868 91.64900 83.94811 74.65465 64.13604 60.93785 52.01867 50.94951 46.68458 40.24615 37.83502 32.50101 36.00753 40.89633 37.04286 40.91441 37.96689 36.64834 35.30863 34.14353 32.98614 32.34518 32.91741 29.92578 29.62281 28.61580 28.50586 28.22536 27.97725 25.60647 26.72688 27.36507 25.23432 25.60467 25.81490 26.61039 25.00580 26.02332 25.82851 25.26073
23.87580 24.74756 23.56162 27.07060 24.93320 25.11915 25.80923 26.49097 24.56455 25.63959 25.87948 26.32760 25.09931 25.91268 24.96371 26.01451 25.95232 27.64278 28.60032 29.77925 30.01829 33.58885 34.40223 37.82349 40.86113 44.38579 46.37840 52.76158 58.80280 60.43515 61.41809 65.47284 65.29235 71.65707 76.53339 78.41351 80.91323 79.36669 78.42348 81.97498 75.93823 83.36482 92.35432 99.75959 106.16609 106.75420 111.30866 105.53778 106.64270 106.08716 104.90127 105.41293 102.32853 102.86523 98.93858 99.68723 98.46712 98.14950 98.08214 99.74350 100.10480 98.86399 99.44168 101.72166 100.01789 98.27686 99.89933 101.29850 103.16696 101.47038 100.34337 99.23985 101.23883 103.93481 103.84478 106.58800 105.14279 106.72248 107.96744 109.38680 105.82491 106.75851 101.91786 93.00357 85.51461 79.77664 72.27579 66.61482 49.21302 50.52836 45.34019 39.58028 36.61743 40.16317 44.01037 50.34174 48.19279 45.27834 45.54821 42.60721 37.80686 35.54245 36.80563 35.41376 36.36743 35.80666 33.77180 29.74024 28.33441 28.30382 26.47497 27.10093 27.34444 24.95394 25.66286 26.13181 24.73192 24.23955 26.26065 26.40981 26.69505 21.47420 25.20136
24.81197 25.45327 27.49607 24.69100 26.00804 24.49900 25.08256 24.44328 27.55530 26.96224 26.72567 24.44693 24.59526 26.64671 26.03813 26.01532 27.15263 25.58297 25.55596 25.04306 28.24364 31.56062 30.25122 34.42761 35.77015 37.40958 45.98106 49.89991 54.09881 57.63260 62.53156 63.88192 69.84552 74.01107 80.51308 84.93013 84.08483 86.48611 87.68637 87.24153 88.59247 89.91744 97.40478 101.45100 103.45324 106.74610 106.69066 106.19698 104.94380 100.75700 104.35883 101.88863 102.98272 102.35892 96.42790 98.38344 97.69146 98.38852 98.71265 98.01981 97.73097 99.01407 96.95967 99.41934 98.47261 96.24376 100.22393 98.65462 99.12710 98.31535 100.16494 101.57949 99.93604 104.23543 103.93817 103.20516 106.11381 104.28500 107.58228 109.66365 111.17111 104.54883 97.66501 91.07161 83.96096 73.44251 63.47649 53.60847 50.44561 49.30479 49.31898 42.79843 47.71382 48.77635 46.52795 55.32673 50.60673 52.93904 50.99635 42.16613 41.45154 41.62079 40.32371 38.76651 37.50650 35.23926 33.41796 29.17970 28.36523 27.18662 25.14060 25.27294 25.17501 24.28536 25.65869 23.84724 23.64454 25.07837 24.59136 25.60962 24.93490 27.99089 27.30798
25.46127 24.73350 26.06367 25.42837 25.87192 25.56931 27.19692 26.19562 24.73636 27.74763 24.81064 25.02922 27.01831 25.43131 26.43500 24.42413 26.81099 25.22319 27.11121 25.54941 27.10894 28.73273 28.55674 30.55226 33.39284 37.55619 39.95516 41.31226 48.11095 50.71147 54.50219 59.94993 63.26681 70.14532 75.31066 82.40494 89.37699 93.71342 94.86553 97.49306 100.57294 97.89053 104.26761 105.99916 107.54244 106.48357 105.10137 106.50459 105.09091 102.26939 99.97788 101.71380 101.48967 99.69210 98.12374 97.20849 99.12148 99.65802 97.91050 98.96564 100.00333 98.86842 98.40179 97.31510 95.74852 98.66133 98.35907 101.00670 99.50538 98.93558 98.92412 99.78720 99.16132 98.46886 100.01704 102.16362 101.73517 104.29432 105.38573 108.38171 109.74756 106.64138 103.22767 95.64359 77.74971 72.97787 61.75148 62.03447 63.34088 57.01747 51.99250 54.12405 53.81893 57.39741 58.10440 61.26482 59.30193 56.25351 50.90689 51.84838 46.54700 46.73689 42.75824 41.31864 37.82558 33.98443 34.36183 29.45538 29.90289 24.57531 27.88417 28.24133 25.75812 27.30753 26.17304 24.30985 27.39431 25.08975 24.94437 24.04256 25.40034 25.24422 24.86014
25.95457 25.03274 27.81024 25.76342 24.68039 23.59604 25.08147 23.94027 24.43710 25.98565 25.07771 28.55940 26.76058 26.72119 28.77304 28.77769 28.27745 28.42582 27.71145 31.00640 29.42695 28.90737 27.76405 28.49630 29.82926 32.86965 37.70402 37.07947 38.81635 46.24084 47.98677 51.24813 59.73894 63.94140 68.15691 74.70899 83.55484 88.16972 98.46117 99.33977 104.27134 106.68348 108.88780 106.57650 107.79729 106.96148 102.20728 105.56418 102.50994 103.03704 101.20403 100.49223 100.23860 98.71103 99.43810 98.59940 97.42909 98.45140 96.50189 95.90947 96.36736 98.50117 96.73821 97.66863 97.25373 97.30929 97.05097 97.84717 98.47502 97.38876 98.45384 99.29531 98.12127 99.79912 100.00479 101.32569 100.73069 102.26976 106.87281 107.06330 107.66966 108.89553 106.03804 94.25501 85.64614 75.57014 71.93332 69.32672 70.46832 64.84384 63.74059 57.36106 58.76739 61.91779 66.16441 67.82427 62.50185 59.70464 55.75715 52.47824 48.32082 46.05146 41.28571 40.61576 36.39738 30.20879 30.89575 27.17727 28.26995 24.75531 27.18693 25.79861 28.14468 28.44135 26.42640 25.74132 24.03405 25.02297 24.12438 26.64261 26.97482 23.85661 23.50075
25.60276 26.17352 25.69501 23.98294 26.73902 24.39611 24.65172 26.46719 24.08231 25.60044 25.24276 22.35766 25.21471 29.11005 26.19303 28.22470 27.91057 30.97472 28.89591 30.91186 30.17892 29.12805 29.41440 29.08589 30.38534 30.93074 35.00539 32.31137 33.77157 41.12787 38.59518 44.02804 48.95383 58.71781 63.46980 70.71252 70.51818 82.63923 89.43996 99.62458 105.80543 105.51883 108.20649 106.44578 106.81779 104.55496 104.28287 102.73819 102.28175 100.46489 98.33016 98.80525 99.68760 97.95871 100.30752 97.57939 96.74586 96.08013 97.12111 98.78050 97.39383 96.13833 96.92115 96.19288 97.23334 97.46622 97.01879 97.17725 96.61833 98.03663 97.52253 98.41169 97.86374 98.71024 98.04810 100.69045 102.19725 100.35859 105.53385 106.36991 105.21168 108.24119 106.75893 97.26340 93.91742 87.31200 80.84621 78.61475 78.40325 74.44262 70.78832 66.87911 69.19345 70.30156 69.04458 69.98763 66.38099 59.76137 56.08767 50.39430 49.64170 43.60228 38.88562 38.30775 34.08489 28.83678 31.18692 28.02800 26.39654 27.67124 27.50869 25.95417 28.30248 25.59028 26.78067 23.08009 27.41793 25.30183 26.88897 26.83031 26.09798 26.17371 24.39535
23.64969 25.13184 26.26661 28.31049 25.28852 25.02916 26.96508 24.26846 25.39451 26.08452 27.80713 27.59147 27.95697 29.08140 29.30601 30.40226 31.03727 31.38534 32.59704 35.66014 33.63204 31.94373 31.70363 30.61327 31.13588 30.44187 32.15278 32.51903 33.49574 34.91954 36.38940 39.40369 43.73100 48.27780 55.21855 57.07914 65.13498 74.45606 88.40479 94.97925 106.10799 108.21802 107.33421 107.43536 103.81436 103.40921 104.15350 100.14612 101.43857 100.91310 99.24338 96.85217 96.96981 97.96354 96.06359 97.71709 97.45376 98.58592 95.53811 98.07353 96.11239 98.78081 94.07088 96.63952 97.08273 97.70043 97.07242 96.40622 96.22187 96.62340 94.72841 97.03956 97.32902 98.43924 98.51219 100.06375 100.21668 101.44701 102.12058 102.08452 106.40187 107.28887 106.09870 104.14432 100.71783 91.57544 91.64253 91.35447 88.59098 84.50141 76.09779 74.47585 74.36564 72.20354 70.44079 67.47251 62.35446 59.57993 53.74969 46.18222 45.53646 42.81817 36.48654 30.39710 31.73948 25.48998 26.66319 25.77709 26.98859 26.75810 27.86658 29.30791 29.39513 25.59170 26.49223 26.68944 27.08899 25.36604 23.23010 26.08843 25.12703 23.80093 23.14120
24.37108 23.59890 25.73795 23.55855 24.14650 24.19513 25.71028 25.84028 26.22782 27.65355 27.85733 28.30724 28.72856 29.61862 32.57130 33.01531 33.15142 32.81298 36.40773 36.20352 39.50641 36.60602 36.06128 35.30152 33.46894 31.75912 36.93038 36.54072 36.96063 39.55263 40.86961 42.75675 42.11394 46.53289 47.08855 57.23041 66.42091 75.78090 84.79372 97.64833 105.41377 107.56433 107.25452 104.97578 104.95341 103.37047 103.06452 98.76396 99.12582 96.09685 98.94945 96.86621 95.49953 95.32761 98.15133 97.23892 96.46729 97.63346 99.94171 96.11206 97.47164 98.40468 95.13767 97.28512 95.26390 97.19238 96.53103 96.99156 95.85200 97.20199 97.45935 95.64594 100.45909 97.36250 97.27545 95.73967 100.28707 97.46489 103.45053 105.00986 107.11451 104.50475 104.70379 106.70940 105.31017 103.41588 98.84657 96.39625 94.08107 86.71629 85.41780 81.54108 75.67262 70.67936 62.14483 56.52244 54.90403 51.82417 50.36392 41.92857 35.64811 38.12719 32.89558 32.52960 26.71128 28.57350 26.92766 28.40594 27.30656 25.70019 27.98088 29.54029 29.09027 25.92768 28.36443 26.48625 26.74343 25.57679 27.02967 25.71145 24.94198 23.25108 24.61454
25.25470 25.14052 27.03654 25.71624 22.93596 23.52325 22.87032 25.43924 27.13976 24.10835 25.99504 28.53012 29.55444 31.44391 31.89768 31.66149 32.94759 34.15885 34.56550 39.39219 39.86648 40.64558 41.77037 42.06187 39.92550 39.13526 39.75615 43.33089 39.30172 40.07714 45.70821 48.64027 49.14615 53.80425 60.59152 59.30263 64.84373 77.73128 82.77604 97.87734 105.33052 107.73619 106.72497 104.12351 102.32068 102.12772 98.64172 100.15217 99.02511 98.51437 97.82575 97.89160 98.95785 97.40775 98.51213 97.14371 97.82733 97.63611 95.58835 95.69183 96.44329 99.18754 97.39319 95.43246 97.36589 97.45154 97.14800 96.48715 96.12970 98.43625 97.57924 97.89838 97.95109 98.79456 96.66454 97.40787 98.46535 97.55128 102.55665 101.63960 101.28437 103.52478 106.80390 105.08805 107.52777 104.89037 106.25109 100.26863 93.45744 89.50031 86.02817 78.23213 72.04839 63.82011 56.49622 48.89761 46.86707 45.95804 46.94523 39.92895 37.81515 31.70736 33.85583 29.25860 28.80583 28.42930 28.65136 30.22558 29.83982 31.54442 29.30488 28.52249 29.15929 26.87897 26.23696 24.98898 24.41059 25.91009 27.19829 27.19463 24.50990 25.11340 29.18771
24.13446 23.51202 25.13408 26.42972 24.89235 25.76607 24.96142 24.24923 24.21498 26.58333 26.29141 26.56760 25.84843 27.43489 28.69827 31.55535 30.88925 34.33296 35.57904 37.39596 40.09885 44.20788 42.85882 44.10242 44.66952 49.75675 44.71013 45.54516 46.32428 43.51131 47.01534 53.29999 57.59048 64.19765 63.82201 73.11380 75.25629 81.16971 89.10702 99.77991 106.32384 104.53445 105.22809 104.94430 104.34682 103.34458 98.77165 99.98988 99.39870 98.57667 97.42882 98.63905 96.93334 97.34452 98.57490 99.12980 95.95115 96.84943 94.84630 97.07251 95.28212 96.69200 97.51382 96.55794 95.25585 97.60959 96.84830 97.59542 97.00991 97.03548 97.49337 98.89118 99.36729 100.34792 95.96509 98.09597 99.88298 100.66135 97.79189 100.40521 101.92660 103.20923 106.33686 107.06529 109.56303 110.18954 105.06669 100.35314 90.15631 86.51523 76.30277 70.98839 65.60261 59.01622 54.99899 47.19388 45.06443 39.58709 40.43580 36.12121 35.40523 32.98957 32.19408 33.80825 32.43093 30.82644 34.69509 30.48000 34.06583 31.04797 30.53130 28.05777 28.77384 26.63939 27.42561 26.77304 25.13935 27.40812 26.02839 25.68794 25.21285 25.27778 24.64500
25.69621 25.01904 24.81737 26.84311 25.67293 25.51964 27.32119 26.63191 24.36369 25.81599 26.45556 27.16019 27.67961 26.11479 29.97104 28.58766 28.83233 28.34831 29.28885 31.61266 36.46116 39.99705 41.06079 49.33219 47.38533 54.32352 52.86354 53.43921 53.40604 51.87158 51.82229 56.76327 64.03297 69.27429 74.24586 80.03574 86.34234 93.76859 97.35753 99.96709 105.42282 103.97656 102.71309 104.09956 101.08920 99.61015 100.49549 98.27934 98.97766 96.24831 98.88529 98.21776 96.34345 97.10155 99.17479 98.10038 97.95030 95.15105 96.77689 99.81599 97.24887 97.30488 97.57090 98.32022 95.33254 98.30555 98.48391 97.54912 93.65201 96.23636 98.33933 97.41041 94.87518 97.73802 96.55506 96.56900 97.35257 99.65635 100.02225 102.69181 101.08063 103.62984 105.71919 107.57450 109.48390 107.94612 106.58966 97.02530 87.95993 81.07308 73.92908 66.93310 62.07582 59.19729 60.47321 53.08017 48.43740 47.22723 40.16237 35.81016 33.58318 33.57004 34.58111 33.33021 34.10286 29.93089 35.74901 32.00234 32.37556 32.30954 30.27881 27.92101 28.22332 26.26228 26.56508 25.99960 24.80823 25.54501 25.79314 27.92277 24.56097 23.72784 26.43020
24.53820 25.69735 24.43384 27.26923 26.16009 25.21950 23.59352 23.46522 25.78071 24.59484 27.44022 25.17979 27.50263 28.67855 27.12891 25.76903 27.89027 29.61596 28.95692 30.68670 34.86836 40.73491 43.37348 44.81612 51.60433 53.99279 57.27693 59.21793 60.26901 59.69746 59.81355 61.82310 63.91188 81.57056 84.27436 86.26435 93.22524 95.38728 102.10196 105.29894 107.57751 104.53631 104.26668 101.85505 99.49937 99.77551 99.49942 98.81507 96.87281 98.63011 98.95139 96.01452 96.94625 97.31129 97.96167 96.58155 96.15213 97.55292 99.41085 96.66164 95.71738 97.37803 97.02937 95.60380 97.84160 97.02355 96.53074 97.61930 97.29759 97.87419 96.62686 96.68196 99.79528 97.79478 97.42298 98.17822 96.82406 98.93462 100.87290 102.81201 103.24158 102.56326 103.64046 105.45286 108.67867 108.87364 104.43053 99.42866 92.59306 83.43055 80.00418 74.54184 71.26474 64.69937 64.66972 62.87000 56.69690 49.62067 40.82093 38.69520 38.83504 39.64355 38.76139 37.37016 35.51418 32.67968 32.69117 30.54578 27.69214 28.40306 28.00546 26.04209 30.42296 27.13018 27.09580 25.76236 24.25248 25.71306 24.46464 24.60644 25.03201 23.20005 25.07122
24.68701 27.01841 25.20164 25.93486 25.05613 24.08191 24.23310 23.71694 24.96934 23.88692 25.10875 25.35739 24.64725 27.43294 25.54377 28.58684 28.80924 30.02994 31.81268 33.17453 36.18546 37.31031 39.85229 49.15019 54.01279 60.59254 60.98870 64.90997 66.29435 66.37058 65.52894 66.11326 73.30482 80.82099 89.59040 94.59165 102.23601 104.72033 105.55081 106.96206 106.51918 106.56443 104.17979 101.81712 100.19259 99.78405 98.76190 97.82975 98.62643 97.83635 94.88905 98.40590 95.31754 97.03292 95.94971 97.48753 96.22241 98.91788 98.10785 95.91556 96.89019 94.42131 98.66397 94.45364 96.97161 97.47476 95.74531 96.61798 100.76425 99.43474 96.30014 97.68600 98.43191 97.64742 96.87419 98.26264 96.37233 97.85830 99.36143 101.75697 100.50455 100.26096 101.49062 106.14686 106.13853 107.55921 103.67052 102.45269 95.51406 87.56292 91.19262 80.59978 78.92867 73.48070 68.93151 64.43516 55.08846 50.52239 42.36116 42.40174 43.87590 42.23282 41.28545 35.85588 37.29569 34.25483 33.10343 31.20962 27.63594 29.06572 28.00823 26.70097 24.91015 26.84549 27.52317 27.81666 24.38629 25.11079 22.85435 25.31176 25.47889 23.96968 26.10581
25.37008 23.74309 25.00516 26.87607 23.75137 24.25667 23.94190 27.66500 24.44454 24.28891 24.53090 27.41183 25.41986 27.24004 28.27158 28.58306 29.95166 32.94596 33.33317 37.71451 37.12026 40.83146 45.32123 51.75768 55.06172 58.26234 60.71521 62.41490 65.56315 69.72698 70.20698 71.79822 79.62109 82.55808 88.56809 98.10456 101.81289 106.64266 108.34878 107.70994 106.82095 105.53292 104.99549 100.91094 99.06642 96.90115 100.15684 96.60221 99.04585 100.09009 96.42452 99.35160 98.93685 99.58829 96.05918 97.22746 97.25578 97.91413 98.56403 96.60141 97.43607 98.38207 96.48889 96.39565 95.69888 96.85679 96.97933 96.80044 96.77273 96.62057 95.00446 97.98882 97.98700 96.02559 98.12080 96.75257 97.63209 98.08042 100.55540 98.86991 100.35799 99.58236 105.78768 105.96498 107.79039 109.66422 106.50910 106.92871 102.90828 98.67952 91.13051 84.93946 79.43537 75.42819 68.57290 63.71097 55.15585 47.95762 51.23673 48.93651 48.05380 49.27892 42.68578 40.12264 36.94748 32.34862 32.74291 32.93512 27.27438 28.99148 27.44553 26.63736 27.68853 26.60019 25.52327 25.31082 26.04191 27.39972 25.04228 26.34837 25.86541 26.11159 26.42363
25.99212 26.11241 26.96513 25.84849 26.55617 24.89948 24.78090 27.13379 24.04070 25.73079 24.18710 25.25300 25.89922 27.28449 26.93016 31.53283 30.48653 33.47820 36.18462 41.91258 41.70262 43.80418 49.63692 53.05255 51.01703 54.17805 57.83378 59.74843 61.03391 64.12208 66.69350 72.19511 76.32200 82.16040 86.68264 92.61269 101.28735 106.59630 110.84983 107.28340 105.57682 105.56951 101.82284 100.77540 99.95188 100.50317 98.55390 99.43495 95.76743 96.57374 96.43169 96.71529 94.66958 97.81257 97.94078 98.40218 99.03568 96.57696 96.55536 96.50487 96.41611 96.97926 96.48451 95.30113 96.15887 98.09368 94.80350 95.94633 96.92393 97.27035 93.90299 95.98033 95.92330 95.51705 96.13069 98.81929 97.66780 97.47132 98.24867 101.28954 100.48724 101.71358 102.19949 101.92242 105.26604 108.70377 108.50251 107.50213 102.66567 96.52811 93.65985 88.46000 83.58243 77.28982 68.59513 62.43765 59.25446 57.38139 53.88254 49.39635 48.66259 43.42204 41.73277 38.06451 38.99820 36.40330 31.57032 32.96956 28.62374 29.19265 28.63345 28.72958 26.14770 26.34753 25.21302 24.41826 24.52787 26.10608 25.27359 25.64156 25.62049 25.83822 25.11781
26.06519 25.93782 24.12272 22.68991 24.33296 24.79344 27.19875 25.50193 26.49178 25.67904 25.10138 28.07741 27.51752 28.00274 30.18505 31.92568 33.58652 36.96379 36.55553 41.22370 42.08916 44.97337 46.62390 49.59794 47.94160 49.08719 50.30952 50.94244 50.03429 54.66107 55.82103 64.13718 65.33557 74.43194 81.57939 91.55335 100.52706 104.37638 108.62997 107.19745 105.46729 106.18115 103.55148 101.54715 98.24682 98.66909 97.33030 98.55934 97.09926 98.10487 96.67690 97.78880 96.99710 99.95737 96.66782 98.92069 96.97768 97.77315 97.09334 97.55389 96.88434 95.66147 96.87530 98.81068 94.59827 96.14426 95.75104 93.97797 97.27714 94.35614 94.38763 95.50467 94.12098 95.81613 96.40797 97.62096 98.65462 98.23873 100.13310 98.40507 98.81590 100.33884 104.68947 103.28031 105.27472 107.42959 107.19169 109.53134 105.27894 98.07025 92.74239 86.56259 79.45992 69.80761 67.35291 63.37417 59.99238 54.54787 51.58503 48.83154 43.09743 42.36416 38.04250 36.37499 32.17534 35.10976 32.70255 33.08269 30.91801 28.57957 29.43569 25.85931 26.08225 25.06438 25.30130 24.38737 26.75671 24.71262 25.08522 24.47502 25.11088 24.52653 24.62916
23.27788 26.36908 24.34836 22.71213 25.09255 25.68943 25.22833 25.84991 24.85225 25.28714 25.17828 29.36445 28.61783 30.70945 30.45464 31.25879 33.82821 35.72745 40.66053 39.39877 40.76615 43.02745 45.50200 41.98024 42.34544 40.72149 42.32091 42.80476 44.56636 47.32456 50.28202 61.82017 64.22862 73.52121 82.51385 90.83823 97.69924 104.38884 108.03124 107.62033 106.76426 104.29358 102.40795 102.34161 97.61151 98.47520 96.97661 99.42360 98.64551 94.04625 96.58124 97.99131 99.33795 96.92230 97.93716 98.64158 96.01222 97.27315 99.70357 98.12243 98.83039 96.36379 97.33499 98.30171 100.36286 96.17396 95.20439 95.37132 96.36655 90.37836 93.28363 90.41357 95.64463 96.28770 95.49107 97.50212 95.75400 99.20151 98.21060 99.75721 97.74804 97.97432 102.53531 104.74680 106.62744 108.08929 108.01244 109.85247 102.09357 101.36426 87.24180 82.32567 76.31878 68.52193 67.91859 55.65798 51.76024 47.28329 41.61296 38.01743 37.22787 35.64242 32.96371 30.68237 30.53200 31.05580 30.67877 31.10775 28.62096 30.78100 25.95466 27.34209 27.26035 25.54909 25.94580 24.98360 26.44220 24.74983 26.44111 26.81584 25.61031 23.70300 24.73225
25.05568 24.17993 24.72446 24.57757 27.15475 26.40600 26.11268 26.20638 25.45087 28.43887 28.14301 27.28004 29.72022 31.43631 28.64814 31.97881 33.26297 33.27653 35.81148 37.49709 35.49273 41.04210 39.69655 38.23808 36.80990 35.53493 35.51262 39.60057 45.94235 52.91929 55.64508 59.05191 70.17332 73.62275 89.15641 91.74641 99.76871 107.20072 107.97828 109.25831 104.53376 102.72719 104.11512 100.92276 101.69676 99.49235 97.77425 98.16797 98.93018 96.92435 96.73163 99.42546 96.54345 98.93976 94.97568 97.77657 97.89615 97.44077 97.03589 95.88682 95.97956 95.18315 96.49153 96.07131 96.84220 94.82799 94.45778 93.30534 89.10506 92.39771 86.87692 85.75221 90.80975 95.70413 94.70566 96.29704 94.92764 99.03873 97.29743 96.74907 99.72716 99.96308 101.71775 104.46049 109.07216 109.88061 107.63186 108.06677 103.73908 97.41864 91.08941 83.84917 77.37896 72.72509 64.26044 57.01359 53.67424 44.20036 42.55265 40.27366 34.26490 35.10111 31.61488 30.69898 27.24352 30.60456 28.05667 31.44217 29.38158 28.54305 28.85397 24.37869 24.66894 25.63800 27.87872 23.74584 25.84806 24.59559 25.79602 25.69767 25.16843 24.00765 24.41722
25.81002 25.27999 25.32804 24.69062 24.00847 25.89822 27.64359 26.95383 25.92508 25.74918 25.68088 27.56283 28.27374 29.24094 27.20880 27.54929 29.95187 33.45213 31.65069 34.42234 32.99051 32.58010 34.50876 30.69267 35.43887 36.43191 41.33417 42.08195 43.97585 50.44132 54.52476 62.02525 69.87856 78.15039 88.37735 91.80921 103.94586 107.03608 108.72438 107.02156 108.39327 104.92468 103.90091 98.55512 99.34972 97.92429 96.89664 96.93706 98.10646 96.44876 99.59062 96.18604 95.47438 98.66639 97.69621 98.24600 99.81652 96.67671 97.92824 98.79100 96.18413 96.59355 93.84859 94.42667 93.80218 95.22095 93.91435 94.89009 85.25801 87.77992 78.35090 82.73453 87.09245 94.80035 94.45822 97.15547 96.04871 99.13713 98.96018 98.03007 100.82501 103.16338 100.31248 102.68602 105.50686 105.73910 108.78005 108.15586 102.16269 95.45464 90.18408 83.37268 76.80768 64.54704 60.37037 54.89613 51.02432 47.63762 41.21945 37.40454 33.60283 33.92624 29.09423 29.26781 27.57658 27.58491 27.22862 27.57292 24.70901 25.17989 27.75007 28.09190 26.10223 25.85409 25.38755 23.55829 26.51282 27.30013 23.22640 27.89434 26.58657 24.01551 24.25615
24.09593 23.81320 24.58340 26.19026 25.40356 24.26745 26.99092 27.09661 26.43774 26.71029 24.78874 28.88115 26.49560 30.60398 27.19705 28.91892 30.96321 30.79789 30.18673 28.74119 29.96257 32.43422 31.72786 34.10154 36.22193 39.18681 45.09520 49.89059 49.78920 54.54868 58.13847 63.87811 70.91720 80.64256 87.50284 91.75474 101.59390 104.10867 109.17783 107.16785 109.31492 104.70384 100.62832 99.68897 100.44929 98.23172 98.00333 97.04239 98.33388 95.26589 97.48057 97.37173 94.45854 96.41759 97.00791 97.47821 98.80123 96.15865 97.67500 96.40583 98.25259 96.36432 97.71621 96.22012 95.61207 91.38858 88.04493 92.41098 93.43682 87.48317 72.40692 74.17488 83.19182 92.06168 92.60929 94.83125 98.53462 100.76010 96.88677 98.81336 99.65856 100.17795 99.20539 104.07346 106.13719 107.47467 107.62367 109.27536 103.06430 91.78994 85.57513 75.34666 66.96707 63.54599 51.41969 47.53707 45.00648 38.91147 41.78893 39.24922 31.82243 32.08383 31.50786 30.93270 31.32034 29.01282 27.44486 27.54636 26.62355 27.49684 27.36558 27.73573 23.32857 27.48206 26.30334 25.75222 27.13865 26.17259 27.47999 26.55072 24.48345 24.74809 25.06889
24.47290 26.22483 25.33373 26.81075 22.83576 26.49989 23.56018 25.97453 24.11775 24.99127 25.03693 26.48091 26.82369 25.46214 25.33467 26.26514 27.05255 24.90754 29.56625 29.23200 31.05396 27.76242 30.07978 34.33545 41.68129 46.04897 51.33192 54.48855 57.63439 61.78252 63.49146 71.50636 77.36014 84.46976 90.62623 94.87490 97.72878 103.22817 107.83606 108.70859 106.44809 105.11681 103.98766 103.64759 101.25037 97.22047 99.24915 98.10719 96.94138 97.10548 98.85050 99.51326 96.93568 98.26129 97.75822 97.05884 97.86086 96.04281 99.76791 96.15805 97.61633 96.76631 95.97476 96.61706 95.32711 94.99996 86.10820 83.65608 84.87324 89.58775 69.86729 74.06917 86.84447 91.42081 93.32249 96.53670 99.20640 97.59986 98.74668 98.91046 98.47389 102.09450 104.22754 106.64472 105.67643 108.29908 110.61202 106.50843 105.24526 97.88562 90.45272 80.90241 72.84081 69.09006 56.74349 51.71323 45.06141 41.49626 36.63164 37.25383 36.03547 34.38465 38.51683 33.42720 31.52287 30.52121 29.48092 30.00138 27.68058 29.68995 24.85334 27.42549 25.89425 28.28031 29.02350 24.38556 24.62625 25.09447 26.02263 26.03376 24.53652 25.71807 25.96167
25.08392 23.81822 26.99489 23.83597 26.83538 25.27194 27.32093 25.15474 24.62380 23.06694 25.89182 27.19855 25.59668 27.79415 25.38966 27.03132 26.50666 28.78005 30.16579 29.77272 30.04723 31.20468 36.90776 36.76484 41.49038 43.26641 54.65169 59.73063 62.08508 66.23973 68.93742 73.36644 74.37359 82.15577 84.99907 89.62751 93.54096 101.21129 105.26022 107.36419 108.60176 105.76458 102.27312 98.87954 100.88912 97.86311 97.32361 97.85935 97.10745 98.04309 98.88238 96.60544 97.27065 97.92694 98.03037 98.35623 95.68132 94.80085 96.51127 95.66928 95.94994 98.48149 96.96878 97.56734 95.80970 96.85483 93.66750 91.29886 78.42505 75.66108 68.39185 63.99192 78.37766 87.81113 92.09490 96.40027 94.37426 98.08996 98.02075 100.66168 98.14426 100.97318 103.91195 103.78993 105.37870 107.05170 110.23025 107.17283 106.18182 99.17106 91.91495 89.58968 81.52558 77.57584 70.79895 59.29472 48.07943 48.29329 47.32604 45.36596 41.38811 43.03347 41.04740 37.47381 37.02494 36.81503 33.16779 31.72500 31.53079 31.63584 31.58791 30.26725 27.12686 27.99665 26.45368 23.91479 25.78044 25.23522 27.05202 24.11093 25.92810 26.24485 25.01773
24.65869 25.29216 25.75408 25.78004 26.15811 23.99333 26.93936 23.89467 24.39270 26.00905 25.07312 26.13882 27.80445 26.04701 28.13314 28.49915 27.00692 29.95681 31.50383 32.15429 34.15270 35.85706 39.43819 39.01749 43.76106 47.02633 49.32152 54.29979 57.35359 60.36778 66.19957 65.94013 65.27913 71.70323 80.28283 81.73605 89.63541 96.30857 103.96651 105.95520 106.77013 105.18105 101.15250 101.53113 100.66420 99.75471 99.22537 98.48969 98.21001 99.13740 98.50058 95.54062 99.81714 95.68006 96.94764 96.76313 97.66782 96.32375 96.67753 97.45018 96.85338 99.75555 95.54401 95.97811 94.93825 95.60891 96.34777 93.86102 79.93142 72.10194 69.07862 65.16290 66.94238 72.69344 80.87208 85.48901 93.89550 96.22810 98.51218 98.04375 96.29952 102.82994 103.25058 105.14564 106.98459 106.15512 109.79954 104.27383 101.50533 101.16285 94.59296 89.46396 84.15110 76.27776 75.61091 66.41881 56.68858 52.09792 55.23969 48.00367 48.19858 46.36868 42.51307 38.88513 39.73840 37.53233 34.18092 34.46714 31.40562 29.66801 30.11744 28.21279 27.63244 28.64041 27.74992 27.03429 24.93352 23.92509 24.20639 23.56875 26.43893 23.21587 26.89336
25.79588 24.95224 26.08395 25.79867 23.88818 27.46985 23.54535 26.84481 27.05554 25.80363 27.13806 25.56628 24.86349 24.72136 27.45757 26.75945 31.50681 30.56501 33.84424 33.67405 34.08687 36.64060 36.82274 38.92469 41.11052 43.96435 46.51125 47.38339 51.00322 54.60030 57.31628 56.07068 61.13031 65.21358 68.00515 79.00143 84.28103 92.64518 100.92263 103.69966 104.28331 105.32858 103.52071 100.84158 99.81974 100.74746 98.22862 99.13751 99.05557 96.48792 95.95077 98.10149 95.00141 97.34044 97.14570 97.26290 98.15351 97.62891 97.43476 97.94144 96.09374 97.18868 96.77652 97.64876 92.74517 95.33695 84.23273 83.38736 79.85875 80.09670 84.34385 83.08416 69.70259 59.73532 63.24840 74.01462 84.44179 91.28558 90.65866 90.35567 95.82819 96.58455 103.53676 103.29275 107.09880 108.83076 109.74442 104.45952 98.95002 94.04563 89.96331 83.00165 82.40085 76.76840 74.47654 66.68568 63.06391 60.66686 58.18474 51.82713 51.76631 46.33466 45.67635 42.91014 37.72239 33.70849 34.60079 29.48216 30.92317 28.56455 29.45582 28.94417 28.36407 27.64730 26.26745 26.98525 28.45739 25.48920 25.44876 24.46079 24.96975 25.51573 27.30441
26.81505 24.70422 25.27408 25.79465 24.70554 27.28360 23.00135 25.45727 26.53080 27.37438 27.61629 29.13845 27.13377 28.29008 27.72169 29.03400 30.24671 35.38730 35.80423 35.53781 35.81351 34.17544 32.48729 35.14407 35.90427 36.87650 40.99957 41.31101 42.15504 47.35497 49.47127 49.33369 54.91817 61.80458 65.79663 75.13829 81.02708 90.61282 101.21765 105.88453 105.65928 107.30298 105.31791 104.58805 100.35892 100.65370 100.09249 98.38168 99.62032 97.59559 96.46293 99.17933 96.57488 96.24532 96.36468 97.04338 96.15172 97.94905 99.63175 98.16609 97.79290 99.40349 97.79537 95.33705 94.26064 89.62465 87.38053 86.20298 83.42538 87.13762 91.38677 87.84855 85.04168 75.60278 69.18078 58.86070 74.17048 81.73997 80.72599 75.02513 84.31259 94.88208 101.51959 103.79921 106.09406 105.57427 104.63475 99.41540 94.84826 84.42820 80.51502 75.71160 73.54707 71.97006 70.09786 64.94381 63.82669 61.00245 56.45535 50.56566 44.39599 45.88704 39.30297 37.53632 34.25035 32.42118 31.67191 31.78139 27.33809 24.64530 28.64584 26.40501 30.26874 27.02946 28.22362 26.25784 29.33668 26.49851 25.32251 25.20623 24.42416 26.34137 25.37603
26.36805 24.58619 25.25025 25.92405 26.55175 26.08825 24.55418 25.30025 25.81443 27.71514 27.82925 27.41817 27.95958 29.92412 30.68329 29.30439 31.97508 29.77841 35.16830 29.63825 29.61064 29.65036 32.02779 31.38919 32.39010 32.15737 33.80477 38.78041 42.43645 42.43870 46.67229 52.02763 62.06889 59.80904 70.01033 75.92442 85.62077 96.68533 103.63447 107.33881 106.47645 105.52681 103.60248 101.88499 101.71846 100.33254 98.18216 101.33323 96.34780 97.16832 97.50097 95.81963 98.22257 94.13049 96.73674 95.80325 98.04836 96.97640 96.03783 96.73513 98.26213 95.84143 95.00464 95.81142 96.84615 93.45923 91.13451 90.35225 87.91112 89.63856 96.42930 93.66434 90.44990 92.32957 83.12926 62.07058 64.82615 67.26666 59.93497 65.21836 86.30165 93.22951 93.89248 100.05731 102.75249 103.70565 101.72826 95.35995 91.26374 78.06154 74.07198 67.41032 62.76478 62.48592 61.87344 62.79454 58.52459 56.29375 52.30734 51.69918 50.21513 46.77577 45.13582 39.49144 34.64395 34.67911 30.65084 31.46384 32.03458 27.62561 26.23816 28.13713 28.30109 26.21476 28.02111 25.25600 26.77084 25.53605 24.83888 26.03262 25.57603 24.31289 25.83804
25.58698 24.99813 27.44635 23.81984 26.67961 24.88990 26.01624 25.52974 26.37001 27.62752 27.41169 28.35258 25.82089 28.40432 28.20548 29.23391 28.06157 29.39516 27.80192 28.30707 26.27054 30.51059 33.44940 34.12602 35.93494 36.90868 39.57779 42.91991 44.94026 49.97933 52.36895 58.46946 65.58627 70.31769 76.45509 85.21208 90.88825 95.28261 100.78686 106.00556 106.59629 108.24798 105.40495 101.26823 102.06628 101.95176 100.11845 98.71663 95.95349 100.50516 98.50925 96.91000 99.52868 99.72208 96.35621 94.64929 94.51106 96.92391 96.53351 98.15812 96.24495 96.52273 97.26631 95.66861 96.48458 95.32421 94.79020 95.85647 90.04347 92.30413 95.66148 97.63230 96.94194 92.92592 82.76923 69.00567 58.36978 63.37709 55.67189 58.26108 75.83404 81.47430 83.95291 91.26917 92.61692 95.92349 88.85049 91.00671 85.19630 80.09998 70.96549 62.43760 54.90673 51.20573 52.19624 53.29388 54.78183 49.94846 46.26622 43.95093 48.94776 45.66934 48.01358 43.71319 38.78037 36.22310 34.79977 30.88086 31.27145 28.86709 28.64504 26.93961 26.04797 25.34783 26.23385 24.98100 27.64280 25.86742 24.89224 25.80370 26.09501 25.76278 24.97844
27.01774 26.38354 24.46872 24.96142 25.24819 25.79438 24.66418 24.77355 23.86327 25.45767 26.29673 27.07047 28.09000 25.37754 27.43191 25.93076 28.59602 28.82629 25.95271 28.43657 28.54814 35.02186 33.93420 36.37614 41.05697 46.50769 46.87164 51.38717 49.41481 55.81877 63.27520 66.40582 73.03081 79.15169 83.12354 84.07046 89.86688 96.06838 101.19300 103.81537 105.74878 106.14978 106.96927 103.01758 104.23035 100.16147 101.75223 98.95998 97.72943 98.38080 98.14018 96.61733 96.69622 97.20544 97.06198 97.98451 96.55354 96.99479 94.53754 99.23776 98.72901 94.97567 92.76194 95.93477 96.88042 95.36176 95.43990 93.31582 96.21697 93.43737 94.83469 97.75396 96.00769 92.68525 85.58121 83.21013 75.88175 71.92481 59.27848 53.80196 59.39216 55.02616 65.16905 71.07080 77.92827 78.90214 70.81197 69.10050 73.71593 71.92752 69.21207 63.60854 56.43175 49.20608 45.33375 45.88947 46.39496 42.03520 41.14383 41.55386 42.14702 43.34985 45.50481 41.45774 42.93538 37.91216 35.52660 35.05477 30.42114 33.56302 28.95553 25.96550 24.19929 24.69990 25.86887 25.97668 24.29229 25.64284 26.09935 24.04590 25.10435 25.70158 26.58411
26.57544 24.76538 27.09832 24.64800 25.62570 26.02033 25.59710 28.07545 27.52685 25.18164 24.91746 27.46440 28.06544 27.63167 26.92817 26.16333 25.22271 24.61004 26.30852 28.12242 30.61207 32.13460 36.48469 42.71859 44.82864 50.73448 52.09654 53.07997 56.26081 62.22721 68.10357 71.26735 72.39273 75.07009 76.19799 79.66636 82.84944 88.04572 91.32554 100.73184 104.93536 107.83441 107.42154 105.16253 103.19560 102.25098 100.68111 98.89686 100.09358 97.26135 98.74495 96.73538 98.29147 97.80424 99.30642 98.32695 97.61001 96.34433 95.29092 97.93782 96.16235 97.54014 98.16006 96.71445 98.46808 96.61572 96.18803 95.90118 96.23803 96.10731 96.55187 97.26386 96.29973 94.55766 98.30568 92.52077 91.55447 76.07693 69.11254 59.88101 49.93875 43.19069 45.98217 54.20208 57.79958 55.84445 53.94821 48.32404 58.77420 56.56623 61.57558 61.16463 56.76340 51.86964 47.69434 39.80481 41.32548 37.80530 36.64034 34.09793 37.81276 38.12928 39.58267 42.03125 39.22630 36.92851 37.79752 33.60828 29.39743 31.58547 27.76376 25.46384 26.09471 27.29911 27.34952 23.28091 24.80527 26.27215 21.71311 24.49025 22.15112 25.84144 25.86435
23.00078 26.86842 26.84144 24.29469 25.58935 27.96545 25.62570 25.86488 25.47774 24.64753 24.12692 26.25184 27.09319 26.84505 25.98409 24.51709 27.78830 26.24701 29.34689 31.19779 33.45514 35.75353 43.20767 44.53417 48.63576 53.92763 57.03116 61.88642 63.45431 66.25417 68.04974 69.00989 70.34932 71.57392 70.33415 67.68320 72.32447 81.04749 91.48111 98.89814 102.42333 108.30717 106.79187 105.41987 106.98170 102.96373 102.53830 101.67008 100.90048 99.12218 97.88739 99.23113 98.27433 95.40912 96.53443 96.04123 97.55364 97.16214 97.04795 97.03758 98.29780 97.73119 97.43015 97.89301 97.24030 95.95598 96.31224 94.94928 96.39547 99.55424 98.94386 97.04624 96.40322 98.49681 98.47724 99.11860 95.31222 91.93358 90.63293 75.58818 60.88281 55.88904 53.78504 50.79343 43.60307 37.74928 41.45379 36.59098 31.15279 38.26521 47.01346 48.64139 47.50248 49.05403 50.82858 42.65107 36.96890 35.94184 33.01136 30.16375 32.22218 30.97730 36.34246 36.94916 35.00810 38.62146 36.11378 33.39771 31.77362 30.69408 27.41402 26.58653 27.42922 25.83059 26.99986 26.39856 25.91902 24.63093 25.64713 25.91334 25.40579 27.37923 26.20926
26.59466 27.63248 26.24311 27.74062 25.11851 25.55530 26.88517 24.67627 27.55862 23.51429 24.67883 24.32292 26.69399 28.13643 27.08483 29.17389 29.36746 28.82939 34.10976 33.10027 34.59912 37.38296 40.65434 40.95707 48.83683 49.05118 57.55685 60.09356 60.85649 61.95137 62.55158 62.43895 63.68644 61.81014 54.99645 62.97034 69.40736 79.74002 87.86309 96.90339 104.24411 105.33851 109.02866 107.71197 105.87662 104.98502 102.12908 103.06396 100.62976 99.16527 96.74448 97.31753 97.35371 96.93522 97.96863 97.93823 97.51165 99.26933 99.12036 96.60529 96.27200 99.98944 98.22756 94.62397 94.74020 98.34108 97.18901 97.49595 97.52541 97.17934 99.09762 97.47134 98.34475 97.32130 97.41164 102.16603 97.51695 99.33752 93.38118 85.92830 81.05969 83.22618 74.99843 71.32972 72.95893 66.68195 55.14355 47.44334 46.11357 34.80923 34.18817 41.61153 38.30193 37.85799 41.91274 44.17336 39.81816 35.93827 35.56990 32.27464 30.26955 29.80484 31.51728 30.84305 33.53659 36.43133 35.76782 36.28346 32.22880 30.81120 26.83743 28.76930 27.21049 26.58829 25.59707 26.46567 24.99228 24.03835 24.12971 23.01767 25.12719 23.76399 23.48436
24.58924 24.52791 26.01924 26.06714 23.30531 27.05189 25.52136 24.19728 24.53093 23.68551 25.51819 27.31592 26.50997 26.85508 28.50510 27.31443 29.23921 30.86251 32.21007 33.24543 34.54028 36.57766 39.53695 39.44371 42.25593 47.69988 54.30535 55.07425 54.71010 52.70185 55.71058 51.84476 53.03069 52.83204 53.94240 62.33260 69.94459 82.32370 85.28062 99.09564 101.59177 105.80227 107.43084 108.65145 105.88236 103.64793 105.40767 101.81760 101.30125 100.33655 99.97061 99.69827 97.76349 98.20954 96.94204 98.36769 97.88226 98.34341 97.59989 97.78326 98.54360 98.40575 96.31633 97.43615 96.98635 98.83948 97.18119 95.68667 96.88032 99.52372 97.42081 99.72846 98.13633 100.33040 98.35559 101.97870 99.77542 100.40744 97.36383 97.61812 94.41647 96.10725 92.54984 90.33039 89.34130 79.93674 76.63627 61.76139 59.92001 43.80966 33.98104 31.12926 29.66457 35.58018 39.99799 37.52317 38.23505 37.44052 33.64296 29.05027 26.36641 27.68132 28.05928 28.05957 30.56763 32.14498 31.79919 31.07146 31.17115 29.64333 28.29393 28.15684 27.06164 28.91618 24.81800 27.10938 25.73864 24.22944 25.66662 25.76197 24.68429 23.76078 24.99516
23.12991 24.30628 26.04594 25.11268 25.57774 26.23512 24.85879 24.87354 25.90208 26.55142 25.78624 23.85201 29.75692 27.98465 28.22416 32.69687 30.42247 27.96087 29.60672 30.77254 31.36617 33.48192 35.97733 39.31767 43.46391 47.13564 52.58352 50.71605 49.51515 48.43391 46.62149 43.89304 49.05222 51.95609 61.64180 65.44371 72.72079 83.40348 92.38979 95.24404 97.82138 106.97411 108.06617 107.66448 106.62348 106.45605 107.13844 104.27709 103.36968 101.07895 100.21903 99.56755 99.56913 100.85776 97.67172 101.71249 97.09721 96.02385 97.25847 95.78134 96.42652 99.24543 96.61819 97.24287 97.98433 97.20686 96.42666 98.80959 99.52818 96.70126 97.18884 98.25061 98.29702 97.18043 100.12525 101.22603 99.49735 102.60968 102.16167 102.56902 104.32586 108.06299 104.38224 101.57860 97.88877 93.17707 85.67203 72.09847 69.49566 50.07999 42.86532 38.67439 34.17156 31.02317 29.57617 34.12890 31.58668 30.78439 29.53236 29.87183 26.87855 25.48490 28.42825 27.19605 26.48051 29.39933 31.09681 29.83841 27.93559 30.70768 28.51925 27.98025 25.60532 25.93847 26.53316 26.62510 25.07767 26.79238 25.92018 24.27046 26.26358 24.66578 25.69553
26.73775 26.13928 26.95482 23.30796 25.40403 26.04879 23.80676 26.82660 26.22010 25.81875 26.70253 25.81627 25.64613 27.52626 28.91313 28.49198 28.49078 28.81429 28.85873 29.00677 29.02930 32.55385 38.68583 42.98779 45.70392 46.98315 47.43089 45.66546 40.10714 40.43813 40.19218 41.85317 51.01355 53.06932 62.96407 70.18059 78.48649 81.57105 87.13291 91.28073 100.96974 102.94617 105.75431 110.50671 109.86549 107.29935 106.06147 105.04212 101.43955 103.53083 101.67819 101.34026 99.98415 99.27444 98.79061 97.52063 97.47672 99.19690 98.83217 98.35163 99.44969 96.03263 98.37826 99.89848 96.83958 95.79823 97.36896 98.16344 97.02791 96.05720 98.44351 97.49517 100.27983 100.71945 101.38910 102.44979 101.95516 106.37992 106.78623 106.87934 107.10391 107.86908 105.65709 102.66208 96.61494 89.27239 87.87939 76.93147 71.00610 71.55268 56.69980 51.80416 50.28370 42.11261 34.60325 31.22442 28.15181 28.00508 28.92588 26.63310 29.05573 26.38509 26.38988 26.65020 29.06060 29.41302 27.62592 26.76179 26.52261 26.83448 27.15423 27.46546 26.89732 26.57817 24.81055 22.83349 27.37574 25.96195 25.65608 24.69859 25.40898 24.31861 25.03454
24.82898 26.59851 25.49223 24.34288 27.99224 23.36244 22.30512 25.89818 26.08833 26.98995 27.22145 24.93119 25.53080 28.94939 28.15689 29.55546 27.11124 26.65040 26.32638 28.21121 31.16457 36.78793 39.45557 43.17033 44.51098 43.32154 42.73822 38.42199 38.50702 36.69670 43.71964 48.56500 58.90239 61.32278 66.60902 73.51001 74.44374 79.00130 78.32561 79.25445 91.57871 97.51720 103.30358 109.59818 110.15291 109.87670 107.51577 105.28464 100.94663 103.68261 101.10901 101.92657 100.73770 100.26837 99.77218 101.43779 99.01551 97.49889 100.06011 96.50611 96.33153 98.38690 97.79877 100.46016 101.37644 99.33567 98.66884 99.25114 98.65605 100.21238 97.94753 100.86368 97.73999 99.47640 103.67131 102.35705 106.70036 104.97970 105.68056 108.34757 107.01146 108.37785 103.98405 98.89966 95.26980 87.20028 83.15071 75.60011 73.41631 70.28489 65.91832 59.02311 56.39990 52.39143 44.06933 38.99623 33.21490 28.86513 29.78758 32.92228 29.47579 30.63676 26.85090 28.42029 29.24573 26.64531 26.75799 27.90685 25.31394 25.73620 26.74411 26.90946 27.52976 25.83468 25.14008 26.44112 25.79573 24.41444 24.64701 23.90015 25.32251 25.25131 25.83777
24.77357 26.93462 24.66384 25.81730 24.84608 26.09000 25.91259 26.00956 26.41271 24.72343 25.81736 24.32941 27.85372 25.91571 24.75036 26.93702 25.85228 26.00156 26.90259 31.35107 33.44773 34.61083 40.04484 40.60054 40.70412 37.19702 39.54815 36.20656 35.23246 39.10481 44.96117 52.53380 59.64076 64.46612 69.47795 70.29518 72.52369 72.99689 72.31669 79.55637 90.92419 95.87949 104.95120 105.45424 108.50376 108.97975 108.28633 107.37846 106.77365 106.05687 103.88693 102.60037 98.89441 102.56118 100.93982 98.45466 99.71315 99.01958 100.46303 97.78011 98.98093 99.09339 98.50821 99.66212 98.83568 99.04285 98.23710 96.96125 98.66840 101.69659 99.94516 99.01082 102.25374 104.45963 104.13678 104.73869 106.90182 106.16696 107.93796 108.66067 106.55614 104.94994 99.90870 96.47871 84.80109 76.69979 74.27638 69.02599 69.26512 65.73917 64.28276 67.00586 60.69618 58.27424 48.65463 38.90986 37.86044 34.34392 35.65273 35.24460 35.03466 31.72837 30.45487 27.24394 27.10975 24.85712 25.76310 26.62629 25.33505 27.33499 25.63324 26.52109 25.21632 26.95820 23.48041 24.62050 27.29719 23.86555 24.44035 23.32750 26.25858 25.31910 24.72426
23.41591 23.71315 24.89201 24.76310 27.00143 23.39760 23.78948 25.33964 25.86324 24.23618 25.75002 24.65150 23.90379 27.63593 25.29731 25.31440 25.72052 26.52358 30.37418 32.70273 35.12241 36.73673 36.50511 36.50229 36.42728 35.56459 31.40284 32.89856 37.34864 41.74513 47.61283 51.99257 60.14552 61.59992 63.42533 61.99210 59.95344 66.27846 74.14826 84.99221 88.33828 94.66301 97.91418 103.68054 107.32056 108.23847 107.49372 107.08202 106.05850 106.83133 105.88505 106.13288 102.49430 100.46317 100.77431 99.04202 99.73699 100.57775 102.03172 100.21087 103.86695 102.01126 102.42890 99.16211 99.36615 100.23997 103.37823 102.64938 99.66475 101.35309 102.78109 101.80358 102.66564 106.62465 106.81561 109.19091 108.73384 107.40188 105.55200 106.80312 101.88812 102.39972 98.51736 90.76501 83.13558 73.36544 66.41770 59.93867 59.65189 60.93986 56.17890 58.30000 58.46961 54.99382 51.03707 45.93660 43.13113 45.12005 44.86170 39.33733 38.63301 33.44728 30.71779 31.20530 29.20794 28.85699 26.71190 26.59544 28.79832 26.12875 24.22561 27.46674 22.81590 27.65441 27.78426 25.77004 24.93056 25.94354 24.75815 24.67175 22.92875 22.23253 25.87956
25.08670 23.68832 25.26045 27.59626 25.72994 26.62483 26.89205 25.17911 26.06411 24.72992 24.28873 27.22637 25.09257 25.29011 25.82360 27.89740 27.50113 27.87816 29.91053 33.78393 33.72963 33.78686 29.70754 34.73296 30.53504 32.63262 29.63344 34.01464 39.37932 42.59002 46.19532 49.50021 50.98822 52.30982 51.64216 57.18754 62.81489 71.31914 76.58350 79.21085 83.10657 90.28820 92.41955 96.41655 99.77742 103.70977 103.66373 105.73870 108.00397 107.68049 105.88471 104.93123 105.91767 103.14298 102.27010 100.83832 100.91153 100.92376 102.06990 101.12956 99.72076 99.21344 102.45710 101.05966 99.45599 99.78413 102.24023 100.92447 102.23318 100.89174 103.52353 104.01380 106.40016 106.19303 105.55902 108.47480 110.61139 107.93632 102.79366 99.09350 99.80429 92.26573 92.65200 88.50585 84.01795 77.57235 66.19722 53.72502 51.13209 56.15101 51.60951 50.74059 49.39582 54.26591 53.42175 51.38004 50.93646 47.96391 48.94537 43.75372 41.22256 36.30260 38.08269 36.84377 32.17649 29.85393 28.81527 27.37080 26.75004 27.11822 27.77231 25.38559 25.93924 25.85713 25.97522 24.20191 25.49007 24.57079 24.81518 25.27319 23.18171 25.64084 24.79329
23.88871 25.77798 24.92513 25.53495 24.02833 25.28280 26.52503 25.01979 26.87599 26.74618 25.06470 25.31990 24.23467 25.87459 25.92763 28.68948 27.95789 26.03596 31.84936 28.36490 30.40402 31.93646 29.17485 28.37644 31.01218 31.58808 33.89463 37.64585 40.37101 40.17007 43.56092 41.45854 44.52507 48.20425 55.48494 59.87515 66.11041 74.28528 74.95854 73.58930 73.82556 83.21113 84.80418 92.87084 98.11304 97.09339 98.52718 101.59438 103.97252 106.25291 108.60786 107.05080 107.17549 105.60118 103.44149 104.74837 100.53984 103.30016 105.51320 104.00342 102.85874 103.10806 103.11277 103.24077 104.87077 102.51914 101.22256 101.43444 102.96146 101.71249 103.97907 105.45627 105.46274 109.28902 107.01591 109.65097 109.24942 105.16046 101.21487 95.35755 88.89185 88.89932 83.44768 80.75783 78.36220 72.97627 62.78285 56.88046 49.67587 47.13348 44.03359 45.03108 46.72465 51.46411 52.58037 51.95767 51.36945 49.31886 44.71726 44.86979 40.89227 38.28226 35.82691 32.52860 35.38995 30.67231 30.09120 29.14297 29.46771 27.71341 25.69902 25.95346 27.13004 26.22440 25.93889 24.92345 23.93576 24.44439 24.85204 25.57412 24.76067 25.78882 26.29514
25.49198 27.96746 24.63500 26.42440 24.63657 25.21025 24.32203 26.51738 26.92227 27.23391 24.44640 24.93005 26.76114 26.78246 27.07486 26.80657 24.17713 25.79152 29.12955 26.77589 31.34237 28.71067 27.20251 29.70645 29.98203 33.20612 35.63971 33.33281 38.21755 38.55283 39.26299 40.51353 46.68533 49.01689 59.32517 62.93584 67.23745 70.07768 71.83874 69.47182 66.87528 74.33870 81.59720 89.86184 87.04523 85.04917 91.24309 93.21910 96.71646 102.64634 107.17289 107.06520 107.13430 108.10492 108.45274 105.66221 105.25805 105.17643 102.19706 104.87651 103.76963 104.80182 107.33162 105.31105 104.85593 103.68402 106.69427 102.33392 106.49253 104.04859 103.40597 106.23354 111.99411 108.45303 111.46861 109.16462 104.99997 102.40743 100.32829 91.36250 86.02604 77.51911 73.41587 75.45378 73.62834 68.21589 59.98830 52.24948 47.98193 41.43014 39.56210 39.57299 37.76626 38.77596 46.85456 46.31930 48.81714 50.29855 48.14876 41.10888 40.67438 35.72936 35.05281 32.64919 32.34979 31.47560 27.85863 30.62677 29.57523 27.46132 24.99471 26.43947 25.30125 25.29970 24.37373 24.25965 23.68425 25.60741 23.89373 24.20675 25.79940 26.32890 25.82598
23.59308 23.84028 24.03356 23.93742 25.88370 22.76328 24.62352 25.43741 24.68855 24.52956 26.09807 27.46571 23.94379 27.71907 28.08340 25.56748 25.62807 26.13972 29.51621 26.91687 27.12152 27.26722 25.72224 32.71798 31.44439 32.05902 34.27424 33.32357 33.68914 35.01430 38.36557 38.78850 49.58954 56.03001 59.29391 65.83422 68.54168 66.84688 63.89800 59.82766 69.16315 75.79709 80.66559 78.38564 76.32895 75.93613 82.63681 84.30768 93.28719 100.48791 105.71481 107.58029 109.09957 107.96692 107.98314 108.81576 106.97714 106.57105 107.57171 104.34479 107.55315 106.24067 104.76376 108.22875 106.57077 106.32336 106.78975 105.59141 106.22570 106.63163 109.70751 107.95769 107.81771 107.71497 108.72562 107.25276 105.52536 101.64488 95.62159 88.98025 81.39891 71.28424 69.03460 68.88074 68.18731 67.70489 60.15970 53.27096 49.87097 38.86019 39.59012 36.69192 36.41213 35.55642 37.78462 43.28671 44.87396 48.10532 41.17089 37.15751 34.77362 31.75571 33.36934 31.07803 27.72702 32.25786 29.71191 27.44192 28.89326 26.64543 25.18517 26.92172 28.82988 26.16194 26.70666 24.70477 26.04736 24.21315 26.39970 26.13380 27.38895 24.29631 26.00911
26.10749 25.64422 25.61796 27.66095 25.70143 25.34527 24.09334 26.04314 25.28960 24.92996 23.73221 24.70219 23.09434 25.35503 26.66294 28.07166 27.52697 26.22540 26.81401 28.46481 26.21509 25.78231 27.92478 30.21858 31.66608 31.26797 31.60914 29.24836 33.31069 33.44832 40.89136 43.66705 51.97296 54.12717 60.77561 60.57295 59.38223 56.19318 56.75430 56.60947 68.53049 76.83050 71.77602 68.37415 62.98963 68.12939 73.57286 75.73808 85.73872 95.04723 102.29135 105.08103 105.94005 107.29347 107.79744 109.22398 109.37566 108.39170 108.01835 109.29735 107.90308 106.63138 106.67082 107.66319 108.60317 107.53033 106.98689 108.42134 108.03455 107.71335 107.96654 106.17987 106.70322 104.67043 104.55102 102.01178 98.57198 95.40736 89.39215 85.81665 78.38032 69.64893 60.63881 62.96282 64.54173 66.95284 62.39554 58.72297 54.03070 48.06986 45.50100 38.43301 34.46843 33.36540 32.76422 35.43661 41.65210 43.42749 42.19100 40.03787 35.67391 32.79398 29.70742 27.64990 28.90791 25.86978 28.05609 28.47484 25.52631 26.28832 28.02217 26.49889 27.08120 25.18528 22.52673 25.30988 23.09634 23.78959 24.95748 23.28700 25.92556 26.07875 25.35362
25.25139 24.47114 27.22804 25.54663 26.59512 25.63614 26.01265 25.93659 26.08338 23.34072 25.31078 26.02974 26.21015 24.94928 24.49867 26.20634 26.18459 25.53426 26.71378 26.67507 28.45247 29.59154 26.44456 28.04135 28.20630 29.09725 28.85929 30.02410 35.74364 36.70168 41.93172 47.50404 52.32586 55.05028 56.30937 58.21312 54.69724 50.62077 54.62093 64.58957 71.37712 71.02079 69.27958 60.85388 56.79782 61.46579 67.38322 70.57414 79.20651 86.57496 98.93926 104.35713 105.05923 102.18816 108.31564 107.26133 109.92666 109.09682 110.36424 110.51820 108.67325 106.21653 103.16008 107.50169 110.14111 108.43486 106.26979 106.68642 104.53228 104.60196 101.46556 100.26567 104.70947 101.32349 96.40774 95.43912 97.64388 90.35995 84.89137 78.95587 75.02313 68.03414 54.12347 60.57304 57.41950 60.41069 61.91842 59.65307 55.55090 51.78205 47.51706 39.43703 34.49270 30.35101 32.52496 33.67431 35.83317 38.77281 42.48175 37.84435 37.30078 34.77137 29.92124 30.19592 26.91592 28.16788 26.60576 28.27758 24.97574 25.12036 26.84616 27.80004 25.61298 24.00790 26.84647 25.10694 25.94692 26.07276 24.70274 26.52242 26.22069 25.38666 25.65558
25.29920 25.23552 27.83581 24.87624 26.55002 24.67026 24.07476 25.59664 24.36609 26.17482 24.64449 25.48680 26.93725 25.93452 26.11970 25.25756 25.39783 27.93494 28.32713 26.99363 29.39016 25.67575 27.78781 25.26024 27.20901 29.54513 30.42660 32.07631 38.38598 40.15916 46.04932 48.72553 52.31607 55.74311 49.08488 48.12518 46.51865 48.26286 55.71741 63.74940 67.54877 66.40397 62.61502 58.44209 50.39187 48.92881 59.15921 68.02943 78.75957 90.36770 92.65796 94.57952 93.93282 98.18606 103.37539 105.30464 106.14331 108.64221 108.65960 108.49315 103.92861 103.68803 103.49368 103.96823 105.40624 104.69288 103.62793 99.75853 97.72614 98.28626 93.39709 91.06385 94.16005 97.31741 91.02870 88.68541 90.63968 86.62772 80.77105 73.20900 70.14044 68.01511 55.86316 52.52295 55.19079 58.84852 56.68199 54.10203 51.55297 50.00887 41.14590 39.72215 34.57652 33.29817 29.36145 31.98947 34.43081 34.94868 37.66874 37.10806 36.32663 36.27134 31.79514 30.47595 27.96719 27.56953 27.72901 25.29032 25.29100 27.52394 25.70647 24.83016 25.75830 25.91650 26.08509 25.76212 25.28099 25.93701 26.12071 24.56838 24.25930 25.29699 26.17008
25.20702 24.66728 24.77146 25.98586 25.58474 26.78331 25.54075 25.98171 25.01820 26.74907 25.89970 26.01974 25.77388 25.21669 25.74200 24.72499 28.08139 24.15522 27.54607 28.22310 27.01044 26.87377 26.46195 25.34904 29.91200 31.58238 34.34816 35.70611 39.39651 44.20838 42.91862 47.93334 47.71892 48.16640 44.25737 41.11912 42.59624 49.47792 58.31404 61.91087 61.85312 61.39146 55.51096 49.45914 45.30303 52.24969 58.87698 72.34356 83.04324 90.81246 90.63397 87.97551 90.82151 95.32279 98.67346 102.35920 102.15495 103.90758 104.48077 101.59043 103.87417 96.58885 97.07997 95.03093 96.98679 97.66085 96.41756 93.44010 86.56847 85.52545 87.48685 85.65839 80.90910 86.01677 79.82557 80.72684 84.12928 86.13651 82.57601 68.48324 67.05220 62.91799 57.14814 52.07343 46.56898 49.03645 45.97841 45.50998 46.92129 47.86387 44.33708 42.29333 37.97471 31.91264 28.45661 27.83642 28.00162 30.49196 29.46768 34.78929 35.10801 35.96964 33.20091 31.36359 28.44424 27.85003 25.48264 27.44885 27.85419 25.92715 21.41124 26.69129 24.42205 25.24986 25.64165 22.83063 25.27935 22.89205 23.71514 24.95905 24.93619 25.36852 26.08118
24.96486 23.57977 25.56852 26.96728 27.17481 26.61393 23.82559 25.02527 23.71946 26.22994 27.41619 25.07139 26.17040 23.38548 25.20686 28.69240 26.28410 26.61100 26.88566 24.34466 26.67469 26.50425 26.41161 28.93665 31.83806 34.53419 35.06072 34.37541 39.21839 39.35309 45.46749 42.03430 39.85404 41.94931 37.54317 39.29292 43.53204 47.12061 55.22158 57.36381 51.33405 48.91920 48.91172 45.96952 41.93325 49.67338 58.98604 70.94571 78.77104 81.42320 82.16632 81.53165 83.95816 86.91797 89.31164 95.44404 91.92319 93.20376 95.97029 98.01266 92.85308 87.30384 85.48176 85.51016 91.55984 87.24514 88.39792 85.04298 81.30295 77.03889 73.71047 72.70061 72.79295 74.56721 73.71675 69.99239 70.53465 80.19268 78.41580 72.51477 61.80626 59.34647 58.76308 54.88567 47.28980 42.36018 39.49041 39.05723 40.30103 42.23167 42.38422 39.99873 34.85071 34.42166 28.79706 26.52627 27.47956 29.63671 30.20571 31.96660 33.30119 31.02188 30.99294 30.57288 26.98959 29.42234 30.59197 25.24038 25.98164 25.55691 26.52848 26.69256 24.76433 25.98817 27.86626 25.05914 25.47028 27.81432 24.74807 24.45140 24.97352 25.23938 24.96539
23.13966 25.01864 25.87061 23.46368 25.83785 28.34006 25.61037 22.85897 24.55568 24.77576 24.67833 26.26669 24.56589 26.63947 25.85887 26.66821 26.89799 24.67255 24.21688 25.80873 26.63153 26.63040 28.07487 29.35464 31.82462 33.29450 33.42578 35.79379 37.53277 38.51549 38.91750 38.81233 36.67283 35.71870 34.31048 39.89406 45.61055 50.28972 54.59145 48.06417 45.76626 43.83436 40.44893 40.62834 44.66518 49.26732 60.86929 66.08159 74.81226 77.56092 74.57575 72.90364 71.65601 82.11646 84.84659 87.48852 86.43079 90.16693 91.68551 92.01005 91.87213 80.66436 71.80010 75.08163 86.96063 85.91002 78.64391 75.66967 75.46559 69.64420 63.93786 63.66611 63.83321 63.56200 67.42311 66.12228 67.92917 73.73431 77.01552 68.53555 65.88062 56.04045 49.11043 49.68754 51.71685 44.84383 43.01916 39.71599 36.51608 36.98499 39.20785 41.52281 35.83229 32.92576 32.65681 31.45448 26.37731 28.94316 29.16375 27.22840 29.20713 32.01264 32.04156 28.98041 29.41956 28.03155 27.34372 25.58123 25.25966 21.88645 25.57352 27.93356 24.94480 26.16797 24.42530 25.07669 25.03038 24.23885 23.39741 27.11697 23.42437 26.72048 28.12575
23.80728 25.06639 22.44652 24.62750 24.95949 25.92865 25.97718 26.48801 22.82044 24.20668 23.77773 25.82411 25.27189 24.05953 24.20003 25.75000 24.49866 24.95551 26.53868 23.77106 26.83506 27.18783 26.93093 34.16051 31.44642 31.24882 29.98623 34.40327 33.69507 34.76393 35.59098 30.76677 32.01077 33.43071 35.21601 39.24621 48.19031 50.27173 48.05645 46.33912 41.98479 37.43083 37.09148 40.03170 50.17277 56.50830 61.15165 65.75749 71.89936 74.20795 72.58751 64.17035 70.25825 76.44742 81.66298 82.64215 80.57778 81.02919 79.79334 81.95330 86.59703 73.97261 67.96900 68.99158 76.81606 84.80505 79.50912 65.00181 62.40134 59.50211 57.11269 52.91553 54.03695 58.60454 59.58529 58.95626 60.88225 67.79637 70.31494 68.71327 63.15832 50.85845 46.07415 44.87112 46.34597 46.75626 46.59713 39.78959 37.60586 31.78483 34.20140 35.71740 35.99520 32.66421 34.01976 30.42475 27.87035 25.17386 25.39653 28.04057 29.50873 28.85360 29.51405 33.03939 27.51047 29.81458 24.84906 25.44469 26.45361 24.19522 26.28255 23.95018 25.16994 27.06340 27.93674 26.57488 27.11797 24.60537 24.83617 26.48828 26.65174 23.91676 26.69811
24.45604 25.51942 23.09930 26.76824 22.60796 23.05472 25.59016 26.41038 24.49838 25.54971 25.81095 27.31970 23.94084 25.40060 27.32893 25.47839 26.88061 24.47274 24.15736 25.59689 27.61096 26.42593 27.71587 29.55643 27.81742 30.06743 30.65068 31.91932 35.44090 33.50621 31.50687 28.91799 31.20176 33.07983 39.04764 40.79070 46.48692 46.47236 45.65995 36.55279 36.26503 36.58191 42.26094 45.18704 51.71015 56.32316 62.98749 62.84496 63.34469 65.41049 65.31850 63.86188 64.17921 72.77087 74.96207 70.90646 72.82026 76.33806 77.55096 80.30851 75.99451 69.73333 60.97501 62.20878 77.15650 77.39525 73.43359 65.34594 53.40346 56.62856 49.01613 45.80543 43.88355 51.85228 51.97849 54.03907 53.59064 61.78573 70.77519 68.97264 58.16266 53.78397 47.48386 41.35360 41.33727 44.26642 41.70632 41.45438 39.61155 32.14806 32.93739 34.50059 32.30758 32.23485 33.16381 31.19048 28.31722 26.61942 29.25262 29.69837 24.93530 28.31211 26.79203 29.05343 27.34053 26.11032 25.91728 26.53548 25.82451 27.42345 25.02783 27.63093 24.97521 25.17995 23.36602 24.58553 25.35794 27.64215 24.79654 24.38947 25.38012 22.22480 25.35609
24.56573 25.18278 27.01411 23.62704 23.97582 24.68245 25.82381 24.86880 25.15407 23.91225 25.43718 24.53874 23.40457 27.17499 25.12481 27.51954 26.90571 26.50644 23.74538 24.98937 26.81709 27.25084 28.53445 27.19354 29.52692 30.73509 30.96652 31.48432 33.18260 30.18802 30.71589 27.99924 31.06145 34.33291 38.73317 41.74797 44.51520 42.43606 40.80286 34.45661 33.57113 37.89414 42.64356 49.99731 53.44975 54.98468 56.67410 53.45372 58.79886 59.89124 57.17374 57.98725 58.73458 64.88578 69.39996 64.51776 64.59673 63.30759 67.11758 76.28717 72.79381 63.69848 59.14670 62.22266 67.10426 72.45507 69.68497 61.52968 48.02601 46.93800 41.57158 41.19540 42.29742 47.92286 44.75282 44.27993 52.78236 60.98069 66.46160 65.26011 60.35756 54.93279 47.91942 39.01667 38.03783 37.83948 44.34811 42.76464 38.48450 35.88058 32.66547 29.84344 27.47332 30.68109 31.13756 30.93454 33.00491 30.84049 29.21416 25.56397 25.92122 25.78086 25.10443 26.26245 27.14457 24.09444 26.05012 25.89710 24.65840 24.40930 24.14315 24.09154 26.50722 27.49630 23.45795 24.48736 23.83681 26.14239 27.01833 25.16875 24.64336 24.45075 25.72618
23.20619 26.17986 24.44403 27.09450 27.32302 25.98563 26.92196 25.71578 24.09374 23.45728 25.71483 26.05218 25.97241 26.19258 24.76763 24.24985 27.18977 25.01668 25.12438 25.69727 25.37365 25.90683 27.65591 27.40519 26.39798 28.24137 28.10899 29.47570 29.03092 29.49418 30.19088 27.71226 31.41206 34.76408 41.30900 39.51538 38.54641 39.61790 36.57109 32.56943 30.21462 35.25369 42.17331 52.89912 52.86241 52.56270 50.10986 47.73271 51.01889 52.68225 55.08779 49.70960 53.25521 60.27412 64.94046 60.71606 59.81027 61.13962 64.85426 65.49914 64.27433 56.47019 51.06848 51.10289 62.33007 66.14526 67.72823 63.08767 49.34921 42.19271 39.32196 35.63899 37.12455 38.82736 39.52965 42.80830 51.41442 59.30682 63.96536 65.26305 61.25313 51.70407 42.91141 37.16914 37.18920 36.33225 38.38429 38.71040 41.51944 36.65036 35.11286 28.72775 29.94000 25.42895 27.32586 26.72067 30.99065 28.09557 27.34314 25.27390 27.39702 27.36248 24.01831 26.76884 26.01529 28.44075 26.21893 25.73330 25.20620 26.13365 25.51813 26.31472 25.05822 25.20713 22.53158 25.58373 27.98085 26.85256 24.02557 27.36608 24.32109 26.42662 22.70620
25.03401 23.83224 24.83115 24.85461 25.58000 26.79093 25.25862 25.64449 23.79380 24.45588 26.41719 25.05510 24.74431 26.81666 23.04413 23.27506 26.01761 24.95712 25.99685 27.03585 26.77476 26.13204 27.46295 23.06182 24.93448 26.90158 27.33263 30.21781 30.19738 26.74241 28.92443 27.19159 30.70903 33.37946 38.37245 36.29506 38.77380 33.16180 32.06577 30.05654 32.08731 36.08034 44.02610 48.18707 50.60121 49.77759 42.60734 45.53049 43.75052 47.21039 44.26685 50.38995 54.35220 61.64444 63.22373 56.43521 51.43108 56.53640 60.15250 58.06112 58.79165 54.30383 49.52274 44.72553 51.45358 60.88190 65.21140 60.57064 51.97024 47.18723 37.11289 35.47587 33.90638 32.63991 35.19391 41.34535 50.73680 57.95235 61.19405 62.36541 59.30601 53.42619 47.86211 41.66799 35.13956 33.97251 35.83993 36.61781 38.98107 37.25669 36.98435 33.66292 30.88551 27.79462 25.34336 28.16211 28.37920 31.10814 29.40114 25.51237 28.43184 29.03278 23.39236 24.93796 26.98818 23.56837 26.83288 26.04817 25.66408 23.85003 25.75155 27.29807 23.45961 26.21544 27.07291 24.78750 24.57234 25.70987 25.47576 26.60530 27.26111 25.07615 25.62249
25.91773 24.59574 26.04280 24.41578 26.61229 23.77072 26.33425 23.31769 25.94650 23.87361 23.91299 25.15439 23.94096 24.02469 25.99736 24.64923 28.71853 24.90256 25.02894 26.73977 25.71295 28.38889 27.18215 26.17924 26.10215 28.64295 27.15769 29.00484 25.17045 27.30667 27.79627 29.07886 35.24559 32.04055 37.00085 36.59281 32.82430 28.35683 29.72819 31.96715 34.33004 37.29807 42.65749 46.40511 49.80997 39.44678 39.12030 43.06406 40.09805 40.74858 40.42541 45.40912 52.53144 58.43537 58.45444 52.88392 48.38130 56.15711 58.33866 55.12246 50.59590 48.55508 44.16615 44.26398 52.84692 61.14477 63.00097 64.32898 53.10748 44.29008 39.89176 34.95635 31.69595 33.95936 36.23072 46.05684 47.90360 57.32354 58.11490 59.29984 60.85905 52.68051 50.97161 42.58501 38.15884 31.50733 30.83655 35.09845 36.97117 37.29780 37.73973 33.49668 31.75602 30.52819 26.03874 26.11897 29.26974 30.61076 27.90137 26.04047 28.24498 27.17558 24.01011 26.16023 27.15172 24.15910 26.03957 24.59942 26.55777 23.79867 25.38930 25.04336 24.53801 23.46368 24.84481 26.30015 24.15668 24.40567 25.31886 24.88758 26.03528 24.23407 25.12629
26.59282 24.93200 25.49777 26.51665 25.59267 25.20872 26.07838 22.46490 25.08270 25.27445 23.83182 24.84012 25.94113 23.49678 24.53883 27.20027 26.45059 25.38719 26.38473 22.81541 26.05554 25.79064 29.23934 25.13412 26.42704 28.98570 27.83979 29.40479 27.45187 26.90273 25.43462 27.79544 31.79462 32.07045 33.79878 35.01679 31.36852 27.67958 27.41770 30.29560 35.18107 41.00448 43.74268 44.58360 43.11524 39.78757 35.39783 33.46765 35.49979 35.97089 38.62265 45.38063 51.66856 58.08162 58.94735 50.58697 45.12229 49.68757 54.02810 52.07051 48.01455 39.58391 38.43964 40.30921 44.89759 51.83779 63.76489 65.04118 55.89153 48.65329 39.56526 38.09595 31.80426 30.71731 37.32577 43.13688 45.94980 51.22846 53.07871 56.37056 55.74006 50.05603 47.55736 40.95380 35.62485 31.51393 28.54977 29.64892 31.10792 34.30947 33.98309 37.41440 32.13731 30.04685 27.80615 26.73409 27.44530 27.18444 26.94366 26.74596 26.61230 29.00846 23.25986 27.73612 23.01853 23.86221 26.29662 24.94749 22.64025 25.24026 24.74027 25.68064 24.40978 24.03456 26.13900 26.13703 25.39530 23.79244 25.16225 27.16895 25.09847 25.78174 26.04862
23.73061 26.82389 26.13567 24.98955 23.72684 24.09451 25.47295 23.78688 25.68184 25.72809 25.34548 23.52035 24.21526 26.20793 26.26369 24.64883 26.46130 25.79771 25.69452 25.52481 26.79779 25.35115 24.65402 27.80931 27.18345 25.37368 28.15540 29.13770 29.05350 28.22139 26.15479 29.99038 30.14509 31.52134 31.31771 31.16118 26.06829 28.68401 27.02275 32.23716 33.61407 42.27873 41.28923 42.65363 40.30648 36.12923 31.81905 36.68125 32.90777 34.29404 36.87136 44.67804 47.83990 52.23142 52.38784 49.40142 45.18930 46.98014 51.52719 46.56280 42.11806 38.29079 33.26456 40.12599 44.02707 47.62237 56.45592 58.39953 52.85678 45.29929 42.26442 34.54834 32.14549 29.21107 34.08318 39.17305 41.57759 48.77563 47.98076 48.29595 52.43790 47.31183 42.27850 39.51427 35.81282 32.36780 27.94656 25.83059 29.36467 31.07112 31.53275 33.58236 32.08072 27.45222 27.92416 25.06312 26.12515 27.42829 25.96718 28.67100 28.60879 27.70649 27.53724 25.00566 25.09212 25.67524 26.40229 24.88859 27.03195 25.93532 25.71761 25.07425 26.03946 24.89249 28.69858 25.04906 24.61615 25.51129 22.40678 24.93780 24.83716 25.10196 24.44532
22.85546 26.00579 23.74878 25.43821 26.93434 25.24023 24.17563 26.57975 25.86513 25.45462 23.83558 24.55671 24.03773 25.61159 23.51117 25.17059 24.91118 26.64439 27.11053 25.59092 24.84835 27.80949 27.28642 26.36040 26.09342 27.28120 26.74992 27.23793 24.84612 25.89582 28.12483 29.06244 29.03132 30.48813 29.05714 28.60134 27.99730 25.73740 28.16810 31.59832 36.22520 40.28962 41.75552 37.77435 37.04761 36.33244 31.45171 31.63538 31.99980 35.03465 37.90542 45.71655 49.81680 51.60895 48.68337 44.78862 41.20705 42.07364 47.50531 47.62115 46.00161 36.17061 34.67560 33.16015 39.16098 41.48599 53.06778 57.01938 53.40808 45.81018 38.30043 33.67407 31.89866 29.81755 32.75908 37.37979 41.43315 43.09129 43.45740 46.19328 45.92850 45.49479 40.50287 41.29397 36.55507 30.16135 30.08504 27.47631 27.07435 30.62495 31.81301 32.49886 28.44788 27.22320 25.92099 25.90877 26.34163 23.47050 26.53091 24.43083 26.59331 28.07054 24.81379 26.65434 26.00755 26.30330 24.00142 26.57143 27.19302 24.32820 24.46389 26.25121 25.43442 26.67698 25.00417 25.30593 22.60447 26.71979 26.11371 26.58417 25.02612 24.77420 25.30251
25.26216 25.92152 26.36118 27.41252 26.27992 25.38193 25.53678 25.12849 25.24052 27.01714 25.57495 26.71296 23.94764 24.81708 25.33131 24.46976 25.80189 25.41336 25.14174 24.20399 23.86201 25.63466 23.59129 26.21950 26.40555 24.02740 28.43913 26.32909 26.36346 26.84253 27.77374 29.11175 27.72528 29.39631 28.35466 26.82151 27.41547 28.34573 30.33913 35.19700 36.99905 42.43407 40.26354 38.91575 34.23342 32.56181 29.80889 30.77271 30.12382 31.29397 38.23294 43.33010 49.60585 45.79053 42.92709 41.08253 38.72803 41.30965 44.30228 45.71569 41.61040 34.36706 29.65659 32.16210 37.06459 44.69577 51.63655 55.00161 47.02212 43.70221 37.76749 33.02433 30.25410 26.42522 29.45963 36.08496 40.66931 37.64990 41.03078 43.70427 45.07264 40.06522 35.66204 35.35234 32.27296 29.11587 27.44163 27.82848 24.63383 29.10241 30.74490 32.78504 28.61941 27.24551 26.32083 26.95052 25.97793 27.67190 28.75841 25.53054 25.51371 26.91277 21.67122 25.69902 26.50106 25.61632 26.46318 27.19502 25.10441 24.13359 26.05590 26.86849 26.58597 25.08485 27.53681 24.84388 23.60871 25.22318 25.30883 24.42062 24.53534 25.84864 27.95327
22.51759 24.41385 25.55585 25.75771 25.70864 25.52401 26.92760 23.57347 26.03271 23.01437 27.63150 24.48648 24.61398 25.08106 26.20314 24.68038 24.00887 24.88465 25.10421 25.74700 25.40617 26.91686 24.88516 27.28026 26.37420 25.02586 26.73575 24.86152 27.60337 29.31762 28.43178 27.60590 24.54710 27.59878 25.18256 26.11279 26.58902 26.90468 32.53995 36.14147 36.67985 37.49899 35.44172 33.84295 32.82314 27.24481 27.12197 26.98009 27.09374 31.38506 41.51108 43.99165 47.01156 41.90280 39.85973 35.14138 35.44486 42.92940 43.03065 41.01084 35.93483 33.07191 28.68914 30.93039 38.21183 47.10693 48.56336 50.15803 45.17077 40.85804 35.28306 32.30700 31.52788 26.91816 32.08298 34.04354 39.04868 37.47336 37.66105 36.40150 39.47555 39.11380 37.88186 34.93301 31.05668 29.95704 30.19522 26.54220 26.70155 26.11597 26.51456 30.45304 32.11964 27.80051 26.78242 25.47044 23.72396 24.13935 26.49093 24.82109 23.96767 27.00994 27.72678 25.06984 25.76505 25.70388 25.15931 26.52878 24.39120 24.94743 23.77422 23.05059 25.53855 27.28386 24.48395 23.91874 27.60382 24.53531 23.47657 25.49039 25.39773 25.21386 27.27752
25.60588 25.49418 24.53603 21.79108 26.35508 26.37539 24.58367 23.59498 25.05011 25.22985 24.04240 25.03547 26.87596 24.39769 21.41109 26.63771 25.55472 25.70312 27.03427 26.57853 24.30945 21.82145 28.09174 28.37489 26.57965 25.85536 25.31277 26.35572 24.38719 26.49672 27.14572 25.64675 26.93907 24.38599 26.57220 26.71155 27.51907 29.58780 35.29975 38.55158 35.68416 36.06483 34.69271 33.36488 30.54663 28.94348 26.53551 28.72646 26.88428 31.67721 33.77292 41.37724 43.27002 41.93798 36.02195 33.16519 33.86187 40.66283 40.25512 39.37208 35.74694 31.96253 29.25666 33.49786 38.87175 44.68805 48.12098 46.94965 40.48452 36.41509 31.03880 28.66605 27.65661 29.38239 31.84624 34.78164 36.89732 34.76438 32.94595 33.06524 36.38858 35.77293 33.23783 30.56275 30.02047 28.90974 26.26417 23.99361 27.57007 25.29511 29.66143 28.50731 28.94866 28.45516 28.13958 27.80480 25.12872 26.64939 25.61053 26.86767 26.18641 27.20777 25.81619 24.88564 26.22536 24.32694 26.59308 25.94496 22.95816 25.95769 25.49467 24.46213 27.59483 24.46194 25.63677 28.54992 24.30498 24.30692 25.13803 23.47590 24.06354 23.72599 25.15509
23.87695 25.40724 25.09856 26.34516 23.11882 24.73787 24.20506 25.21817 25.15734 25.57195 26.20296 22.97666 24.99041 26.16256 26.90826 24.55122 24.63369 24.59930 24.21374 26.95984 26.59954 26.36178 24.52388 25.72896 25.97029 25.12031 25.95084 25.86811 28.11786 29.15328 26.53037 25.28307 25.26802 25.13165 25.39716 27.75007 28.15221 30.32415 32.72953 33.90291 34.69001 35.04411 31.12605 28.99394 27.93205 28.73044 27.28647 26.37248 27.31318 33.12295 38.39365 38.90397 40.96914 38.42531 33.63121 31.19083 33.84464 36.14903 39.57081 33.52724 33.94292 29.26158 29.23448 31.54364 35.41736 44.19010 46.10940 46.50690 41.03204 31.09559 32.41591 28.09844 28.27565 27.29827 30.26118 33.32673 35.37403 33.21246 30.76920 32.00036 33.84044 33.75685 31.81885 35.00096 30.00398 28.60133 26.06790 27.06982 24.03861 26.23842 28.96217 26.70353 27.41663 28.03974 28.24217 25.21290 26.53704 26.12590 24.52639 24.74162 24.40153 24.57386 25.64906 24.31498 26.86976 25.39014 24.07933 24.84671 24.76977 27.45751 25.29818 24.21664 25.32329 24.18673 25.46900 23.64273 25.09502 26.52792 25.25932 25.99885 24.96903 25.86469 26.00723
24.66367 24.94798 25.13234 21.45399 25.48306 23.14501 23.47639 23.81490 26.69123 23.64395 22.77353 27.55191 25.64546 26.08631 25.77732 24.68068 27.45848 26.10720 25.23125 26.96392 25.16649 23.78866 23.74650 25.88165 25.63952 24.06269 25.84375 26.95666 26.27573 26.89617 26.03148 27.14577 26.27123 26.64122 26.08266 27.81191 29.66067 29.20671 32.42713 32.64840 33.70946 33.09882 30.35517 27.31853 27.76126 25.14595 28.63431 29.42095 30.83835 36.02388 34.98315 38.78951 41.20726 34.09097 31.96829 25.18609 32.16035 34.81274 37.61584 35.16957 31.76752 28.16203 28.81816 30.77654 36.38799 40.09388 45.87321 45.62417 41.91733 35.80819 33.00156 29.21520 25.05876 26.27434 26.81649 32.31640 33.27813 33.75479 30.20708 30.95194 27.29037 29.38757 28.73290 29.96537 31.23664 26.84230 27.41395 24.77904 25.29049 26.41216 26.72742 26.83666 27.45581 26.38154 26.13675 25.06143 26.19922 28.63721 24.61004 24.75342 24.46285 26.26237 24.02609 26.67301 26.11506 26.33468 26.36790 24.66429 24.73876 27.22649 24.93024 23.05208 25.28012 25.63440 24.52261 23.91925 26.35754 24.61921 26.26747 23.30950 24.20447 24.08048 25.98786
25.82374 23.33555 24.59261 26.39356 24.68937 22.50942 23.57298 24.13627 25.83187 26.50024 26.22991 26.20459 25.82987 27.50925 23.50321 25.79800 26.32794 26.55894 24.66500 27.40607 25.91615 26.94052 24.08829 25.32957 23.96883 24.90717 27.49492 25.11996 26.51084 27.52233 28.20565 26.18940 26.11042 28.83836 27.20935 26.82265 31.91922 29.79246 29.59769 31.24424 30.72181 31.11733 28.81278 30.61631 27.06361 25.40991 25.35678 28.34339 30.78417 31.94394 38.37085 38.61473 34.03808 31.19144 29.92868 28.61837 32.63078 36.79582 33.57452 31.99594 29.85722 30.11880 28.94285 30.04509 34.83412 40.58828 42.35505 43.12639 39.98948 36.55829 34.20087 29.39141 25.85913 25.23772 30.42954 30.42338 30.47801 31.61745 31.07375 29.30080 30.41111 29.90405 29.05973 29.03687 31.07717 27.15347 25.07600 27.74614 25.57229 27.75555 25.96418 25.92026 25.64428 26.67056 23.64335 25.09037 25.10654 28.14161 23.77650 26.75574 26.11934 25.65913 25.26594 23.19176 26.57651 25.86361 23.07622 25.07612 26.22035 27.23017 22.96665 25.88662 26.67965 26.88268 23.22500 25.23934 23.47605 23.99392 24.13035 25.44358 26.47855 24.89836 28.21890
24.61218 24.56594 25.98814 25.24022 27.31425 26.55586 25.63367 24.51087 25.84420 23.15451 24.65892 25.73246 23.65179 26.54911 24.07814 24.76690 23.58711 25.28752 24.10387 22.46314 27.66583 27.93096 24.80091 21.51102 25.80045 23.67201 25.57222 25.15014 24.19112 25.69417 24.81640 26.34720 27.25762 26.49510 26.15684 27.55759 26.77818 29.13442 28.70625 31.38118 33.11250 31.34265 29.30828 30.09340 27.54076 26.67650 26.99237 29.12913 31.58546 32.49971 33.30688 34.13105 32.78126 31.89810 31.75067 27.39182 31.54844 31.75101 32.06999 29.52661 26.28231 27.23288 29.20831 30.15796 38.51469 42.07817 43.56254 40.71963 37.67544 39.49574 33.08162 29.77044 29.06559 25.52608 26.13563 30.40197 30.14883 33.25044 33.00008 31.73596 28.67650 26.33524 29.26555 27.48007 29.83435 28.87077 28.65874 27.38209 25.76588 26.05522 23.92378 27.10501 26.03859 27.12907 26.76071 27.18034 25.15883 26.66628 26.05337 23.09855 25.23502 26.63219 25.84057 25.17179 23.75131 25.68759 24.06808 25.78409 26.81097 22.58570 24.49447 27.20656 26.13908 24.46278 25.57656 24.88057 23.15467 24.83582 25.34296 26.87361 24.10515 24.50856 22.83886
25.01219 23.52427 26.43998 23.86228 23.26309 27.35627 25.31700 23.07913 26.28896 24.86048 26.08140 25.28871 23.71040 24.99137 27.45862 26.00910 24.88371 25.01655 25.29882 21.79443 27.21165 26.28058 27.03186 26.17497 25.32894 24.34610 25.55320 25.32072 27.40542 25.28370 23.87558 25.64417 26.30917 23.26187 27.08876 28.57945 27.03077 28.70099 26.80390 29.65799 29.89222 30.59355 27.38018 28.06216 25.51442 25.88983 27.43713 30.86071 29.44969 31.21001 31.95889 33.07028 34.06464 29.95987 25.21282 29.07900 29.59972 32.21598 31.19909 29.03231 27.80718 27.75542 30.44733 33.49672 36.23885 39.19307 37.31504 38.99961 36.36399 37.73344 33.10888 31.82306 27.60250 27.11750 23.46079 26.20479 29.86869 29.34066 31.27815 30.92130 29.28345 26.57700 27.61203 28.73845 28.41472 27.83124 26.76101 27.46911 27.53758 24.60398 25.39211 23.91397 26.04063 25.18239 25.99802 23.88561 26.29705 25.23295 24.03013 25.43429 25.19171 26.31938 24.41777 27.61199 24.48769 25.62862 24.96181 25.45448 26.24924 25.80928 28.14274 25.75238 24.05478 23.64130 27.74143 26.40976 27.90519 28.12665 24.63534 25.65518 25.60171 26.59088 26.00370
25.38332 26.45632 24.25539 25.44326 23.38186 25.57608 21.39716 26.90949 25.40920 27.53119 25.53352 25.56757 26.32851 26.90013 24.42594 24.93867 26.35844 26.20052 25.43301 26.36467 20.67204 26.76221 27.88699 25.87949 24.11444 25.12402 24.00745 25.02597 26.37602 25.93231 26.73377 24.70952 24.15902 25.72347 26.92155 25.68723 25.73108 27.58251 26.49948 30.47142 27.07741 27.76878 29.30650 28.13061 24.67078 26.70331 29.01624 27.44047 30.17343 32.85326 31.10540 31.42425 31.14875 28.50632 26.00409 28.21679 29.53143 31.42026 31.90118 26.41081 26.26158 27.73385 28.76835 33.11278 34.30066 34.61660 39.51432 35.64884 34.22891 32.24287 33.20827 33.28297 29.46392 26.96974 24.63260 26.99199 26.25616 29.73738 28.39971 30.91795 31.46017 28.59234 26.53195 24.40634 30.17287 27.63177 28.24563 25.64846 24.01664 26.72541 23.38175 27.15981 25.44774 26.24807 26.39366 23.38794 23.74158 28.90298 25.63914 23.66467 22.46091 23.57467 24.70102 24.42204 25.04127 26.11418 25.35920 25.14494 23.81524 25.66723 22.62312 25.68422 24.37005 23.71852 23.53722 25.27241 24.22074 25.08947 27.10130 24.41202 26.23653 26.07638 23.79995
23.45972 27.18424 25.17800 24.19648 25.81464 25.46051 26.65934 25.33724 25.79066 28.38801 24.30649 23.48794 25.42941 22.98374 25.17444 26.06846 24.38419 24.59802 26.42808 24.67578 23.94074 25.35439 26.21346 24.83928 24.86090 25.03118 26.87299 23.21100 24.75868 26.18744 23.50466 26.10169 27.03539 24.60848 24.15023 23.98268 27.42136 23.69879 26.84649 26.09155 27.67269 27.44471 26.21177 26.89428 25.62895 26.87973 28.56600 30.02436 31.15720 28.23561 27.08135 27.26179 28.71595 29.20090 28.51735 29.42538 29.51950 30.82997 29.23358 25.26592 24.15191 27.08983 27.54935 33.92319 31.90913 37.46550 36.35424 34.16150 32.27262 29.88416 30.98528 30.19062 28.16636 26.38910 25.54829 27.02390 27.31044 27.61826 28.73795 29.86898 28.94305 27.68001 26.72868 25.50156 27.55181 26.56345 28.50291 24.90086 25.89244 26.51021 23.14492 25.03256 25.58314 25.96817 24.81180 23.27830 25.83443 26.96497 24.34037 24.42731 24.01793 25.88675 24.63499 27.22021 26.37905 25.75324 27.17257 23.48294 26.36679 27.27286 26.07195 24.88603 25.14632 24.95471 25.14432 25.62506 24.12755 26.28799 27.51726 27.54738 26.79429 25.88151 24.31683
23.91626 22.96809 23.90909 22.04810 25.14259 26.82263 24.95202 23.93032 24.59855 23.50964 26.84238 26.61561 23.12673 27.05272 27.57428 27.77103 26.27186 23.49630 26.41426 25.33529 27.31788 25.12957 24.90372 26.78229 25.21783 24.35251 26.33104 26.67115 25.77827 27.74975 24.57417 26.09862 26.35488 26.71179 25.07024 27.53907 25.41484 26.65100 27.50131 27.53386 27.26401 26.99795 26.62319 26.71940 26.66298 28.51337 27.49410 29.13496 29.64880 29.61201 25.81307 26.68436 28.45517 27.28145 29.93634 29.02796 28.58672 28.99569 26.44528 24.94795 26.96143 27.15057 29.65314 32.92879 34.78687 35.23933 33.03496 33.51194 32.78106 28.49001 29.97763 30.47253 29.14412 26.10692 27.47303 26.54981 25.60278 29.08304 27.39683 31.75649 25.48995 25.55942 27.22681 25.28480 24.55547 27.52880 25.73398 24.40905 25.76542 28.64770 26.34922 26.62650 26.21862 27.10936 24.26847 23.35240 25.37734 23.28251 24.03287 25.45218 24.02245 25.99179 23.47065 26.66423 22.89123 24.98601 25.80851 25.93065 25.28816 24.97719 23.54039 26.45568 26.57773 25.01089 25.98833 26.52635 26.64786 25.87696 24.36254 23.98843 25.00536 25.29226 25.24262
25.35268 27.14116 27.76701 26.86259 24.12680 24.90723 25.23866 26.64799 24.95149 25.96353 25.49146 24.52775 23.63170 25.13125 22.79414 25.75746 23.90912 25.49338 25.45545 25.89265 27.87161 25.96576 25.39849 25.43479 24.17698 24.61452 25.72476 25.58012 28.06348 25.16214 26.62719 24.57085 25.47986 25.02032 26.68442 24.03064 26.23992 24.71776 27.33962 24.88694 25.68502 23.67910 26.63694 26.61407 27.76960 27.67640 27.78467 30.17914 27.80137 27.60853 27.37534 25.82098 26.79598 23.76591 25.95104 27.13950 29.23690 29.87519 26.08124 27.38080 24.95488 27.04534 27.46966 29.35052 34.07156 34.00613 35.05726 29.71649 30.43106 26.95056 28.67121 27.22376 26.40827 25.71282 26.15151 25.04827 23.87618 28.06487 27.27141 25.13416 29.02746 25.60305 28.11991 27.09108 25.92258 27.69769 25.96356 28.14089 25.13609 23.61873 23.79516 23.17875 26.41672 23.48452 24.76692 22.56176 27.87907 25.06668 23.40910 23.36687 26.23406 22.70884 28.45120 23.99770 25.16385 25.00711 27.92834 22.60470 22.59274 26.44258 23.81114 23.97760 25.86537 23.54334 24.20312 23.77252 21.80081 23.27542 23.40335 26.46565 24.86709 25.38266 24.98275
26.31711 25.19276 24.93855 26.97106 25.13372 25.90685 26.72418 26.85439 24.64340 23.56042 26.40069 23.78216 25.11053 27.69562 26.48049 26.76674 26.88127 25.12439 25.51432 25.67095 26.92612 23.36124 24.50521 24.22567 25.69662 26.05106 25.33526 25.29719 22.32475 25.13997 22.62396 25.63958 24.50096 24.73780 27.22848 25.48981 24.19829 25.33868 27.32745 26.37793 24.91103 24.01256 25.64694 26.32050 27.31106 24.07130 24.48941 28.77457 28.18563 25.93573 25.15505 24.36493 24.39662 25.91969 27.25330 28.68708 29.42802 28.21536 26.83994 26.31171 26.69797 26.30127 27.06445 28.74699 32.49027 31.76053 30.59787 31.60326 28.49150 26.74987 27.36514 26.58028 25.66915 26.66300 26.41350 24.60793 25.62791 22.56976 26.11630 27.62808 28.47817 24.98498 25.70479 25.46914 24.05687 27.46631 25.60895 25.83239 23.49866 25.79743 26.77880 26.04293 25.56924 25.32149 25.72740 26.40049 25.95720 26.29451 24.73118 24.44767 25.92720 26.33997 24.54898 24.17111 25.71309 25.82224 26.56713 26.18710 24.11915 26.94148 23.14630 24.31411 24.93548 26.44307 25.38122 24.71305 25.42017 22.78684 22.18037 24.26821 27.50333 24.92049 24.39277
26.82532 26.44335 25.62622 23.89918 23.34536 26.56592 25.70234 26.21137 26.52798 26.20985 22.75098 25.37592 26.02462 23.46247 26.93369 27.47528 27.50688 25.17104 24.86949 24.77255 25.49744 26.57987 26.67677 26.37384 27.00418 24.84533 23.00492 26.47160 23.89311 23.71099 24.84313 24.65503 24.63932 27.56381 24.72662 24.96810 24.30126 24.22957 24.70863 25.87121 25.47386 25.45228 25.95014 23.48507 23.92056 25.21866 26.26399 25.35320 26.73995 26.13044 27.10599 23.92028 26.91211 26.09359 27.59712 27.88164 30.66934 28.50530 26.39517 25.43928 24.44552 25.86927 27.77809 27.91583 29.34171 28.65649 30.75381 27.34416 25.24120 27.12898 27.22726 27.22833 25.60737 27.70592 27.46745 24.26067 26.35241 25.82180 25.46525 27.94630 25.61977 26.72690 27.65286 24.76856 27.56197 24.42029 24.78016 25.05446 22.18684 23.57542 26.20079 25.49106 27.81515 24.59740 23.66547 23.63121 23.48213 28.18778 23.93786 24.38847 24.76264 23.82677 26.35115 24.46017 26.51255 26.51738 25.86674 25.02346 24.81818 27.95810 25.77030 24.33348 25.52017 25.13087 23.67684 25.05641 23.73846 25.44583 24.39899 23.56820 25.88228 27.89536 25.35693
25.44203 25.86597 24.66227 23.26438 23.08131 26.04135 24.87063 25.83023 25.30467 25.31599 25.61731 25.61108 26.69973 23.14195 24.77719 26.48369 26.94751 27.08067 27.27780 25.87868 24.62120 22.99133 24.50467 26.68652 26.97428 26.29813 25.03893 25.57464 23.55106 24.42816 26.38466 25.74326 27.11937 24.35915 25.31563 23.05893 23.81252 24.52171 25.58182 25.90657 25.83995 24.56746 27.36614 25.67024 26.99792 27.11426 25.67865 26.50865 26.01307 25.10294 24.79476 23.76577 26.04452 25.96558 26.69235 28.03105 26.52611 27.78418 27.18992 25.74181 27.52500 26.36571 26.22825 25.36045 26.14963 25.91212 29.38772 25.75474 26.48259 25.88765 25.57866 26.43468 26.59990 22.87088 26.00327 23.63972 26.47672 24.16161 26.16362 27.32622 26.71827 27.93076 25.42434 24.77287 25.99196 25.21334 25.81951 24.92927 23.64037 25.63535 26.66286 24.60369 25.10228 26.21800 24.26705 25.23230 25.25468 22.96682 23.94007 25.55851 23.21938 22.62446 24.16837 25.95487 24.58232 25.58985 26.83722 24.53695 25.21894 26.15957 26.25606 26.03996 25.22687 24.19268 26.72084 26.69610 24.64765 24.56397 26.10282 24.83290 26.47538 26.28232 25.81980
25.40165 26.59770 24.70190 26.20608 25.89345 25.03049 27.47173 27.00808 25.22558 22.82920 23.61282 23.27262 24.06268 25.95628 26.68444 25.48709 24.85339 24.99388 25.18244 24.14041 25.01184 24.50221 24.81748 25.33396 26.37976 26.03030 22.07403 25.75567 26.32614 24.98793 23.78666 26.21716 24.23722 25.91887 27.17739 24.97213 23.92561 24.73311 25.98381 27.01073 27.03151 25.81374 24.97997 26.18212 23.90933 25.94991 27.07866 26.48238 25.16577 26.84163 26.32474 24.15096 25.70121 26.22411 28.44533 28.20155 27.76911 26.05400 26.35038 26.44521 27.03528 27.18185 24.90950 25.85880 29.37510 25.85297 27.76263 26.10266 24.52356 25.50564 24.37370 26.18196 25.65996 24.12412 26.01776 25.45260 24.98280 24.76502 23.34835 24.99309 26.94122 27.06671 26.80518 28.30917 25.32371 25.07167 24.86178 25.26522 24.73475 27.78485 25.00929 25.20248 22.88574 27.56376 25.83717 25.85246 25.34504 27.29700 25.54189 25.38591 24.04451 25.47500 27.20331 24.42163 24.27540 24.42044 23.44831 24.65330 25.03902 25.53760 26.82988 24.85533 24.63503 23.49577 24.53247 25.88872 24.95770 24.58751 25.18838 26.39824 23.48923 23.99020 25.87990
