25.00145 24.80514 26.27982 25.99279 24.98152 25.64184 26.20591 24.36985 24.83856 24.19225 23.97090 26.03372 26.69531 26.06061 27.26120 24.38254 25.81400 27.29932 25.98516 24.25403 27.03525 24.49571 23.84531 26.14730 23.10121 23.68628 24.98547 26.73197 25.60812 25.11201 26.19206 25.16587 26.84245 23.96891 23.65647 26.69607 24.06672 26.86707 27.38068 25.86162 25.43590 25.39769 25.86619 26.01500 25.77948 25.91546 25.91257 28.58734 28.06649 26.01620 27.15938 26.44866 25.86014 24.97304 26.29880 26.43005 27.07614 27.43326 26.11915 27.29155 26.81563 25.76144 26.61227 28.03266 28.23622 29.46797 28.74831 28.76660 27.08783 24.33461 26.84567 24.44650 27.14712 25.37375 27.62952 27.88578 26.32600 27.71425 26.21110 24.54597 25.72772 25.12355 26.27139 25.19636 25.84419 25.90427 24.97715 24.91643 25.02046 24.64948 26.32732 26.01192 25.37146 26.01060 23.01749 25.11751 24.78694 26.65858 24.32038 24.43729 23.73069 25.30814 23.50757 26.54181 26.23829 25.37198 25.26657 27.10523 24.10258 24.48496 25.44850 25.99286 25.00968 25.51152 26.43158 24.05291 24.38405 23.97016 22.89346 26.84708 25.86343 24.99358 25.07457
25.28310 24.20481 25.03312 26.92442 24.70597 23.54925 25.66503 26.48989 24.12450 25.82991 26.63788 26.20263 26.86760 25.02764 25.61614 23.72401 28.57194 25.08868 25.03274 26.09164 24.67432 23.82332 23.92501 26.38735 24.76844 25.94332 23.58684 24.85265 24.97241 23.99267 24.76564 23.59882 25.67086 25.66369 25.83669 23.60667 26.15865 27.23016 26.73500 26.34028 28.44463 25.08538 28.38316 27.67453 26.82643 27.69031 27.82607 27.12037 27.06783 28.36969 27.32647 27.31344 28.21085 28.46683 25.97760 25.43019 26.49154 27.30892 26.88576 27.51862 26.42827 26.38767 26.43725 28.48051 30.80671 32.22765 30.27408 30.40597 28.59639 26.97981 26.40189 24.81107 24.10772 26.23655 27.49244 28.29200 29.00706 29.85370 27.14454 27.80813 26.03035 27.07313 25.60212 26.50295 26.86660 26.18140 27.21993 27.65435 25.61368 25.38294 27.05543 23.87612 25.64471 23.51534 24.33553 25.61834 25.31431 25.90370 24.89476 25.27785 26.77460 25.10612 27.43410 26.07690 23.13997 26.47131 23.44243 24.72179 26.49603 25.04148 25.94334 25.05399 23.91915 23.61724 25.45536 27.76213 25.24646 23.19560 26.27685 27.25038 26.53114 23.41061 24.76206
25.92411 24.66367 26.29671 26.35604 24.67049 27.61537 25.86987 25.29301 26.12447 25.07043 26.15205 25.06512 24.92004 25.92289 25.13092 25.09254 26.75184 28.32920 24.38903 25.40717 25.15562 25.77409 23.91232 25.69011 25.61583 25.62716 24.76066 24.26684 24.83562 25.29107 26.45707 24.73297 24.89970 25.55758 25.22574 25.22296 24.48181 25.77900 27.57381 27.20410 27.82411 27.55452 26.67472 28.81233 27.78779 29.63094 26.30434 27.25133 25.74150 28.40065 29.13064 29.33680 29.39210 26.87475 27.20948 25.88707 25.40124 26.84833 27.95668 30.24900 26.31076 24.65995 28.37188 28.37164 30.79875 32.85678 32.44131 32.15601 29.21647 27.68311 26.30225 25.67331 27.78071 27.44717 27.90639 28.79311 30.80126 31.14774 29.32150 27.61397 27.25836 24.88195 27.52612 27.86283 26.51917 25.84873 25.55841 26.31231 25.27344 27.77735 25.60392 25.25009 25.91373 25.61069 23.43910 23.47615 25.19368 25.48268 25.68452 26.01946 25.27488 26.29693 24.67928 24.72939 23.85020 26.45699 26.23426 23.00415 24.91932 26.22249 25.12791 24.95362 26.24369 23.65534 25.22467 24.19704 26.38803 23.51506 24.42631 26.40709 24.87894 24.18562 24.78162
25.46837 24.10394 23.09406 25.15222 28.02120 24.28103 24.18493 24.36400 25.27852 25.32741 25.28331 24.83489 24.83547 24.72300 24.16483 24.60531 26.03093 24.57957 23.73685 25.06453 25.02413 26.27712 26.53071 27.83218 25.94528 24.35518 26.79785 25.35972 25.24658 25.56110 25.16325 25.43239 26.09247 23.86571 27.36559 24.75929 26.17422 26.52148 25.63130 26.96676 25.41454 24.67017 24.09897 26.39771 27.88980 27.11189 30.23766 30.96157 29.44138 27.34627 29.62063 30.00027 28.34853 28.04192 27.35196 26.53848 25.45650 28.89621 30.46637 30.08759 30.38681 27.31474 30.19296 30.41793 35.01881 33.96689 34.21113 32.01907 28.82685 26.37058 27.47068 24.46445 24.81831 26.67950 29.88302 30.48468 30.97739 30.49864 28.94634 27.77408 25.33117 27.87385 28.98957 29.20818 29.38331 29.84183 25.52676 26.66333 25.99707 24.42628 25.67332 26.61055 25.12509 26.29906 23.18367 25.83639 26.74548 25.84575 24.50246 24.84471 25.11302 25.63058 25.73413 24.81934 23.94430 26.58148 25.35339 24.88424 24.20932 25.66742 26.05938 26.89589 26.59847 23.66430 23.78063 25.22561 23.61066 24.90245 27.15779 23.30173 26.02799 25.73917 24.42853
22.33219 25.33442 25.53793 25.29184 25.13075 24.92912 24.96222 26.42378 26.54400 26.04915 24.74635 27.47293 26.73954 24.80795 24.87299 25.26582 25.93805 25.49067 26.38485 24.83167 26.19075 25.24969 24.47449 25.92821 27.10504 24.24116 25.03737 25.29864 26.72140 27.45151 24.35418 25.25873 26.12899 26.26719 27.17255 27.57159 28.09419 26.54456 28.29271 28.86936 28.51788 27.33856 28.06638 26.81107 26.05874 31.63709 32.16150 29.30581 28.51631 27.89214 27.51533 29.48165 30.22118 30.63201 28.36455 27.98674 25.27235 27.96301 30.22567 31.84259 29.12730 26.38995 30.70587 32.24919 34.35209 36.58531 33.30439 32.53036 29.34578 26.58668 25.99548 25.33702 26.88847 27.76138 27.81059 30.80799 33.43840 32.38375 27.39610 27.49063 28.85280 24.32170 28.66084 29.63105 28.39025 30.33777 29.18749 24.21872 25.89758 26.66028 27.29335 25.99901 26.34096 25.97304 26.01191 26.05637 24.36326 22.55946 25.72897 25.21630 24.22727 27.67712 24.88794 25.51528 24.87687 24.10567 26.92214 25.09237 24.28176 25.69223 26.62505 25.97221 25.01741 26.72650 25.65039 24.99632 24.36241 25.92782 25.69314 26.14806 25.47256 25.99510 25.37127
25.09570 27.03934 24.52172 24.54694 25.05214 24.42140 26.80885 25.71814 26.42090 23.51641 24.61666 25.19648 25.06548 26.72024 24.55096 25.94251 23.59656 26.00055 24.77605 24.11505 26.48746 24.70112 26.51565 26.44231 25.80672 26.52716 26.56866 24.81627 25.56187 26.66390 24.63776 25.70922 26.47564 24.63437 25.94018 25.59981 27.05205 27.94285 29.54262 28.43096 28.39908 27.59705 25.67453 25.93228 26.82317 26.41813 33.27266 32.06364 32.57710 30.94329 28.96036 31.33669 31.42210 31.03912 28.55732 25.19718 27.35009 28.78526 31.85689 33.33756 31.06240 29.98050 33.22032 35.77262 37.07365 37.88467 36.35789 31.11687 28.71547 26.04299 26.63439 25.19161 26.66601 27.20816 29.40099 29.19626 31.68468 32.12930 27.51263 28.60768 27.30952 29.47555 26.99073 30.48148 29.55049 28.63365 28.41079 27.96345 24.60344 26.48991 26.31486 28.45476 25.89848 24.44258 25.18844 25.06287 26.61572 26.13749 24.71269 25.04079 26.65118 24.40114 25.13615 24.04105 24.03438 24.42127 25.60806 25.92458 24.53708 24.73379 24.44234 25.57853 25.73062 25.97937 26.04612 26.02725 27.65029 24.43860 25.18031 25.37233 23.82207 25.19046 25.92175
22.69016 24.21879 22.49530 24.04109 24.95429 25.23424 25.04648 26.19832 25.10965 25.26912 24.43814 25.81561 24.54946 26.02926 26.15576 25.34183 24.37710 23.39088 25.29075 25.22337 26.20789 26.14428 28.27475 25.47228 25.50157 23.96040 26.68108 26.98446 25.48887 25.36011 27.82753 23.95833 25.08699 24.04013 25.47472 27.05770 26.86498 29.96830 28.12777 27.74411 30.87546 29.71932 28.10057 27.69856 28.82361 31.40677 32.49661 34.84131 35.12333 35.38070 32.10964 32.99337 35.13273 32.02121 30.99221 28.94065 28.10987 30.96747 31.40604 32.08113 35.18482 28.88124 32.91272 36.16348 38.88156 37.44680 35.89624 32.43082 28.04843 27.75482 29.20181 27.25603 24.90886 28.38378 27.57045 31.28626 31.97532 31.07435 30.52739 28.59367 28.59317 30.30431 28.75096 31.01923 31.41702 28.89862 28.41040 26.40031 25.74545 25.48832 26.72819 27.21640 25.91171 25.09278 25.50930 26.83188 26.32861 26.33555 26.06354 26.06301 26.37085 27.23332 25.45743 24.44363 23.85065 26.76271 24.88861 22.95299 23.76997 28.28676 26.03592 24.07021 26.09636 24.36486 25.34892 26.37959 27.66861 24.79853 24.76714 26.12990 23.22566 25.04905 25.95697
23.24632 26.40077 26.76828 24.91268 24.34405 28.13688 23.27072 24.79342 26.42423 26.43543 25.40286 25.05796 25.99631 26.77725 24.28256 24.87509 26.46903 22.83006 24.53895 25.53014 24.25977 26.64675 26.56493 24.05729 26.25892 24.74594 26.05349 25.81980 26.51807 23.93957 27.97275 25.29163 25.13204 24.70754 27.48525 27.05161 27.38002 27.78954 29.83868 28.85193 30.37527 29.33762 27.00781 26.17885 26.73110 31.56614 31.54401 37.18086 37.61136 38.52055 37.29033 36.92503 35.37409 34.96649 30.93560 28.23817 29.98819 32.22233 35.86050 35.59501 31.36810 31.43177 33.02625 37.15383 39.14303 39.72821 35.99876 30.88826 27.92957 27.73588 27.11141 28.29150 26.81173 26.80991 27.92683 33.24018 31.54196 32.17929 32.17928 30.51184 30.74042 32.98032 32.52763 32.32077 32.74846 30.30549 28.75148 28.53700 27.92737 25.88173 25.79270 25.17617 25.06132 27.17299 23.85814 24.48051 25.76300 26.98924 24.54822 26.86388 22.07951 24.07641 25.98594 25.46788 25.69036 25.63142 26.25604 26.61919 25.21754 24.88301 25.32516 23.48015 25.11297 25.45348 25.64053 26.86053 24.55243 25.12544 24.54700 24.82410 26.41213 25.10546 23.83716
24.58230 25.68218 26.91901 25.65381 26.00595 25.84251 26.66329 24.90049 23.65232 26.03285 24.80785 26.82551 23.90225 26.68479 26.52249 25.40999 26.49406 26.66027 24.88090 24.28986 25.56156 26.65706 26.53365 24.91064 24.29671 26.13429 24.42779 26.78058 26.89895 27.29436 27.47140 26.88204 27.68873 24.36413 27.24992 28.30805 26.97977 29.11876 31.36607 31.20401 28.54243 28.64667 27.64313 27.49700 29.34178 29.74896 33.92532 36.22217 39.79914 39.63802 40.26748 37.37113 34.03611 34.23413 30.92145 27.28316 28.35135 34.09661 37.04227 36.79846 37.05936 34.02376 32.25155 38.50546 40.52482 39.96950 32.76512 30.75626 26.85338 28.49494 29.23876 31.66344 29.33099 27.02550 29.10968 30.31690 33.07352 35.42438 33.31991 31.84966 33.99592 35.44828 36.08598 34.71055 31.28416 30.75977 31.61630 28.35257 26.59860 27.19181 26.94230 25.13705 24.05155 26.06216 26.72855 25.72297 27.71284 26.26533 22.98350 25.29363 27.27560 25.06241 26.00979 23.39802 25.66620 24.40421 26.21339 27.98310 26.66508 24.02137 25.52132 25.54218 26.32641 24.28016 25.25766 22.66854 24.34006 24.88082 25.56371 23.50983 27.86139 24.05986 23.58139
22.44892 24.40018 25.86699 23.96648 23.72018 26.15718 25.82730 25.16848 24.65131 26.03416 27.29329 25.78031 23.99989 25.11706 25.10270 26.20986 23.75388 24.66737 25.02072 23.51782 28.21168 25.22384 24.32236 26.38056 27.92266 25.13501 26.34541 26.44271 25.31212 25.04469 27.82580 24.00320 25.05211 26.92162 27.57700 26.96456 27.22234 31.52533 31.66648 33.65991 29.23432 30.31562 27.32749 26.26816 27.53367 30.40233 33.53805 37.64887 43.21237 43.48418 43.12831 40.30075 39.61807 33.64757 32.48224 28.03575 30.70349 36.13176 37.49157 39.89879 39.51428 35.39025 34.31670 40.24307 41.19252 38.24343 33.09632 31.42684 27.87413 28.50113 32.55003 33.12397 29.22587 28.99845 27.87631 30.24656 34.65820 37.12599 34.89167 37.72814 36.43792 38.64845 38.65777 36.51632 34.10302 30.97509 30.45003 29.92196 27.64428 25.02503 25.84051 26.52739 28.95873 26.32953 25.17854 29.03908 26.51923 26.93251 23.68397 24.82201 25.09594 25.05290 23.95182 25.64361 25.47767 25.78488 28.00313 25.56462 25.74696 24.15566 25.10777 25.42825 24.96217 25.33255 26.83988 25.13349 24.71992 25.08976 26.11309 24.20664 25.18996 24.86975 24.20234
25.20551 27.38106 27.23820 26.04624 26.22917 24.42570 25.91704 27.70659 25.62399 25.28744 26.87736 25.20757 24.99623 24.15879 24.89469 23.84306 22.83699 23.64136 28.31286 26.24229 26.40060 23.69048 24.32154 27.11646 23.91153 26.85673 27.17719 24.66615 24.72092 26.47926 27.40401 25.85472 23.69553 24.48154 25.77786 26.94665 29.03259 31.79763 32.48857 31.62490 34.02740 32.47940 30.21857 27.62020 28.64346 31.76775 35.85422 40.32434 42.45046 44.67452 44.77558 43.27713 39.88241 35.58847 34.08399 30.81044 33.53285 35.67655 41.28878 43.06501 42.20190 38.99801 36.55738 42.39668 41.97860 37.22161 34.94330 30.75895 29.77332 31.40793 34.58450 31.11900 31.22737 28.29403 30.00981 35.40356 35.37532 37.62526 37.12127 41.34739 39.40875 40.29575 40.45777 35.72997 33.10851 31.80180 29.62093 28.26980 27.93083 26.01397 26.09135 26.39921 29.44779 28.65990 29.46939 26.10498 28.16704 26.56406 27.03637 26.27300 26.52757 26.14628 26.30242 23.47919 24.48345 26.17676 24.59268 24.62071 25.26468 24.99565 23.22266 25.08854 24.29697 24.68515 25.75012 24.35942 24.17680 25.49419 25.20625 25.80490 25.68774 24.21271 26.04651
25.77020 24.66415 25.45290 26.83210 23.58184 26.71880 24.41252 23.11687 24.42061 26.22960 24.73402 24.21920 25.60524 23.68565 25.56687 25.54523 24.33999 25.20545 23.91336 26.94625 25.69114 26.10279 25.73914 27.04018 25.84954 26.99633 27.07070 25.76311 26.82765 26.00554 26.41271 28.03408 27.89919 27.52321 25.71135 26.81406 29.79269 33.29008 33.88629 35.09914 35.82884 33.50417 32.29105 28.04438 28.35527 30.27890 32.54735 36.87176 44.63215 46.72370 49.83128 47.20467 40.95934 39.77428 33.56436 33.46576 35.65549 39.86864 45.67505 45.92531 45.40253 43.96315 38.86871 40.38975 42.37968 37.36588 31.64491 31.11007 30.29505 32.67579 34.21478 35.74152 29.29497 30.42542 32.11759 34.62443 39.34213 40.76134 40.61608 42.62327 43.88909 45.06097 40.84503 36.04925 34.74694 32.62561 30.47259 28.80859 26.39393 26.63718 27.13628 25.33818 28.43417 31.61065 29.13890 28.36389 25.29239 24.70561 24.21272 25.94985 26.32723 24.97969 25.94049 25.31092 25.53130 28.10372 24.25438 25.30026 24.85064 24.46260 26.21479 23.90365 23.82676 25.99511 24.88413 26.06535 24.99799 24.64216 24.65779 25.49547 24.83249 26.64910 25.09834
25.32245 23.04616 25.68835 23.48008 24.68948 25.79872 27.43769 25.36772 26.44798 25.66370 23.61932 26.06192 25.24511 25.73532 23.98442 25.54183 26.60865 24.57459 26.99718 26.85358 25.09886 25.83627 25.40453 25.32680 26.30380 27.46032 26.77333 25.28740 27.44939 27.02171 29.44673 28.57513 26.90951 26.52892 27.45055 26.27438 27.69334 28.25734 31.80569 34.52450 36.76824 32.70713 34.97415 30.09374 27.70603 32.30211 32.19050 39.49278 44.31963 50.18172 51.64900 49.27088 47.22903 41.69144 35.12949 34.21666 36.06070 40.81167 48.42159 50.79003 48.09801 44.68786 43.12668 43.08026 44.11676 36.54557 31.54395 32.63603 32.38770 32.84122 37.53344 34.06448 33.92384 30.13440 32.50312 35.20213 38.82072 41.43386 42.36190 46.55189 48.70894 48.28200 44.18507 36.65127 32.75605 32.33272 28.76295 26.52935 27.06710 26.31292 27.07604 28.25184 29.06399 31.76462 29.59242 28.93002 24.29213 24.97999 25.41700 24.78276 26.29143 25.81544 27.39359 26.20015 25.22138 24.52146 24.81924 24.97858 24.63812 24.03174 26.86827 27.43635 24.39627 25.58001 25.66115 25.59277 25.92198 24.70207 25.65168 25.75293 26.10126 25.24824 23.73165
25.97164 25.43322 24.28098 23.86970 25.48310 24.83002 25.28761 25.48715 26.36366 23.94593 27.41337 24.02348 23.85805 25.07544 26.15441 25.34506 25.27241 24.80831 26.90748 26.32872 26.06006 26.45619 25.87331 26.16981 28.00094 26.37450 28.98264 26.39135 26.54361 27.53136 28.10839 28.37193 28.32775 29.18398 28.27297 29.22567 27.25559 30.13688 33.03169 35.42745 38.57076 39.93830 36.80160 32.30326 29.91765 30.84305 34.21914 37.92991 46.78384 49.55175 55.10491 56.61269 50.79393 46.77634 42.59334 34.82569 37.60265 43.18972 46.39999 52.50795 52.71368 48.38274 44.96354 46.25866 40.81575 35.76367 34.68757 35.88753 34.14798 34.57147 38.70909 39.09534 37.41858 35.22345 33.29975 33.44852 37.95561 41.78966 45.33736 53.09351 54.96439 47.40962 43.98766 39.06100 32.34661 32.81831 27.86343 25.00427 26.80874 26.85439 28.27751 30.41283 31.52727 31.50162 28.97623 26.65420 26.72401 27.40954 27.62338 27.31155 26.47196 24.54288 27.26170 25.23827 26.00167 25.59565 26.27099 26.06573 25.32650 26.54335 24.06940 26.25053 24.35488 25.62853 24.96052 23.56544 25.15173 26.15600 25.69826 25.23437 26.43687 26.05646 25.62529
24.99057 24.61211 25.40390 24.79214 25.76032 23.54757 23.52305 24.04865 24.40925 24.39957 25.45339 25.09125 26.57787 24.83087 25.29134 26.01586 23.99483 25.45714 25.67061 24.88741 25.97442 26.75016 24.03374 25.97104 27.02264 28.71636 29.64272 26.58054 26.87242 27.05126 27.35088 30.37685 31.32375 30.83495 31.26998 29.12209 27.02537 31.64690 32.32071 35.57493 40.25057 43.74859 38.84377 36.36225 30.91936 32.38505 33.94366 38.96484 43.29957 50.94796 54.10008 56.30207 57.88714 51.50677 48.34923 39.25896 39.67865 45.54118 51.89680 56.81734 57.01816 50.93476 46.62026 47.46386 44.73992 40.73709 46.00270 44.06499 39.91835 37.05171 42.29194 45.33463 44.32668 38.56722 36.82747 34.25154 36.93997 42.94547 51.21333 55.11840 54.09653 48.45602 43.13504 36.97984 32.16294 29.37503 28.03880 28.50859 28.37878 30.28161 32.37923 33.96440 32.56336 30.62579 29.72907 30.02013 30.44885 28.16377 29.10810 26.99286 25.58184 25.18825 25.34279 23.52434 25.24835 26.89008 25.76885 25.26409 25.50727 25.38045 25.13979 25.85576 24.83010 26.01371 23.84316 23.82457 25.22010 23.55460 26.32407 26.64190 25.91231 25.75397 25.30706
26.12542 26.21101 24.41144 24.34829 25.08950 23.66553 25.51916 23.88669 24.04405 25.27197 26.25422 26.28683 26.67986 24.73698 24.76274 24.20538 25.45035 26.65423 25.87420 24.94091 25.32309 26.59670 27.32550 29.33122 26.37672 28.25224 28.98844 30.36021 27.23940 28.96593 28.34972 30.32374 31.16520 33.50243 32.25716 30.22060 28.42279 31.52569 34.19445 38.87638 42.01808 44.89351 45.23654 41.55105 37.89211 34.77258 31.96907 35.44675 38.39763 48.81391 54.79362 57.43966 60.63013 57.66681 50.74098 42.48352 39.68470 45.64632 51.61584 58.42523 59.70810 55.28604 54.86397 51.33359 46.07835 43.81499 50.65992 50.59208 47.95851 40.82785 45.02092 49.38243 44.83565 45.74186 37.49416 37.97880 41.63593 48.84902 52.13037 55.12354 56.37214 50.72883 44.91077 35.31581 31.61405 28.68838 26.57853 28.96372 30.05384 33.01896 34.17525 34.31582 35.29535 34.30892 30.98052 30.39983 32.82007 28.61320 29.70076 28.04355 28.30749 25.18543 25.61387 25.46994 26.00315 25.95214 24.55543 25.12904 25.26565 25.31544 25.07785 25.72036 24.71188 25.77915 22.71850 23.75681 24.55919 23.98242 25.25021 25.68649 25.66654 25.00856 25.68857
23.96000 23.62516 25.06909 27.55836 25.70515 26.99179 24.30650 26.70364 25.66316 27.07167 25.53470 23.96028 26.38068 25.60398 25.36422 27.31923 27.14809 24.69479 25.05934 25.29849 26.72177 24.77491 29.93158 26.78254 27.57043 30.17185 32.03938 29.22658 28.92066 29.32900 28.52704 30.09421 31.66975 31.98098 34.31336 32.14600 28.56757 31.61474 36.22371 40.59233 45.29977 50.19497 49.84549 41.86412 42.38320 39.35848 35.10392 36.51127 38.09873 42.96618 50.05424 56.46895 59.29527 63.15537 55.09755 48.03488 43.31135 45.31504 56.40434 62.95838 60.18914 59.22016 58.97555 57.71984 50.39781 44.32322 54.29992 53.48421 46.11500 47.00065 52.79542 52.25695 50.91915 48.64374 38.41647 38.85166 45.74852 50.16736 58.50482 59.83764 57.70655 47.77076 42.71868 35.81604 31.63747 30.31603 29.71480 31.66867 30.08831 33.36320 37.67924 38.69293 37.95454 36.33348 33.42672 31.85617 33.73461 30.85712 27.83337 26.94065 26.88194 25.23167 24.70943 24.24367 27.31372 24.55010 28.25330 26.11084 27.53457 25.36115 25.36691 24.06297 23.06779 25.54724 25.28503 25.19184 25.81989 23.67312 23.76756 23.92152 25.51915 25.96261 24.28879
26.57689 25.04352 24.89817 24.76645 26.61051 23.62097 27.49068 26.24168 25.78410 26.44722 25.57855 24.86917 24.72271 26.68288 24.16561 23.39452 26.24463 22.45778 25.23527 27.94383 25.48103 26.38643 27.03159 27.39049 27.08789 29.83380 30.94806 31.59391 32.70725 31.68850 32.36178 33.05375 31.91850 35.02503 36.22429 35.98514 33.82243 32.28717 35.30524 39.59184 46.40201 49.53077 52.58164 52.08842 46.07565 43.08727 41.10136 37.96646 37.80534 42.96023 50.98623 57.55419 63.85530 64.05686 64.11688 56.74752 45.55517 47.58707 57.39735 65.66925 66.03744 62.49286 63.08830 59.78258 55.90258 57.22288 59.63306 53.07329 50.75497 56.77437 58.57606 61.03129 58.91561 49.26688 43.32583 40.03749 47.41888 52.54896 63.65372 61.57331 54.71399 47.22473 41.28520 34.63175 31.94711 28.75773 28.26394 27.49322 31.73717 38.20889 39.42042 40.70792 39.03248 40.63764 36.80765 33.64900 30.84273 28.94647 28.68347 27.34216 27.03806 24.77201 25.98529 28.70437 28.88761 25.05122 27.60047 24.33197 23.71002 24.45548 25.07576 26.62198 23.59611 26.88232 24.29714 26.44777 24.91456 24.31375 24.06878 25.67653 25.58106 24.95026 24.39942
25.98197 24.79024 25.23209 26.33902 25.64913 24.51380 23.01236 25.56194 25.60907 24.56238 25.53797 26.24104 25.47089 23.43099 24.59422 26.92981 26.33903 22.90824 26.83010 27.22577 23.28661 26.09102 25.80019 26.50894 27.27842 29.31610 29.83454 32.20127 34.97049 34.44548 34.57356 34.65373 33.70511 34.72463 37.78155 39.19275 35.82165 34.34910 35.71932 36.60214 44.95857 49.97989 54.55014 56.97490 56.33063 47.97218 45.48354 43.39956 40.35804 41.30713 51.27948 57.57496 68.50135 68.44156 63.64903 59.44124 53.86070 51.10619 61.73146 67.64508 71.60713 71.60100 72.75419 66.07490 57.30304 61.81176 61.57920 57.57004 58.38368 61.69867 65.33914 60.15371 55.83470 48.63188 44.03441 41.79196 50.64309 57.10828 63.76240 62.06942 55.94811 45.57716 38.90532 34.08239 29.62622 28.43173 28.43834 31.36063 33.31259 38.15070 41.88204 44.07177 44.42580 40.27926 35.24946 33.40964 30.21213 29.63653 27.77556 27.42151 26.85584 26.45436 25.32559 25.68575 25.41073 26.30573 27.51605 24.62955 26.98512 24.83071 23.21590 25.82125 25.84036 26.54626 25.52147 24.20851 26.77641 24.31028 26.66869 26.51222 24.62287 25.66145 24.91686
25.89869 25.75298 26.75780 26.98944 26.33750 25.53824 27.20404 26.43773 27.84382 23.67209 25.22222 26.11246 25.95179 24.90851 23.98303 25.25592 25.61087 26.96565 25.68113 23.73852 25.85544 26.42212 26.07436 28.70034 26.20039 26.79708 28.96787 33.07933 34.40261 34.76669 37.13995 36.40681 37.90468 36.18774 38.96013 40.43069 39.84632 37.02250 32.53408 35.51302 41.66986 46.62549 55.97073 61.78110 61.89647 58.65055 50.95354 49.56361 41.94639 40.92106 52.40507 53.11971 65.65384 70.70376 68.18668 62.63532 58.21369 56.76020 64.52280 73.45810 73.76706 75.45492 76.22244 65.85388 63.59915 65.50798 64.99959 69.31831 68.85128 73.20475 65.05780 59.86350 55.24152 52.80502 49.49429 47.79575 51.22934 61.96971 64.28447 59.25995 54.42534 46.71467 41.48664 34.55435 29.06129 29.39306 31.87544 33.66333 35.57533 42.53410 44.48025 45.51368 42.38855 36.98053 35.98542 31.02939 27.15940 29.98960 26.50679 28.61669 27.65494 29.47396 27.20821 26.01881 26.29058 26.41240 25.53989 26.48092 25.34391 25.38756 24.01119 24.91823 26.97704 25.02476 25.50493 26.83612 25.50023 24.92705 26.37013 25.04812 24.39713 22.71873 26.40281
25.19517 23.99224 27.26467 26.19447 26.78530 24.05448 26.52024 24.80424 27.95498 23.14228 24.32182 23.68295 25.29095 26.10025 26.02293 25.46141 24.92014 26.09034 25.23010 29.01407 28.07093 28.20419 27.15388 27.45367 26.74199 28.32428 27.44640 30.49636 33.20954 34.35410 36.55350 39.77355 40.80466 39.62252 39.19935 42.18548 43.85790 39.97673 35.11021 36.07623 41.11596 47.20755 56.69087 63.62537 65.26768 63.76651 56.83033 53.16165 47.74927 46.18909 46.14278 53.74066 64.72384 73.74256 75.69095 72.17689 64.06006 62.53382 66.89628 79.33397 81.52826 82.50721 79.85087 71.85800 72.58131 73.79897 76.18589 73.43867 77.56631 78.79737 73.87952 64.64594 62.66938 59.56478 52.46991 54.72055 59.93574 63.00359 63.72233 57.22811 48.00105 40.23395 34.73247 32.83996 34.83651 34.06895 36.35379 36.57348 40.04648 44.90193 49.01396 47.00547 41.55568 36.29393 33.32135 29.33208 31.05833 29.71499 28.81462 30.92251 27.05212 28.00109 25.67477 24.56078 25.00418 25.94358 25.36588 24.42755 23.96853 24.68694 26.40071 24.13468 24.65948 24.79540 24.78118 24.40131 24.68822 24.87945 24.81415 25.11165 24.54818 26.09402 24.85301
24.13875 24.83889 24.26341 25.28781 25.60342 26.35946 23.77708 26.91287 25.86307 26.39000 27.22398 25.38898 24.12942 26.27397 26.02235 27.84949 24.64529 26.16840 27.12895 28.30690 24.99174 26.22948 28.81780 27.60022 27.79553 26.83563 27.47355 28.86706 30.95654 32.19947 33.12537 37.91750 40.36854 41.11731 42.77580 44.71324 46.52900 44.76111 41.85070 41.04047 41.57653 42.33585 52.40424 59.90119 69.66942 69.97600 65.97688 61.06377 55.76692 47.36938 51.32365 56.38232 65.19211 73.51492 80.12709 79.20672 71.30908 69.95070 72.10906 79.14486 86.30224 87.08356 85.47511 82.66597 81.07570 86.21419 83.37991 81.80038 82.94115 81.13363 74.17601 73.36732 68.37442 63.31634 59.04012 61.51485 66.41957 68.05355 61.89244 57.65441 43.04691 39.28405 38.35226 37.35497 34.71056 34.29970 37.66908 43.93773 45.82073 46.31943 48.67944 44.09628 41.45243 36.76411 30.95357 31.51418 32.43096 32.83050 31.34799 30.37262 27.77988 27.95387 25.87422 27.43724 27.46299 27.30898 25.53578 24.86479 25.59779 27.01571 23.77119 26.26250 25.17199 26.44137 23.91320 24.44306 26.01114 24.84371 26.96948 24.90829 25.05988 25.04904 23.69518
23.15717 26.77603 26.13209 23.11545 25.48443 25.21755 26.36452 25.60906 25.54722 26.41145 26.55766 25.44188 25.91787 25.58180 25.76297 24.23497 26.44798 25.72850 27.09578 26.58183 25.52846 27.32851 27.43703 26.20891 26.91673 27.35976 26.35465 28.41111 27.05219 29.25899 31.74700 35.77942 38.96361 42.18669 43.85258 47.53950 51.21135 47.07408 48.64874 48.96423 44.97268 41.12182 51.27508 58.62836 68.15724 72.72350 72.04585 69.01493 58.55314 53.57766 57.62112 61.81645 64.71710 77.44066 85.83386 87.06071 76.43784 78.37084 83.43454 88.07292 91.11107 92.93725 91.04205 89.29791 88.35338 91.36126 87.49139 88.05132 89.15308 83.71708 79.49667 78.25923 72.22407 68.73097 62.36802 68.03935 73.39037 72.40582 62.54939 54.29598 46.99989 42.82451 40.25454 38.09491 36.69768 35.26565 44.49915 49.49398 54.10900 53.51563 47.22974 41.87448 39.46299 32.63614 35.67667 36.08224 34.88703 32.82513 31.84887 29.12916 26.76501 26.20228 27.65658 26.19261 26.62881 27.83407 26.39977 26.12414 24.53708 25.91519 24.86108 26.40452 25.09318 24.95186 24.78151 26.04720 24.54020 27.10346 23.51971 26.17014 25.40744 23.98025 27.41004
24.78180 24.22249 23.19772 25.18874 23.84531 24.79716 26.24789 25.25898 27.34854 24.03284 25.60278 25.33122 25.28005 27.33877 25.02819 27.21258 27.12784 24.98204 25.19706 25.74796 26.04990 29.51016 28.66303 29.18794 29.90924 27.23365 29.68272 28.56364 29.42765 29.63602 29.58894 31.92687 38.94210 41.88740 46.48274 50.56488 56.77589 55.58098 55.96014 54.21330 45.64817 43.91611 54.90099 58.52587 66.99743 79.86909 77.50538 74.04529 70.75124 63.89090 66.85320 67.44908 74.05657 77.92975 88.49868 91.06355 87.95078 85.26760 93.24358 96.28962 97.33958 100.60095 101.62384 97.64715 99.90376 95.36861 92.88024 97.00376 97.32386 90.00187 86.51000 83.39259 82.04311 78.69320 75.95318 76.62633 78.33198 74.68353 61.81644 51.38859 49.06004 50.22672 44.47809 38.72927 37.17632 45.41482 51.17292 55.59502 57.32332 51.97537 46.26490 41.64777 37.42586 37.59353 38.18155 37.87657 38.15452 34.64719 30.98857 30.17935 31.74103 28.42092 29.97630 27.80078 26.65647 25.57951 24.15617 25.96409 26.56876 25.53597 24.99780 22.49909 26.54059 22.78281 27.69289 23.36009 24.47424 24.86408 25.93520 24.77601 24.60399 25.16094 22.80829
25.31593 25.81818 23.35513 23.40910 25.41108 25.10996 25.22471 25.25732 24.08751 25.57117 25.55194 24.16877 26.12776 25.06477 26.95030 25.18900 27.20235 28.76163 27.68033 25.89390 26.30606 26.63326 28.94399 29.25014 29.91114 32.59484 30.68772 33.72476 31.80997 31.80834 33.03494 31.58881 34.63511 38.82425 45.68573 51.81051 56.32922 58.78387 60.71574 57.98189 53.76937 50.78813 52.84794 57.62131 67.62158 74.11786 81.44091 81.06200 73.21588 67.45735 70.96900 72.67997 79.48879 85.61527 89.90833 97.36453 99.28941 95.58746 102.15460 101.45634 104.98278 103.65964 104.95562 103.63586 106.48116 104.18742 104.34873 100.80851 100.26442 96.47829 92.04665 91.60842 88.08253 82.03871 82.61553 81.08983 81.59328 76.00492 63.85307 57.33333 57.37387 51.97642 44.15509 45.44162 47.63758 51.64291 56.73063 62.63332 60.86463 54.36093 46.81695 44.43868 41.99141 46.43187 40.29810 41.67763 36.85588 35.61677 35.99319 31.61851 29.98750 31.79433 27.52941 27.33025 27.34530 26.71758 25.79040 24.42985 24.57358 23.90923 25.77688 25.75177 25.28580 25.99585 25.78285 26.03609 26.32621 25.65138 25.22148 25.31255 24.48862 24.02929 24.14330
25.48856 26.56191 26.17075 25.45109 24.04777 22.44561 23.93110 24.78410 25.41454 26.34440 23.70583 23.54965 25.39993 25.49476 26.31575 26.31302 25.69404 28.24014 27.42102 28.43920 28.38152 26.87212 25.85520 30.05305 28.65303 29.93326 32.56547 36.23627 36.26127 35.51058 38.46729 34.32227 34.16031 39.29764 41.62393 52.08622 56.14652 63.10186 67.59843 68.22201 62.60316 58.45792 54.84120 55.64580 62.51319 71.35383 81.43476 84.17480 80.00402 75.97202 81.03585 82.67485 85.87821 91.87690 99.32329 101.98884 103.64128 102.74541 105.02769 106.48928 111.59307 108.00618 109.07013 110.47360 108.71044 109.18378 107.97336 108.15636 105.68081 103.10312 101.51645 98.54187 96.96406 93.08009 91.68024 93.19443 81.48501 74.33373 66.03164 60.65065 62.31543 56.15177 51.86156 51.17566 51.08987 57.52861 63.29158 66.15312 61.40037 56.01903 50.82786 50.51408 49.51985 45.41641 44.97074 40.12387 37.72317 36.49975 34.18656 33.96458 28.94345 27.60105 28.58983 23.46324 27.07715 25.00488 25.37476 26.72041 27.46210 26.52590 27.15319 27.69647 25.62518 25.32505 25.17028 24.90766 24.80114 27.27329 26.72701 22.86490 22.46604 25.40768 24.93282
23.48642 27.00082 25.64486 24.65965 25.06376 25.22092 24.53787 25.95418 26.73815 26.06125 25.38630 26.14128 24.72428 25.38797 24.68608 25.26009 28.65990 27.83945 28.27409 30.08322 30.96434 30.73275 29.55453 28.24856 28.54850 31.12128 33.77897 36.37894 38.11933 39.40815 43.69044 38.81077 35.56163 35.19256 38.35512 44.45958 51.79398 61.29471 68.86036 71.64206 72.62347 67.03446 67.02881 63.87987 63.93988 71.15849 78.96509 87.45862 88.08792 88.16492 93.66195 92.22015 95.18105 96.19044 104.20016 106.58418 104.51964 105.06401 107.82690 108.98716 110.40322 108.28763 109.01691 110.10832 108.39197 108.93677 108.80773 111.31964 105.61265 106.67637 106.32103 104.78171 103.31593 101.45541 101.63716 91.18703 86.58913 82.75819 75.70600 68.36762 65.46434 55.86555 49.34132 58.04152 64.94679 65.40580 72.91701 68.51291 61.61085 57.85931 56.73353 55.45193 53.69601 48.24931 48.79834 41.88543 39.50381 34.92746 33.41505 29.61666 29.48073 27.07134 25.55362 24.68591 26.10055 25.92157 25.94798 27.25557 26.24304 25.93481 26.36300 27.39110 27.05477 24.16754 27.77021 25.69754 26.44440 26.17061 24.22632 25.48767 24.60570 24.01292 23.44946
26.66911 25.68699 24.63143 25.75272 25.07135 24.57631 26.22744 25.35074 22.59660 24.99394 27.21079 27.12464 27.21455 24.35508 27.07262 26.17837 27.83758 26.28682 28.57654 30.08788 30.31182 32.11706 33.19205 30.24542 30.61997 32.02321 32.44311 36.70242 40.74541 43.60462 45.42471 45.03943 44.14089 41.64573 37.88794 39.47361 49.93568 59.25385 67.56156 74.84725 77.82280 75.36890 74.14198 72.30705 72.15574 71.98942 79.52715 91.89353 91.19479 94.69197 96.39722 97.97403 101.12884 103.37065 106.96906 109.87054 110.00038 109.26014 109.22010 107.67587 105.99252 107.65939 107.43798 108.80825 109.33877 108.84421 109.02534 108.53443 109.55752 108.96086 109.24278 108.40123 109.45638 106.83305 105.04147 101.86942 92.36944 86.15757 80.81211 72.64526 65.84400 58.91127 61.07131 63.49475 69.82431 76.76656 76.76183 70.82440 64.86367 58.80721 56.98411 54.90922 51.88856 46.00206 41.33089 40.11952 37.56853 32.49593 30.36158 29.87545 28.91742 28.93506 26.13253 27.80227 26.86524 27.52028 27.12842 25.85114 27.18504 24.84826 27.51177 24.76750 26.19460 25.33562 24.56767 23.31141 25.98031 25.59575 25.87390 25.91112 26.15877 23.65902 24.46844
25.59743 25.33808 25.32397 24.14483 25.48517 24.01974 24.24445 24.25188 25.22764 25.17848 26.68922 27.17055 27.56127 25.97611 26.43360 26.08703 27.21039 27.16058 30.29738 33.55667 31.53164 35.51981 35.50367 35.21907 34.70722 35.14442 30.84471 35.16199 38.57111 44.19063 45.91194 49.00827 49.21751 49.19496 45.09304 43.08721 48.00880 56.09491 66.45517 73.21735 78.97868 80.43745 78.98580 79.49357 86.11633 85.18737 85.20401 90.98699 100.75259 101.72000 103.54500 104.27567 105.33465 107.49327 110.46081 107.72632 108.11128 105.84587 106.55721 107.09430 106.30623 104.41089 104.77808 106.48626 107.65879 109.45686 106.73302 107.57691 107.53460 108.04560 106.45868 110.13601 108.84605 109.81788 107.03723 103.23012 99.09773 90.06529 86.55569 73.63957 68.96456 68.70895 72.62604 73.42851 77.69606 78.68448 78.72123 71.57282 66.52740 58.00950 51.09272 47.75130 47.65947 42.90933 36.11097 35.67711 31.67541 32.06681 28.41951 29.40697 29.19638 30.67329 28.94911 28.04022 27.11954 27.65867 26.86764 25.02956 26.61030 26.24436 26.05000 27.02178 25.67130 26.58967 24.76886 26.68056 25.03413 26.29167 22.85870 25.28986 25.97794 23.79696 25.94262
25.99434 24.61034 24.67857 26.46632 25.82872 24.56120 25.20767 23.23040 24.77719 24.69057 25.15250 25.55681 26.03460 26.40847 25.29033 26.06739 28.20902 29.72783 28.78182 31.42822 33.00209 35.73632 38.44672 37.86328 38.49016 37.91698 36.08059 36.36893 37.83512 42.42254 43.99755 50.85291 55.73393 54.54582 52.48524 46.21424 49.85154 53.23385 64.41417 68.30528 76.92591 87.45083 88.05030 92.58219 90.09435 91.17150 93.30389 98.61656 103.39349 105.64125 107.55943 107.98966 107.50163 108.20839 108.83243 106.40726 107.29885 105.35413 105.09475 105.56752 105.94560 104.05364 104.50531 102.29122 104.10836 103.55298 103.36741 106.65369 104.82517 106.81738 104.98454 108.27145 109.58959 110.62175 107.68574 106.84035 104.49389 94.91596 89.59626 82.98059 78.86704 77.56699 82.93945 85.46130 84.52766 82.98314 78.48560 69.69353 61.16289 55.71252 46.84147 45.92058 42.62263 36.96109 35.33070 31.12378 31.79936 29.19700 29.42578 30.59347 29.90852 29.85390 32.91073 29.28088 27.37550 27.40333 26.32435 25.66408 26.99319 28.61692 27.75604 24.43836 26.95030 26.51572 26.92755 26.40943 25.74022 24.15787 26.27571 24.21110 24.45135 24.39550 26.66373
25.67337 25.23435 23.13614 24.48733 24.59916 24.48156 26.20635 25.82206 24.62726 23.93667 25.44957 24.59332 25.99603 25.76273 23.85709 27.38482 26.85592 30.83494 28.66182 32.57127 33.88717 36.65991 39.52445 41.84886 43.71764 42.03183 41.17029 41.05195 41.25732 39.60727 44.34331 51.42005 58.20988 59.96572 57.51337 51.69359 53.60637 53.47907 55.28916 64.80894 73.42023 85.14038 92.38795 95.07620 99.32458 98.88598 100.25035 106.65097 107.27317 107.65211 107.76005 107.32554 104.07929 104.84436 102.31796 104.46666 104.11106 102.04389 101.76885 101.77788 102.17833 101.46995 105.13153 103.50195 102.41608 102.86675 102.51171 103.62627 105.35344 104.05444 105.01911 107.50030 107.23836 107.42891 107.78486 107.87407 105.18236 99.41192 97.09342 95.75969 87.88106 88.05717 91.65317 92.17845 88.22427 83.26518 74.43161 67.20776 58.77080 53.71737 48.09389 47.23251 40.20125 37.19008 32.36441 30.87397 28.82160 28.61452 30.55590 32.81553 33.28820 32.70371 30.90443 29.70737 27.19132 25.78985 28.38542 29.05723 28.27095 27.01480 27.18241 26.04834 25.83481 25.39873 23.95438 24.41534 26.45428 23.12729 23.95575 26.84475 26.21162 25.87380 24.31156
26.36702 24.95521 23.80494 23.15391 25.65853 26.91532 24.47127 24.97895 25.40442 26.89328 25.45753 25.57726 23.36136 25.20132 26.92212 25.61410 28.30428 30.92833 32.55764 31.86584 34.02628 35.82084 39.13993 43.14548 44.44823 45.60268 46.41762 51.13361 51.15525 49.26798 48.80001 51.91601 56.15786 64.75737 67.82576 66.34463 61.74244 59.37127 61.77821 61.76849 68.43732 85.19331 94.31539 99.99056 103.76695 106.07337 106.09103 108.68798 108.25665 108.43359 106.36447 106.70881 103.20618 102.10543 101.13797 102.04507 103.46569 100.33158 103.19659 101.11035 101.54632 102.51790 101.57225 100.70854 101.48024 103.09990 101.26100 101.92735 102.27460 102.99609 103.08602 103.71964 107.19013 105.36918 106.90122 107.39444 109.13385 106.03974 103.73619 101.36537 98.60694 95.39137 98.53400 94.04277 89.00998 85.17085 74.51831 65.29655 61.03968 58.16860 53.45216 47.98570 42.88510 36.62666 33.51982 33.23672 35.68057 35.37174 34.69761 35.73122 36.86645 32.13619 31.35433 28.00999 32.73649 29.56763 30.30184 29.03049 28.38855 28.13518 26.42530 26.36451 24.17095 24.93394 23.34156 25.04499 23.46700 25.95859 25.33414 26.07411 24.52648 24.88906 25.52566
26.74469 24.75235 25.41190 24.08135 23.67499 23.96945 26.10622 24.48716 26.20998 27.48508 24.45276 24.62800 25.00966 24.69187 26.33873 24.77221 27.36342 30.02881 29.57225 31.79829 31.84167 36.03921 37.91569 42.60151 43.59856 47.16425 49.12254 52.48187 53.82864 53.97832 56.11583 59.09721 60.30006 66.10685 72.28138 72.66959 70.21647 68.37452 66.07968 65.58453 70.01316 82.63702 90.60694 99.88188 103.94225 109.46591 108.15834 108.10266 108.11488 107.34512 104.63518 104.31476 101.35950 103.79368 103.05338 101.54273 99.98617 99.09615 102.33788 101.39016 98.87090 101.20955 100.27667 99.64274 101.75271 98.41892 101.53281 99.50017 101.66271 100.66559 102.48238 102.62639 103.27355 103.97998 106.77555 106.10967 107.86278 108.53574 106.23696 104.04806 103.37011 102.69089 101.83973 94.81879 90.53791 84.60814 74.91276 63.70098 60.74595 57.03836 50.10088 46.07108 40.24026 35.12756 36.62559 37.99378 42.76872 37.23776 39.63731 39.80765 37.09140 34.88942 29.29833 32.77204 32.72920 33.81594 32.17531 30.12009 27.63615 28.19459 28.99469 26.41733 26.64755 24.81073 24.85222 26.15596 25.22883 25.66829 27.10960 25.62538 25.04582 26.27412 25.71234
23.76557 26.85179 26.21376 26.45951 27.13272 25.62319 24.54580 24.04317 23.94044 26.40345 25.59732 27.69003 24.23949 25.68950 26.21675 26.24558 27.20561 27.54666 28.29795 27.40902 30.54979 33.40103 32.66516 37.67571 44.01273 42.38127 47.77931 51.25522 56.65074 60.14097 62.43094 63.03252 65.80588 72.30387 76.14797 78.42496 81.29865 77.89723 79.86074 80.60512 80.70689 83.69456 92.07244 101.26856 105.35849 108.67647 110.17205 105.34926 106.84087 106.66348 104.58507 104.80081 100.83761 101.97398 100.29345 99.25774 98.68026 98.52923 99.36704 100.12380 99.81384 97.37161 99.04822 100.09820 99.75578 98.82753 101.14371 100.13375 101.24778 101.07765 100.42205 101.16585 102.55854 102.69778 105.04169 105.54158 106.60188 106.93935 106.19324 107.22013 107.84513 106.66025 101.97638 93.01577 87.32966 81.03035 73.24525 63.65822 52.11418 46.55535 44.36151 39.79965 38.25203 39.09423 41.79900 50.27905 48.83227 46.40601 43.36820 40.94242 38.86826 38.03356 36.78682 35.23774 38.34199 34.59800 32.10689 31.07031 28.66662 27.24468 26.71240 27.18144 26.31438 27.13159 24.58352 24.21934 25.18517 25.21988 24.83930 25.67308 25.07483 26.28303 25.34760
24.81532 23.30865 25.77633 25.70178 25.56935 22.80065 25.83971 23.57246 24.45166 25.39648 25.85608 25.00749 25.19430 25.33830 26.70111 26.66557 24.71573 27.34244 27.76085 26.31543 26.70694 26.56318 33.27259 32.77407 35.91168 38.15053 43.42294 51.87270 54.86740 55.82637 61.14416 64.18015 66.27799 71.52919 80.57907 82.88036 87.16422 89.15372 85.59165 87.97333 89.89197 88.82775 96.34524 101.59845 105.57636 106.19971 104.85781 105.10853 105.06617 104.19568 103.96443 101.49388 100.26969 101.45798 100.53068 99.33589 98.77861 97.71164 98.89072 99.74308 99.44491 98.13892 98.55739 100.24395 98.89943 98.42975 98.42817 99.13357 99.53119 96.75288 99.69856 101.60235 99.66032 103.41709 102.88683 103.39594 103.81756 104.15677 108.01272 108.63322 108.80083 105.47964 99.50079 94.00503 82.44696 71.30699 62.77487 55.39540 51.51149 52.08391 49.03153 44.68800 47.01694 50.14533 46.48136 54.60557 50.35389 53.84342 50.20286 42.88188 43.19278 40.90438 43.14160 39.68670 38.35602 37.38107 33.56774 31.64970 28.38793 25.38252 25.89658 27.34553 26.00239 25.97281 25.78629 25.76205 24.34763 26.24669 26.38687 25.11520 24.56206 24.71007 26.90307
25.51080 25.78923 26.73949 26.87278 26.36764 23.47220 25.27332 25.53462 26.21259 25.30817 25.97116 26.20681 25.52636 26.90745 26.91897 25.49221 26.21946 26.14087 25.90243 26.24842 26.76396 27.41009 27.10634 31.01582 32.00598 35.90972 41.77318 45.10583 47.40619 51.78165 53.13537 57.86644 61.00154 70.40903 75.26836 85.58918 88.53668 94.11967 95.90214 97.40143 100.47267 96.38662 105.89191 108.50997 106.82859 106.96352 105.15523 102.99216 104.86908 103.57919 103.13500 99.41646 100.75535 99.54540 98.68002 98.56545 98.98991 97.55691 98.66888 97.72766 96.94478 99.96197 99.18486 96.85697 98.64014 95.35487 97.65242 99.02906 99.04655 99.26916 100.06075 99.23604 99.67739 102.36884 101.60961 103.06999 104.72396 104.76884 106.64875 109.71194 109.22989 105.82958 101.12234 93.79987 77.56894 69.71663 62.33448 61.19662 61.93956 57.80300 55.14476 53.23874 53.41937 55.76247 59.34978 65.36109 61.41766 56.48874 53.54917 48.10388 46.26271 48.08717 44.24102 41.00880 39.50282 35.39008 31.78801 30.67250 29.00462 25.67867 24.99622 25.56575 24.96374 26.82337 25.86646 27.02594 22.93830 25.66026 27.62472 27.43359 27.35763 26.81454 25.52385
24.18163 26.65395 25.50321 23.99290 24.90044 24.36491 25.67208 25.26838 24.88076 26.00129 23.83850 25.73898 25.39694 28.69718 27.67313 28.12822 25.96706 29.66432 26.76230 27.41490 27.45784 28.02331 27.50846 27.61576 30.90333 33.88439 38.64248 39.09547 40.38088 43.04669 50.15291 50.09307 59.02694 63.01348 69.86928 77.68695 85.12868 88.21210 97.59952 101.05435 104.12255 103.30040 108.72653 107.38513 108.21021 106.86476 104.35806 104.17203 101.55803 100.87331 101.08378 99.64171 98.58533 98.02896 98.72751 98.17274 97.28969 97.86869 98.93345 97.33877 98.27373 96.96364 96.96690 98.09163 95.62207 97.09730 97.85726 96.73841 99.39960 98.53485 98.38207 99.05982 99.34459 101.00299 100.79293 100.63963 101.85540 102.73453 103.32547 105.61035 108.01754 107.52569 103.25568 92.98571 87.83494 76.09854 75.32534 67.31001 66.90921 66.41070 62.48035 56.87066 57.65951 64.07679 67.25007 66.24110 62.52983 60.53206 54.38434 52.60049 50.14414 45.40729 43.33065 40.17554 34.81220 32.01536 29.51213 29.20279 26.11555 24.33250 25.96452 25.39627 27.32919 28.12730 28.02773 25.80329 25.53852 24.99082 25.19540 26.65478 25.25985 25.76497 25.45470
24.53968 25.31820 23.49130 24.91849 24.33576 24.46157 22.13182 24.89258 27.52753 26.18907 27.19752 25.31738 26.64357 25.75382 28.46920 28.02317 30.41597 31.10943 28.89272 28.92169 29.29976 27.13110 28.04028 26.07588 29.98324 30.34758 34.41623 33.14906 36.74814 40.99938 40.39914 45.00548 50.61567 58.97089 60.80236 72.97741 71.43546 83.06681 90.55449 98.93889 106.64803 107.69029 108.82510 108.75587 106.13047 105.56500 103.78138 101.32120 101.95912 98.92760 99.50481 98.04188 98.30222 98.80248 99.09350 97.93551 97.23680 98.04970 98.38087 96.22571 96.13908 97.19216 97.21008 96.53761 97.21740 96.82239 97.95419 94.61742 97.79457 97.79779 97.54410 98.03735 97.37228 99.91385 99.16451 103.59543 102.30297 102.58860 106.14206 105.46601 105.98557 108.15695 106.09900 100.43009 94.79449 87.82415 81.47644 77.47679 75.24012 74.78020 69.10028 67.79639 69.25143 71.36079 71.86021 71.80807 67.74946 59.45893 59.03398 51.49916 48.34134 43.21524 41.82375 38.10386 34.14655 30.06744 27.70527 26.25144 28.40977 26.26072 24.80138 27.28135 27.92200 27.80373 28.45270 25.28571 26.55934 26.55138 22.87828 25.21116 25.75829 24.45857 24.65617
24.95119 25.76007 23.64966 25.62147 26.04808 25.94657 25.80904 26.76880 23.61248 27.81063 26.47782 27.93672 27.25381 27.73700 28.15102 30.29644 31.14436 31.04687 30.01647 32.14980 33.45719 33.07350 31.02193 30.96126 31.46538 28.23294 31.51425 31.38696 33.71655 34.77238 36.49120 37.75466 42.87159 49.66951 53.60600 59.43673 67.70072 76.16282 90.58329 99.53649 106.09760 109.32476 108.74825 107.05290 106.08389 103.12264 102.44701 101.85845 101.78969 100.05264 99.27578 97.08137 98.71174 98.05013 98.54544 98.82081 100.08645 97.77170 98.28693 96.61874 98.50990 98.67581 97.51324 98.31655 98.20318 98.03199 96.64415 96.32255 97.23189 96.68334 96.80341 98.94120 97.05473 99.95702 99.04715 98.73411 99.54716 102.16299 101.57488 104.59551 105.23115 107.19992 104.62640 104.89983 100.10194 92.07434 90.48360 93.27318 87.94303 84.46241 75.35777 75.92690 76.84118 70.67902 70.75397 66.45097 63.14640 57.43158 53.01268 46.32169 46.09281 43.68447 39.01851 32.92393 30.30284 28.41038 27.22214 27.51170 25.90175 27.05756 25.96020 29.13964 26.33068 27.88872 25.94488 25.69141 26.08058 25.62586 25.48550 26.34966 24.70151 24.96192 22.92225
24.87548 25.88137 23.99910 24.87978 24.52357 24.45603 24.20949 25.57367 27.64299 26.19828 28.20542 28.78995 30.58940 29.80282 29.92416 30.94598 32.20087 33.12668 37.20914 36.85618 38.30050 36.07831 38.20519 32.32930 33.08247 36.89450 35.65260 35.55820 36.85335 36.82260 39.50112 44.25605 41.69736 46.61023 48.34258 57.38297 65.96718 75.05026 85.17237 96.00722 105.73246 106.91833 107.14957 104.46742 104.77773 105.05481 99.55580 100.25349 100.17115 98.10503 99.86078 98.90213 97.39452 97.34035 95.81288 96.74502 97.64723 98.22236 98.16650 97.98995 96.26814 97.99638 96.86566 96.32847 97.30150 97.36228 95.74180 96.54915 95.96437 96.41195 97.53341 97.29031 97.18901 96.41430 96.89695 97.45782 100.00415 100.38604 103.80115 104.05917 105.58522 106.44038 107.07449 107.31781 106.57604 105.30262 98.35430 97.57278 93.57944 89.01723 83.87303 82.74410 77.90041 70.99603 60.36919 57.60039 53.53698 52.53527 50.68982 45.98097 39.81860 40.03359 33.35838 31.72773 27.37945 29.45384 27.46824 29.30405 26.74984 28.33032 28.95639 29.47661 30.38945 26.33526 26.63919 25.18001 24.98279 25.77272 24.37537 25.04525 25.00472 25.92507 23.81636
24.97709 24.65992 25.47879 26.85983 24.90965 25.63417 25.43743 23.15313 27.33666 27.08211 26.74746 28.26561 27.26849 30.54421 32.19071 32.44375 31.75459 33.28959 36.03861 38.90740 38.33925 42.52426 40.17906 40.35738 39.74930 40.40409 40.07019 41.40814 38.75077 38.01620 45.71939 48.25440 49.27962 54.97912 56.89890 60.98967 65.70133 79.81744 86.62476 98.25615 104.48209 104.97762 106.17777 105.76374 104.24704 103.56031 100.46460 99.58480 100.51346 98.79696 99.46233 97.92816 96.44355 98.31269 97.06853 95.93066 99.93833 96.81852 97.49137 96.99078 99.49259 98.40021 98.44027 98.38324 97.46128 97.89130 97.82005 97.42367 96.81739 97.12814 99.66348 96.58281 100.17096 97.84407 98.33870 97.65997 100.21686 99.53243 100.40365 102.50621 104.07400 104.71191 106.56462 109.15226 108.69359 106.69424 105.30036 101.46876 95.01728 91.21185 85.62328 77.43164 72.43589 63.52629 55.35887 49.33812 47.76964 45.00090 44.94936 37.69006 36.85135 30.63485 32.37654 29.35226 28.57935 27.55818 28.77551 29.54867 29.15933 31.27595 30.13263 29.98798 27.75087 24.96270 26.49461 24.31905 24.04155 26.09331 25.45894 24.59982 25.64097 25.66070 26.04012
24.93093 24.51676 26.46073 26.39711 25.09840 26.39747 27.00107 25.13610 25.01362 24.79081 27.18587 28.19917 26.71731 27.22817 29.93262 30.19213 31.78664 33.49362 33.45350 36.99802 40.31416 42.10953 43.59314 46.06774 47.38738 48.15883 48.76207 43.70817 43.96226 44.62510 47.83225 52.45088 58.69433 63.17333 64.45995 70.80922 78.04940 80.61503 88.44433 99.80881 105.46017 105.95422 107.53441 105.67291 103.92918 103.05209 100.51400 98.30386 100.48777 98.96869 98.98348 98.13935 97.16273 96.70116 95.36996 97.86262 97.79976 98.66807 99.21116 96.17050 96.20128 96.28089 97.87783 97.34765 98.79679 99.03328 96.97531 96.98033 95.76054 97.00152 96.63571 97.33528 96.72473 96.72941 97.07699 99.03943 99.04550 99.24612 100.57214 100.65963 104.48639 104.42523 107.40371 106.20721 109.59214 107.58230 104.56364 98.94910 90.41993 84.77347 76.27422 69.51543 65.71134 57.66137 51.44983 46.61315 43.69771 40.22804 38.74648 34.85424 33.47739 34.21585 29.49978 30.64918 29.63646 31.72626 33.19390 33.12247 32.80297 33.09819 31.85751 30.13139 28.59387 29.58563 27.05977 25.58030 25.26644 25.84403 25.35511 25.42600 26.10129 24.37498 26.47668
26.31753 24.58578 23.33263 25.33671 23.11875 25.47027 24.57618 25.46652 26.04820 26.01440 26.65015 27.36477 27.73419 28.61602 27.58360 28.12545 29.88813 28.77905 29.81735 33.94737 37.13241 41.18429 43.39271 46.07150 49.71785 52.41892 52.50517 53.23305 52.34137 53.35813 50.86474 55.32172 65.54455 70.63017 74.72329 79.89872 86.28042 91.88936 98.08588 101.32256 106.53663 106.79402 107.32723 103.02955 102.61130 99.55307 99.29521 100.17062 98.72676 97.39804 97.37624 95.60162 97.38990 97.25713 95.52789 97.01266 98.32935 96.59511 96.40215 97.70024 97.15766 97.49296 95.71903 95.85556 97.25628 95.99499 97.76684 95.83550 97.65349 96.50446 96.40412 96.11460 95.05593 98.28193 97.55182 97.61903 99.16221 98.72835 98.72906 102.36484 102.64820 105.38805 102.08296 107.15400 108.49991 107.33702 105.99639 96.90113 88.64118 82.03602 72.32317 67.72881 62.13338 57.28689 58.56862 53.72247 50.47949 45.62327 37.97636 35.00981 36.27469 33.20547 33.67587 33.96879 33.72803 32.99444 33.24010 32.03488 33.42084 34.40877 30.46647 28.39922 27.14673 29.72976 28.20195 27.49245 25.57396 26.32589 27.88943 24.73899 25.55936 24.19770 25.47862
27.30434 24.83240 26.44535 25.27890 25.24756 25.94684 24.09820 25.01821 24.49176 26.02513 26.07213 24.02347 27.42513 26.04744 26.71474 27.39313 28.83364 27.78993 29.73540 31.85919 36.39055 37.21214 40.54544 47.31018 53.84382 54.88614 58.86421 60.99282 61.43227 59.29662 58.21247 61.95929 67.45333 79.81893 85.65183 87.24869 92.26069 97.88128 101.01903 107.49625 107.39062 107.54842 105.36042 103.93956 100.87166 100.87564 97.18360 96.79791 98.72124 99.86058 97.61185 97.58909 97.18575 98.49683 98.73616 97.12573 96.77493 97.19178 96.89957 98.13961 96.49435 96.58386 97.66150 97.64232 97.57145 98.47316 99.66762 95.31475 97.04151 98.78537 96.40750 95.43920 97.85170 97.69296 97.11174 97.83611 96.55587 99.53384 100.82094 99.51651 98.49759 102.47882 104.64292 106.90882 108.29752 107.27846 105.16474 97.77047 91.93111 83.24212 79.39006 75.73972 73.70766 66.89636 65.11469 62.51031 56.19771 47.78575 42.48018 35.28335 39.04312 39.32739 39.23795 37.32186 36.64171 35.51653 31.80565 32.10978 29.69001 29.58625 28.12349 27.77719 27.46483 28.11104 26.35555 26.96779 26.03019 26.32081 25.01888 24.38188 27.90566 24.26946 25.24863
26.57077 26.11159 24.48147 26.46885 26.13519 25.96151 26.03736 25.52254 24.14541 25.48325 24.38944 26.43598 26.67399 26.81302 26.85970 27.68169 29.90581 31.24791 29.65531 32.96986 33.80367 38.57967 41.17158 48.85418 54.64952 61.13768 62.78942 65.66204 66.11656 66.25129 67.58072 69.40515 73.25825 80.86454 88.84891 93.66991 99.86496 102.24512 105.58449 109.05463 107.09378 105.64092 102.70930 101.05019 99.68547 100.02666 99.11686 97.45121 98.86763 96.93082 97.62427 98.13375 97.13222 94.48063 95.96918 97.22804 94.85263 99.36707 97.76459 98.44215 95.81872 98.62232 95.17138 96.13089 97.08538 99.03258 96.91702 97.02990 96.99405 96.11559 96.34656 95.36021 98.72122 97.55421 97.54587 97.75029 97.54733 96.19305 98.91513 100.08559 100.42945 100.73742 102.95712 105.90067 105.93824 106.35318 105.52407 100.96555 93.45937 90.60803 89.30444 80.41983 76.42123 73.46749 69.41684 64.97268 54.10460 49.83871 44.34695 41.53452 45.89803 42.96414 41.17888 39.46700 36.62509 34.39701 31.56925 31.88070 28.73426 29.35836 28.01489 25.87934 27.16996 26.51780 26.30573 25.90709 25.62257 26.94554 24.26901 24.02381 27.38017 24.45986 26.77435
25.52740 25.87662 26.67317 24.42826 27.71511 26.25500 27.18742 27.00278 28.15287 26.26034 25.08747 26.18012 26.77760 26.28311 28.40537 28.31051 29.28184 31.06269 34.25541 36.74697 38.83947 39.96882 46.86729 51.11739 54.46049 60.47102 61.96268 62.69135 65.29063 69.87350 70.02378 72.45920 78.37053 82.57577 91.49856 97.45448 104.02504 107.63635 105.31408 107.35049 108.45552 103.87330 103.30485 102.59522 100.11064 102.03118 100.96665 99.46537 97.03261 96.70123 98.82414 97.71452 96.95006 97.05446 96.86033 96.53175 95.22634 98.32775 96.33157 96.17343 96.82933 98.60145 96.90444 96.15487 97.12329 97.67556 97.98237 96.72835 97.54650 96.33337 96.58745 96.80841 97.27817 96.63685 94.78648 97.70307 96.73866 98.73472 98.72488 99.09600 99.11779 99.48949 102.50209 103.65565 107.69497 107.72569 105.97177 105.18608 100.37670 95.96657 92.28629 85.82121 81.39090 76.32557 68.44095 62.26109 56.00947 48.36737 46.48383 49.48437 47.43046 47.06450 40.86480 38.43811 37.54768 33.10178 30.20722 31.09005 30.00966 28.52762 28.42527 27.95498 25.67904 25.18554 26.68326 24.07227 23.37370 25.45139 26.36237 26.75406 26.98467 25.95522 23.24973
25.86324 24.59234 25.35044 24.66675 23.38831 24.19764 25.57079 26.58243 25.46999 25.99760 28.08686 28.76962 28.08580 27.45903 27.52447 28.11749 30.57078 33.19629 36.58382 42.17534 42.41692 43.14750 50.76739 51.09794 51.36493 54.55254 58.16084 57.92491 60.34950 64.11332 63.62857 73.01741 77.26290 82.34105 86.35776 92.46435 101.60192 105.23174 109.68028 110.02145 105.78727 103.13399 102.40092 101.96417 99.80604 99.44545 99.76537 96.57050 96.95081 95.25823 97.47414 97.25579 98.18753 99.52071 96.43587 96.29331 95.65147 96.64606 97.76892 96.58470 96.90625 96.51263 97.09834 96.27793 95.18860 96.13701 96.27184 96.90594 95.14842 95.87596 95.72097 96.99696 95.72315 96.24685 96.56962 97.49051 95.29064 96.57150 98.13709 100.03504 99.56299 101.48496 102.82477 103.77767 106.38766 107.54909 107.24587 107.79570 102.53739 96.45213 93.23076 86.26959 81.15432 76.22450 68.68394 63.98845 59.64506 56.93362 52.75283 51.94872 49.41506 44.72979 41.47470 41.04061 37.74778 34.69148 32.26593 34.41302 30.47429 27.69226 26.90106 28.35076 28.74765 27.47442 25.77010 25.70550 25.76038 26.74104 23.99789 25.53864 24.67557 24.57480 24.77108
27.50414 23.80327 26.85230 25.07607 25.58803 24.78736 25.51255 25.70863 25.18938 24.65926 27.09586 27.24134 26.66056 30.41627 31.44487 32.97469 33.65157 34.15270 38.12043 42.48464 44.17748 45.98478 48.44022 50.50073 46.46452 48.67355 51.51006 51.99980 51.15485 53.37794 59.79488 62.87045 66.95506 73.27752 81.27226 91.91853 99.65518 104.44018 108.46076 108.64763 105.43868 105.37760 103.06741 100.61905 98.92372 99.35521 99.41423 98.10838 96.30015 97.88414 96.46021 96.78616 98.34103 97.30657 97.41788 97.31121 98.94059 96.53048 97.32900 97.60721 96.61283 95.94864 96.91552 95.25556 98.19888 96.73434 96.08910 97.43953 95.37862 95.52194 94.53921 98.02813 92.16136 97.26980 96.07348 97.11267 97.24813 95.96581 98.96620 97.32875 97.39111 102.42279 101.38113 104.38484 107.91964 107.53679 108.43333 109.75946 103.82269 97.63349 92.81852 85.51170 78.66640 71.42809 65.94289 60.49421 59.52834 53.15692 51.20262 46.53001 44.58668 38.74052 37.22268 36.74684 34.80083 31.47867 33.46452 32.22035 30.13982 30.91263 28.06140 27.23585 25.65029 27.96018 26.95947 26.29101 28.35388 24.59552 24.86313 25.30474 25.71545 24.56413 26.14495
24.99189 25.10375 24.51260 25.86736 26.04751 25.95866 23.28979 27.16294 26.58569 25.94211 26.33500 26.99254 28.28293 28.51063 32.89819 35.49434 34.76773 36.84035 40.57581 40.61437 43.45846 44.23819 43.54687 43.84617 41.56987 38.64297 43.43316 42.39114 44.57552 44.80497 50.63973 59.71359 65.61455 72.36219 82.69334 90.48060 98.34610 104.10570 107.59420 106.69238 106.02169 103.14141 103.67887 99.34024 99.05963 98.74068 98.72872 98.21370 98.67945 98.17403 98.96272 97.71998 97.24286 97.59000 97.72162 96.56934 97.69523 98.43511 98.03336 97.30292 97.30650 96.94461 96.62089 95.92706 94.06389 95.24077 93.48525 96.05450 93.52416 91.06002 91.37129 91.86420 94.23224 95.34131 97.45453 98.31922 97.96473 97.65105 96.74922 98.83239 98.59916 102.52973 101.12152 104.61841 103.83934 106.91340 107.95824 107.47556 104.22655 100.03665 88.69381 83.31108 76.84891 68.63813 63.75579 56.96931 50.48548 48.01557 43.03002 37.59583 36.63255 32.94396 32.52840 30.15783 32.85618 30.06701 30.27509 29.98008 30.05442 30.73623 26.82673 27.12947 27.06006 25.56784 24.86138 25.13368 27.47146 26.86019 24.60311 26.26653 25.39957 26.25720 24.62619
26.13793 26.09915 25.19204 25.99327 25.31457 24.64875 23.20203 27.26040 27.22954 26.73602 27.44432 29.31112 29.54945 29.79635 30.71597 35.11666 35.95307 37.90074 37.23157 39.51292 38.29969 41.78845 38.91904 36.95458 36.90564 32.64348 38.03159 39.80239 44.87644 51.76541 54.12874 61.44225 69.13207 75.70315 85.95627 93.06180 99.89958 105.28241 108.01892 107.48608 106.76945 105.44748 102.71418 100.67614 99.09417 98.22179 99.97555 99.47722 97.00962 97.12742 96.69679 97.97793 98.56820 97.65248 97.52233 97.07730 98.01743 96.30380 97.50444 97.04812 95.88147 96.76056 97.38813 96.81341 96.26287 96.37433 94.18703 91.38179 88.25237 90.70915 87.34162 85.15697 91.99837 96.35808 94.27485 97.19625 95.53359 98.55864 97.25946 99.16601 99.63217 100.03680 102.09737 102.78654 106.89951 108.54014 107.27836 107.62370 103.19541 95.98638 92.11532 84.47680 79.01142 71.54872 65.93141 58.03870 51.83151 48.44484 42.86913 38.87551 35.87059 33.41953 29.91867 29.46236 29.31028 27.66127 29.43695 29.04629 27.22126 26.87765 26.18155 23.97730 26.24792 26.26541 24.31128 26.07792 26.10627 25.93252 27.02413 24.33703 25.12574 23.39428 24.52122
24.57384 25.02774 26.33928 25.05587 24.57310 25.32309 24.61247 24.52688 27.36642 29.10968 28.18145 29.33573 26.99588 28.64045 27.81419 30.18158 32.44584 32.44398 33.38488 32.60415 31.56874 32.94357 33.12086 34.66714 33.37040 36.71107 42.91074 41.92626 41.92878 48.43096 54.37879 61.22722 71.46348 78.29529 87.39919 94.03805 100.65511 105.69259 108.65739 108.55173 105.47467 104.33084 103.35351 100.99697 100.36951 98.95068 97.41051 97.45402 97.63047 97.04917 97.48106 97.13032 96.48325 97.59604 97.92879 96.59118 96.61404 99.32175 98.10658 97.74359 97.33184 96.31009 97.47526 94.85926 96.58865 91.74000 94.52293 93.79148 88.33991 85.88995 80.19210 82.88652 85.37117 94.69193 92.89789 96.59372 98.05824 96.82666 99.71528 95.67487 98.86131 100.79747 101.51157 104.14933 106.00049 105.82293 107.13528 109.07909 100.75342 94.21699 87.97933 83.69535 75.23287 62.59657 57.65995 53.72366 52.75583 45.78741 43.27269 40.49587 36.66791 32.81346 31.40412 29.69925 27.03636 25.70218 26.30833 27.15060 27.09449 24.69506 26.07399 24.85286 24.13556 26.33559 24.75441 24.99486 25.19289 25.05889 24.30541 25.49787 24.48431 26.42156 26.60542
24.12662 25.84415 26.90561 25.66312 26.84757 26.74601 23.73108 25.32085 24.01843 26.31990 27.36291 26.89215 28.67142 29.76513 27.15158 27.48919 31.05727 29.63360 30.83410 30.42203 31.65630 29.77838 30.09533 32.85259 37.74644 40.65274 43.28270 49.18087 49.92284 53.59809 59.12159 63.31913 71.19456 80.58512 87.48016 93.97609 101.45188 106.85091 109.96362 106.92855 107.26211 106.15597 102.35770 101.91002 98.78516 98.53439 98.53110 97.78834 97.50774 95.75439 97.40527 95.47760 97.50684 98.78814 97.44200 96.31006 96.70369 98.49875 97.08752 96.30589 96.66086 96.47746 94.57581 94.21401 95.17820 92.95446 90.08793 95.36547 92.76565 87.35453 73.18823 75.76330 81.28413 90.39109 93.90429 96.39505 97.95566 97.88921 97.84446 98.61065 98.81285 100.30944 101.26836 104.02263 106.12996 108.27604 107.68224 106.34882 100.15668 92.22505 85.13421 78.63917 69.15352 60.74164 51.61506 48.65058 40.93373 40.18660 43.22642 38.08101 31.90344 29.04713 32.73072 29.65963 30.56926 28.24844 28.88353 26.88847 27.31659 25.66383 28.99250 29.14196 25.61435 27.52694 25.12808 23.55912 25.77147 26.98381 24.73500 25.50522 24.04104 26.11822 25.51376
24.35470 24.17883 25.30053 24.75198 25.30680 24.31244 25.94005 26.03993 24.38876 24.58907 26.00177 26.15711 25.57826 29.04585 26.89566 26.21492 28.32770 27.06323 29.22061 26.92270 28.61447 30.10524 30.83613 35.51886 40.18853 45.03784 50.08877 53.46346 60.74312 62.68889 63.92488 70.92402 76.47923 84.52052 89.06428 94.14504 99.52621 105.18920 107.65811 108.22789 104.80726 105.13037 103.72522 102.89485 100.07527 97.70648 98.59546 98.35970 97.13360 96.95042 96.94898 96.42355 98.40609 96.17562 96.94121 97.71945 95.64271 97.61806 96.85884 97.59386 96.25766 97.04398 95.60849 96.04798 94.09517 93.95547 89.54624 84.98370 84.99542 88.94229 74.20509 75.31034 86.65345 91.96675 96.18153 96.75930 97.43145 95.60726 100.47985 100.07627 97.48850 100.36917 103.65276 103.18005 105.56457 106.46085 111.32851 107.64971 104.54794 95.57207 91.76682 79.97316 72.94649 70.07995 57.17198 51.67971 46.04699 40.75539 39.13184 37.46508 35.16842 36.40401 37.43791 35.04208 33.31990 30.89701 32.48220 29.38434 28.60847 30.11114 28.71701 26.93328 26.51613 27.34636 25.27103 25.39295 26.39011 26.14377 25.83917 24.92068 24.31848 23.87178 26.68137
25.44024 24.79806 26.24995 25.45213 23.29573 26.77899 26.65485 24.51875 23.71238 23.84299 24.35304 24.18933 24.97891 24.96938 26.48298 25.97424 27.66413 28.21259 27.07479 28.68386 31.69807 31.19148 33.69443 37.37805 41.96822 47.73395 52.63462 58.70170 61.11976 63.67030 70.17914 72.16297 73.48531 83.85386 84.79371 88.33617 97.41946 103.31464 107.61666 109.68012 104.67817 105.29737 103.45473 101.33214 100.90134 98.78134 97.27636 96.71279 96.70499 98.54868 98.90848 96.08278 96.83486 95.83700 96.91424 96.44967 97.23270 96.56522 95.35118 96.52729 98.80433 96.22229 97.35045 96.70388 97.05638 95.36564 94.02677 91.30731 78.75958 76.63518 68.03702 64.23023 79.52768 86.00029 92.71934 94.15974 95.52482 96.70685 98.03910 101.01551 98.90308 101.26554 102.40362 103.69399 106.29603 110.16636 109.28122 107.89076 105.01001 99.17301 92.42886 90.35725 82.16448 75.31894 69.02786 59.13034 47.94194 47.08973 44.99325 44.16149 41.71538 42.12890 41.25269 38.78919 36.14681 36.33028 34.23583 30.53916 31.90940 29.84268 33.08535 28.40739 27.39329 28.08983 24.34768 24.44867 25.17009 25.01702 24.13493 25.60326 26.85682 26.96272 26.08437
25.29601 24.08755 25.89296 25.40756 24.69570 27.19307 25.33260 26.29239 25.01604 25.91031 25.30738 24.38144 24.59267 25.52029 29.43336 27.70764 29.78257 29.38381 30.90285 32.76353 32.81456 35.82326 38.82953 41.65596 43.97742 47.30309 50.65310 56.69350 58.76312 60.68044 64.19524 67.72819 70.08639 71.55747 79.49296 82.04940 87.13248 97.82943 103.59379 106.83747 106.36930 105.17939 103.90808 102.28304 99.79656 97.47508 96.25702 98.86726 99.83923 96.33317 97.82204 97.46606 97.71109 98.72892 96.26257 97.59226 97.69600 95.60518 99.57773 96.63302 97.69423 97.80054 94.74334 96.82786 98.41719 95.82741 94.88598 93.24664 80.35412 70.59843 66.43457 65.98402 69.24887 75.01984 81.62641 85.50112 91.63756 95.46003 97.15027 95.46307 97.80705 99.26005 103.90096 105.81246 106.49612 109.38800 108.88101 107.44352 102.38922 99.08507 95.71767 89.94141 85.33661 79.30621 73.94979 65.08078 58.06922 56.55063 55.39942 49.35336 48.14879 45.34868 43.60081 40.40875 39.45245 36.24730 36.13489 32.75845 31.91760 33.20475 28.17467 32.13241 27.87783 29.25252 28.69415 26.69773 24.48511 27.79403 23.50265 26.81983 26.21275 24.28044 26.33948
23.83941 24.33468 25.60444 25.96853 25.25461 25.10001 25.64389 25.04508 25.59006 26.64210 28.19829 27.47569 28.22813 26.09689 25.53800 29.87208 30.61307 32.21883 30.60336 34.51049 36.49953 36.29785 37.23799 42.14937 42.08371 44.64818 46.55033 48.86713 49.10393 55.18823 55.73776 56.16636 58.29798 65.72187 68.74263 76.19251 84.73635 92.04402 100.53285 104.47618 104.25322 104.12223 105.25184 102.59315 102.83926 100.39548 98.52712 98.08293 98.42435 97.45276 95.59531 98.46843 96.71376 97.14554 95.52578 96.21169 98.61170 99.02289 96.14234 98.73234 97.63319 96.63406 98.12029 96.78667 93.48284 90.99565 87.26225 83.98991 80.70861 78.78328 85.01042 84.16565 71.09955 59.45891 62.53801 76.20528 84.82257 88.06223 90.17687 92.12799 94.38451 95.62863 101.63177 105.26171 104.97525 108.65924 108.71132 103.15108 96.61959 95.53527 91.11381 88.60261 81.12423 76.49726 74.33513 67.89387 63.64440 61.16486 58.43177 52.04933 49.74452 47.68043 43.34717 40.31670 35.83642 35.42131 34.32423 32.27660 29.88997 28.74484 29.02100 28.99335 28.19052 28.95441 26.64749 27.20050 25.98102 28.00444 25.18629 24.45238 24.61867 24.99868 27.01511
25.36100 25.89062 25.55097 24.61678 24.82303 25.62958 26.65062 28.36484 25.47014 25.62454 26.68677 26.84097 29.56326 27.89506 27.42601 28.84538 31.41933 33.82129 32.64335 34.70727 34.99106 35.30528 32.34837 33.55356 36.93977 36.75021 38.19547 41.44031 41.64475 46.70242 50.27874 47.79657 55.85466 61.00239 65.98693 76.33731 83.69280 91.65715 100.76776 102.67498 106.94308 108.00039 104.08575 103.34856 101.87097 98.63249 97.74147 99.02146 98.45524 97.27140 95.51013 97.15514 97.75635 97.53552 96.65238 97.31485 97.93300 98.35753 95.90203 95.04769 98.10470 96.24357 97.12566 93.32215 94.87825 90.53196 86.88540 85.04033 83.85708 88.15044 92.77267 92.74301 82.91077 76.96799 69.64868 57.43441 74.57582 84.24173 81.80111 74.99390 86.00466 95.81125 101.72065 103.15786 106.34880 106.19067 105.98924 98.42166 91.67293 85.53898 80.29224 77.58585 73.75620 72.12542 70.01654 65.92721 64.35712 58.74254 53.47217 53.45138 48.98175 42.92160 38.84701 38.13110 34.90260 31.38343 31.58333 29.48863 30.04068 26.12558 27.53209 28.45587 27.88229 27.97429 27.20842 26.47273 25.94093 27.69655 27.10991 24.66621 24.35733 26.85886 24.92176
25.18865 26.28159 23.10238 24.64990 25.87104 24.65475 25.92806 25.25965 24.11327 26.03562 26.26898 27.94189 27.27646 29.29198 29.19731 30.69881 30.44833 31.91642 31.99198 32.10036 30.36517 30.85217 31.11741 31.47579 33.43433 32.55468 33.43708 38.30698 38.62358 42.65898 47.23872 55.43801 58.38484 60.15959 71.50850 75.39644 87.19387 95.65280 100.56564 103.44445 107.47062 104.38767 104.03990 102.61473 100.98931 100.05171 100.73586 98.29070 98.58266 99.93437 97.27851 97.91666 96.86969 97.72218 98.17008 95.69129 94.81728 98.64486 96.55881 95.50041 96.74614 96.76040 95.34923 95.79006 96.13660 95.14051 93.74997 93.17883 88.94971 89.92093 92.95408 94.61129 91.20408 93.05686 82.74241 63.71074 64.35037 66.35902 61.50641 67.54290 84.21710 92.46124 94.15755 101.46360 105.29112 103.53879 102.53846 95.88497 92.57885 76.47327 71.39600 69.73610 65.61058 62.37462 63.75946 61.36979 57.36317 55.94032 50.63821 52.27160 48.24957 45.37221 44.79076 39.28065 34.54198 32.36605 31.76935 30.49308 31.80584 29.40015 26.12981 26.81813 26.45702 27.75916 26.73840 26.88246 25.43536 27.19370 26.25761 24.43802 26.20407 25.06645 27.13051
23.09145 25.63441 26.32184 25.58013 24.95623 26.32227 24.24523 26.31802 25.09307 25.97289 25.06827 27.52974 27.10028 27.91533 26.24641 28.55428 29.70773 29.06631 29.46107 29.62104 29.09741 27.38750 34.91676 33.06672 34.58735 37.52363 39.99932 42.64336 43.54921 48.23776 53.13972 61.53621 67.14309 70.10095 74.87692 82.77952 89.53049 98.31942 101.88803 107.08057 106.75287 105.38054 105.69281 102.82067 102.80670 100.91307 100.85538 98.87906 98.91192 97.12035 97.91411 97.36102 97.08080 98.52704 98.34534 99.90426 95.89502 95.22110 96.59256 96.31707 96.91142 97.33733 96.86344 97.60044 94.44780 95.69784 94.09220 95.70947 91.16594 91.12814 95.68010 96.70918 94.87772 91.80401 81.52834 70.34633 58.27554 61.12274 55.88991 60.11700 76.62286 79.04084 81.58220 88.69320 91.36579 95.25419 90.08239 89.49218 83.16144 78.13694 69.99684 63.28873 55.96953 53.78411 53.22187 53.66958 56.03573 49.18551 45.48820 46.35717 46.98163 46.81979 43.60436 41.66027 37.20941 35.57514 35.84927 31.64996 29.48042 28.13838 27.56887 26.31001 26.66175 26.15087 26.66177 27.97666 24.60031 26.91726 24.96715 25.59489 25.41951 26.29175 26.24922
26.74427 23.81408 25.57173 25.63616 25.57008 25.07877 25.96091 25.02712 27.06575 26.87795 26.02116 25.64999 27.43325 26.17904 27.99543 27.18738 26.37360 26.99484 27.45413 25.90124 29.41142 31.63090 35.10691 36.92657 42.19184 43.86367 47.50214 49.92120 50.51401 58.57288 61.02307 67.60573 71.71628 77.65050 82.58787 83.93242 91.53201 94.62137 101.59139 103.76670 106.88906 105.82267 106.84035 104.32151 101.48179 102.65210 100.73188 100.15033 98.82680 97.31591 96.85918 97.61845 98.53258 100.34397 96.55316 96.72924 96.77631 96.16814 97.06106 99.31214 97.21875 96.81760 98.90343 96.77399 97.95797 97.22863 95.72936 94.63836 93.61194 95.91229 97.60675 98.27229 97.00669 91.36887 85.60892 81.94107 75.96430 73.29892 57.65080 55.21406 61.25934 55.02554 65.41873 69.31458 77.27914 74.95802 68.59850 68.19728 71.65230 72.08075 71.43519 62.23981 56.29397 49.00407 47.22789 45.77803 44.15222 40.75428 42.43441 42.65241 43.23554 46.21863 44.57799 42.05354 41.48482 40.66126 37.86383 35.49324 33.53305 29.25472 27.95909 28.11440 27.93375 26.26434 27.47377 25.39794 25.87292 25.60810 25.26376 27.07210 25.79490 26.28671 24.38310
25.02273 24.17314 24.75317 24.72331 25.98863 25.95892 26.90245 24.66494 24.14105 25.87634 27.62343 25.57229 26.43324 25.99126 25.11152 23.63974 24.59958 26.46830 27.32397 27.26765 31.90699 34.77073 37.18659 40.85885 44.45004 51.01226 52.64732 55.87435 56.33902 62.23128 68.24866 69.86060 74.76598 74.50481 77.84743 78.04552 82.68611 90.16003 94.49614 99.84812 106.39788 107.25317 108.46460 105.27195 103.07362 103.14002 101.46668 100.37435 99.80568 98.57960 98.24316 97.40788 97.71507 98.36274 97.45888 96.86785 98.18579 97.48621 97.50540 95.18602 94.88844 97.47667 97.01545 95.11771 96.26461 96.43526 95.98304 95.91407 96.24773 96.97685 95.36478 96.25008 96.34937 97.61561 95.15660 94.52648 89.94699 77.27677 70.99086 58.11322 51.23791 44.03014 46.47970 53.70001 58.91034 55.94948 54.96647 49.49144 58.50352 57.23338 63.25258 63.05549 55.65614 52.99034 47.38198 40.18074 39.23758 37.93246 35.40970 33.43852 38.21384 38.63633 38.21354 38.72433 39.46081 40.12839 39.31821 34.60249 32.41964 30.59543 27.79095 27.69755 25.67685 26.13480 25.76538 25.44463 24.76953 25.57845 25.90670 24.59165 24.86673 25.07948 26.37164
25.52931 24.57303 25.26764 25.86637 26.23229 26.85421 26.48372 26.14774 26.04864 25.16423 24.84524 24.73909 26.43225 26.28946 26.56141 27.36364 25.38678 26.87294 30.37053 31.76648 35.29879 36.23871 42.12716 45.26152 48.73022 52.23734 56.15661 60.61894 62.67362 65.67209 67.98675 69.56822 71.75251 70.08968 67.98236 69.28055 73.26885 78.70234 91.14864 100.33308 104.24521 105.43692 108.48113 106.00847 105.22029 102.39569 102.95962 99.12493 98.35486 98.19268 99.63220 97.46704 98.91393 96.60715 98.19282 99.80551 97.82288 97.13271 96.83026 96.36265 96.22265 96.76018 96.59116 97.18875 99.00996 97.74170 95.21204 96.73486 97.13256 95.64264 97.11770 96.37841 96.83775 98.78588 97.04911 96.02528 98.13670 92.00996 89.32683 76.30579 61.28457 54.75280 55.08273 51.70481 44.68050 38.70986 41.62744 33.64044 32.82193 36.15500 48.33619 50.20958 49.26188 48.13057 48.95991 42.76083 37.41989 35.27708 32.32188 30.51494 31.86594 31.12548 33.18405 36.21566 39.43146 39.78433 37.22441 35.07416 32.52017 30.67266 27.10259 25.90877 27.51082 27.45630 27.02649 25.48956 24.24051 23.11280 23.45824 26.31149 25.82903 24.07986 24.25063
26.79304 25.57018 25.24199 26.12504 24.34534 26.31677 22.86746 27.29316 25.26805 25.07886 25.57262 24.67753 25.88607 26.43651 29.75219 28.38147 27.79241 30.70592 32.88606 32.08968 33.75043 38.40975 41.79231 42.52940 48.44190 50.64222 56.39532 61.58921 60.32592 62.86619 62.01135 62.19129 62.45879 58.60816 57.92814 62.91574 70.71534 80.13755 89.39626 97.91918 103.88141 107.94473 109.21458 108.19441 105.89694 104.64457 101.15731 101.82751 101.66922 99.16206 98.81857 98.17553 100.10703 100.18797 97.47423 95.80724 96.01377 98.57196 96.80171 96.45853 96.62981 97.60920 97.50018 96.92751 97.07142 97.72969 98.37192 97.68228 96.26359 96.95310 98.80331 98.35137 97.63976 98.44911 98.56485 100.29669 99.28306 98.71608 94.38109 84.35467 82.15260 82.55002 76.71388 73.47132 73.56462 68.47445 57.62572 44.89317 46.65765 35.53987 32.76745 39.61311 38.62402 40.18107 46.22669 44.05173 41.17149 38.23846 35.02164 30.10963 30.69954 30.19710 30.47657 32.53254 33.10019 36.49296 35.23788 33.42831 32.48512 28.23867 28.70704 27.08506 26.33246 26.24941 25.12544 25.34648 25.33986 24.05900 28.09886 24.44977 25.11798 26.60721 26.24349
25.53890 25.35851 24.85623 26.22520 23.08761 25.56797 25.50134 25.82082 25.67028 24.06266 26.44872 27.87609 30.03364 28.62425 28.78003 30.41295 31.03697 32.57699 32.81963 32.55147 35.58198 37.08417 41.14771 41.48027 46.11930 49.16944 55.78972 56.40627 55.80859 52.25054 56.30766 52.12683 53.67505 52.21337 55.12724 61.37491 69.79759 79.62039 87.91858 97.23030 104.31455 106.07629 108.17320 108.05722 107.47151 106.21318 103.39205 101.93621 103.28273 101.86773 98.71336 100.39869 96.48330 98.88004 98.17354 96.01619 96.26233 96.65853 97.58729 96.18694 97.83212 98.05738 99.08159 96.08476 95.91506 97.95351 94.54225 96.78197 97.31379 100.10647 99.55156 95.22095 99.86415 97.99147 98.85062 98.69155 100.83058 102.02152 98.03225 96.52548 96.27477 95.30129 93.49759 91.18414 88.31065 79.92863 73.84794 63.29806 58.83735 44.38796 32.14334 30.08286 30.70531 35.36648 37.90862 37.98145 39.08911 35.24102 33.14255 32.43848 27.54040 27.93590 27.94016 27.51383 30.08861 32.26590 35.28979 35.00365 30.71029 29.20147 29.25549 28.58413 27.53314 22.96923 27.53890 25.46422 26.67875 22.11053 23.26594 27.46509 24.49922 26.27052 26.28573
26.47622 26.07488 26.19384 26.15158 24.82441 23.73686 24.94284 25.41460 24.91168 26.14803 26.17293 25.74954 28.70928 27.35902 28.92503 28.92785 29.18828 29.77844 30.95283 29.59290 32.66087 33.97784 36.86061 40.84897 44.46724 49.20027 52.08402 53.27985 49.57839 46.51099 45.22612 45.85690 50.18534 52.09393 58.50273 65.72512 74.12544 82.72815 89.76088 94.64947 98.52461 106.43769 108.55998 107.98099 107.64472 108.01230 103.82614 102.73907 102.70953 99.06525 100.14086 98.55993 99.18255 99.84610 99.79658 97.06743 96.99445 97.86800 98.71516 96.85123 97.01053 98.14301 97.10293 97.35485 97.11409 97.00942 96.61555 100.36196 95.46807 96.44209 100.06826 100.70950 98.80343 97.59332 101.29138 100.46414 100.85762 103.51820 102.56248 101.62741 104.14153 104.31866 105.68217 104.06058 98.10716 93.05074 85.04276 76.55988 69.94264 51.52889 44.40040 41.70109 36.29984 30.72889 31.32741 33.25814 34.43102 30.27415 30.22041 29.13586 24.63147 25.11055 25.44456 27.04215 27.47770 30.90733 32.92046 30.79352 30.11279 28.89264 28.79893 29.24450 27.57266 26.26801 25.30473 26.26459 25.20692 25.93902 25.49767 25.45271 23.96131 26.79631 26.50512
24.67152 25.58639 25.74944 27.63226 24.29725 25.43130 26.64168 25.18873 25.69187 24.68183 26.28031 25.17720 25.58284 28.75888 27.72117 27.85957 29.25648 28.30964 28.79541 30.75479 31.81003 35.06658 36.64162 43.95172 47.74554 44.61398 45.55122 45.52694 41.38001 41.76463 39.16049 42.29674 51.06322 55.60337 62.58399 70.87444 76.25510 82.24470 87.13296 88.58841 98.16393 101.84818 105.92480 109.10118 108.94175 107.38793 107.12709 104.65494 101.91017 104.22639 102.15033 100.95307 98.57963 97.50187 98.39275 98.00016 98.40418 99.24450 98.92423 96.91246 97.31560 98.46577 99.29820 97.27911 96.94884 97.77231 97.19692 98.06729 99.40639 98.32432 99.29110 98.24285 98.62133 100.52778 99.99261 104.35399 102.82198 101.87483 105.12247 105.40052 105.80966 108.05523 105.00229 100.27035 99.20033 94.03819 86.75004 79.20646 71.79721 68.22362 55.13721 52.61255 49.17931 43.15952 34.60123 31.00239 28.86640 28.23435 30.22617 27.52431 27.80906 27.59911 27.03533 27.51279 28.93940 28.44669 28.66042 28.83500 27.92906 27.20983 28.85449 27.21872 26.57489 28.59575 27.97513 25.66602 24.87435 24.46881 26.33363 25.14590 26.51533 25.23267 24.61445
25.62641 24.92448 25.48515 25.52768 26.71508 24.89655 24.67515 25.73997 26.21525 26.88264 27.69721 26.85624 27.45491 28.09131 25.06102 29.68305 26.52778 25.54649 27.76079 30.11754 31.66818 35.67977 39.84076 42.67480 46.11191 41.06719 39.60369 38.21989 38.41007 38.46729 42.99308 46.73909 55.51396 63.14940 69.20174 72.49176 77.07731 80.21381 79.26753 80.76071 92.42869 96.14973 105.76805 107.46561 109.37233 106.86526 106.30526 105.35415 105.31763 102.96330 101.82841 101.06584 99.94960 98.81164 99.98897 100.51702 100.79971 98.58492 98.88592 99.20112 97.09061 99.12462 97.82242 98.31293 99.42013 98.22615 97.91354 97.51190 99.01989 98.98316 98.29230 99.80683 99.80453 102.45193 102.27837 102.81228 104.67527 103.55279 106.89893 106.12008 110.19615 107.41754 104.34840 99.15399 91.20075 84.81222 82.06103 78.18756 73.78590 68.56245 65.38127 61.57684 56.47874 51.88139 42.82476 39.81121 33.00127 29.06857 30.68582 30.73847 30.44534 27.57545 28.94219 26.44299 25.22470 26.11125 28.14159 25.90637 26.88206 26.81024 24.26174 28.19892 27.45365 27.38919 28.11502 25.24099 25.66462 25.50793 24.21812 26.91870 24.50036 25.50013 25.67934
25.26005 25.75441 24.80647 27.11667 25.47967 25.09839 25.33039 24.73237 25.41930 26.40989 23.72396 25.81307 25.62438 24.23572 26.27800 25.33291 26.36258 27.94465 29.42029 31.09146 34.21688 36.08000 39.21313 41.46688 39.67357 37.79628 37.07446 32.66999 37.35088 41.74963 48.65404 51.49604 60.53686 62.97089 68.17942 73.08455 73.24344 71.22325 71.46418 79.24951 87.89669 95.71253 104.62350 106.86950 107.68192 107.43321 109.74564 107.04918 107.18287 105.01479 103.88187 101.67011 101.52169 103.28820 99.78475 100.70201 100.62489 97.97910 98.14271 99.79739 97.42165 100.66227 96.83498 98.44930 99.22689 97.87338 99.20321 98.63709 98.78612 100.43365 101.48037 98.98286 101.64577 101.91513 103.40163 103.80142 104.34396 107.69539 107.12888 106.75373 108.33032 105.79092 101.23165 93.95486 85.11933 76.21000 71.84718 69.10465 67.49486 66.91244 66.20045 63.63730 61.55662 56.14486 50.53226 38.74804 35.30635 34.15294 36.49321 35.70307 33.20464 31.89776 31.18668 27.83722 26.18799 26.82647 26.89212 24.57039 25.98379 23.36762 25.91866 27.05882 27.44769 24.24357 25.99042 27.12906 27.30481 25.90153 26.80776 27.06302 25.53854 23.48681 25.27436
24.54233 26.61114 24.45347 25.86638 26.81911 25.85720 24.52127 26.42754 26.34995 22.99525 24.21504 26.45735 27.05645 25.97255 27.46020 24.97548 29.13125 26.65602 30.19563 32.21677 36.01991 35.96470 36.11269 35.54867 34.79246 33.44587 34.17692 33.19080 37.11814 41.64579 48.79051 52.85655 58.48829 61.99157 61.82537 62.44521 62.36612 68.66754 74.62239 82.73944 89.23452 93.12164 99.29980 104.22550 107.07238 107.79276 109.56176 107.89897 107.35381 106.53342 107.56707 103.09017 102.58877 101.83912 100.44717 101.25118 100.44583 99.84936 100.42285 101.34469 99.94798 101.52585 102.14651 100.32777 100.41404 99.83221 98.09393 98.82769 100.53064 102.29236 98.71429 102.88785 105.31490 103.93241 106.24095 106.32550 107.84725 110.11456 107.58402 106.48676 102.35632 99.61066 97.71750 89.14762 83.29348 73.35293 67.88046 62.73704 60.74790 59.48458 55.39599 58.95102 60.72447 58.62174 53.06830 44.70698 40.00947 43.67444 44.26070 39.83016 38.02768 32.00239 34.09164 28.57282 31.17972 26.59967 26.66681 25.78681 24.63331 27.93038 25.40473 25.30737 26.11194 24.42690 25.24044 25.16290 26.27411 24.77778 26.36069 26.94386 24.75868 25.46318 24.58520
24.22571 24.35909 24.66701 26.47280 23.48571 25.38747 25.52898 25.72267 26.22405 23.68087 26.57968 25.41790 26.56344 27.04031 26.77019 26.63278 26.93583 27.52567 31.16732 32.16986 31.54198 34.40869 32.51610 32.66796 29.86101 31.81297 31.54947 35.08648 39.13191 42.65909 45.45903 50.27942 48.20377 52.66800 53.05398 56.27181 64.77571 71.34794 74.60080 81.21881 84.98841 88.49384 95.40310 96.58758 99.49818 102.98494 105.14297 108.29582 106.84238 108.42111 107.83291 107.83205 105.06492 103.26650 103.15515 100.93686 101.99381 103.64399 101.63397 100.41913 102.54951 100.84540 102.88737 101.39428 99.71468 99.70151 102.64636 100.42812 103.39474 100.78869 101.21162 103.43957 106.02831 103.33925 105.97418 109.28354 108.75688 107.68906 103.24437 98.94513 97.35802 93.46186 93.30971 89.78471 82.92254 75.42126 64.47035 55.43339 50.42351 54.14333 50.35157 50.50765 53.52363 50.63303 55.41705 53.02895 49.38636 50.13100 47.58800 42.92230 41.49461 37.18344 35.48951 34.53706 32.43083 30.22026 29.36916 28.08968 24.63026 27.47641 26.97298 23.32453 25.49282 25.42851 25.90854 25.29016 23.88159 26.09531 25.96322 24.81047 25.50779 26.41686 24.31692
25.54839 25.68769 24.35236 25.54411 25.93638 25.85912 27.07293 25.63641 25.80349 24.35707 25.98492 25.32852 25.20801 24.97124 26.71244 26.55596 26.60829 27.46524 26.62213 30.14003 32.37117 31.17776 29.82231 28.08794 29.44139 31.67893 33.52284 38.10374 39.94215 44.41260 40.55963 41.19615 43.49106 48.19084 54.06721 59.52965 64.77105 71.81090 74.86006 73.15394 74.60245 82.23951 85.33696 94.29427 95.50384 98.48416 99.61407 103.34785 106.06941 107.76162 108.09688 106.28419 107.79981 105.51088 104.59257 102.45580 103.78123 103.68562 103.57319 102.65703 102.69630 103.08329 104.30699 101.79132 103.74393 102.49681 101.88176 104.78218 102.38782 106.49872 104.26383 103.59417 106.03998 109.07136 107.31001 107.26919 108.70735 107.63635 101.78124 97.86172 88.93921 88.82746 81.52958 82.47102 77.30632 72.70253 64.44538 55.52084 50.02412 46.91652 45.02811 45.89746 45.45735 50.91302 52.78058 53.11705 50.94997 52.53261 49.07690 43.25242 40.83316 39.22493 36.26296 35.21065 32.81903 31.12024 30.92953 29.02522 28.59865 27.73304 26.98849 24.76939 24.81267 25.16376 25.50411 25.06064 24.55728 24.41095 25.35559 27.20921 28.48342 26.55253 25.00514
27.46121 25.34217 25.67932 24.80171 25.46998 25.12104 26.87918 26.06320 25.35793 22.40059 25.79665 25.78532 25.06344 27.13288 24.76370 27.32508 26.44580 25.82083 27.64394 29.87613 29.28271 28.43166 27.52434 29.76438 30.25757 32.78365 34.91217 35.97887 38.89929 40.70964 39.27285 40.27995 44.56345 47.25457 59.50500 64.82908 68.14591 71.14643 73.78557 67.60421 66.63523 77.59524 82.45168 89.89019 87.05238 85.11433 93.19682 94.01691 98.44850 105.36191 108.60565 108.37273 109.48823 108.39094 105.94143 106.00573 107.00170 105.03860 103.79492 105.57499 104.68744 103.47366 106.68946 104.01749 104.26855 104.14814 103.38046 103.92211 105.91348 105.08141 105.67966 105.68905 108.13897 109.24349 109.06568 108.56259 107.83617 104.10966 98.62718 89.89458 82.35370 76.57787 75.41277 75.33238 73.54893 66.67217 59.45028 51.88009 46.92833 41.54656 39.18479 37.89353 38.76961 41.19413 47.12138 46.52004 48.54688 51.05374 46.75984 41.29076 37.23926 34.07208 34.69687 34.89802 30.58539 29.90774 27.93053 28.99134 28.59703 28.95046 26.11669 26.49213 26.94520 24.77836 24.95261 25.30170 25.80527 25.13994 25.23101 25.09220 24.05482 25.72687 24.97808
24.50149 25.84426 26.89142 26.57072 25.33254 24.88441 24.15044 25.81565 25.53447 25.58553 26.31440 25.03107 24.79320 26.13006 25.73973 26.52041 26.49597 25.81967 25.90899 27.90323 27.37410 26.35484 29.16893 28.98317 31.06755 31.02291 34.92465 35.25885 33.53048 36.01212 36.83313 38.53880 49.83636 55.28120 60.46771 64.94466 66.23140 66.42546 62.49324 62.70874 68.52336 77.46677 81.88349 77.73920 74.28254 75.22817 83.79613 85.13391 94.33151 99.41000 104.15831 107.58238 108.61633 108.17677 107.90307 108.70811 106.38200 107.16499 104.88328 107.29043 105.59777 105.99260 107.42562 109.73920 106.40364 104.81777 104.89259 106.30240 107.86135 108.03656 109.53553 108.07077 108.21735 107.64494 107.96190 106.85483 106.56941 102.79819 97.19832 90.76940 80.50824 73.02836 68.66436 69.85462 70.03293 66.69921 58.94671 53.77559 47.60282 41.60771 41.01263 34.51146 35.97249 36.62733 39.17813 42.09348 44.78665 47.62866 43.60728 40.95830 31.82223 29.77138 30.94953 29.60957 29.76474 30.02151 28.69957 27.99188 28.38235 26.50119 25.55867 26.73847 26.84886 25.51615 25.23712 27.67134 25.54660 26.79551 25.11333 25.87876 27.06049 26.98178 23.61893
23.06259 25.41105 23.91247 25.02323 27.37895 23.12112 24.43218 25.25935 25.77912 26.56508 25.90046 25.13341 25.48980 25.94541 26.80061 24.69535 25.66306 27.08776 26.05379 26.34491 26.35224 27.01344 30.79535 29.37983 30.88899 32.04962 30.22989 29.34015 33.04879 35.46591 42.32876 42.70611 52.18358 56.36952 61.70885 61.73204 56.80755 58.49526 54.50746 57.88494 70.60130 75.57586 70.87878 68.50627 64.33668 67.09258 74.38702 78.13093 87.53888 95.60613 102.68485 104.31320 107.87920 109.78644 108.01834 107.42621 109.92095 109.38022 108.71868 107.77005 107.78150 108.50827 108.95771 108.01180 107.52941 106.24377 107.51120 105.70927 107.24122 106.82897 108.42643 105.58026 108.51829 106.81016 104.73156 102.39456 97.50465 95.41916 87.91246 86.73930 80.33319 70.73566 60.77511 62.36002 65.70217 66.92322 62.15446 59.67861 52.42280 51.35532 42.16174 38.41884 34.93582 33.35991 33.76218 36.10331 41.92081 42.59904 42.21695 42.03806 36.25491 31.78953 30.84941 27.12217 27.76909 26.60026 27.88313 28.15230 25.44266 26.39159 25.67711 27.41195 23.50545 26.11647 24.74985 24.04547 25.78141 25.99671 25.63776 23.60173 25.89897 25.92630 24.11047
27.11237 25.84103 26.65855 24.37256 24.74684 26.43774 25.15012 26.35664 25.74691 25.65743 27.19078 25.02736 26.32395 22.90879 25.55270 26.31273 25.31886 28.90586 24.62388 28.19380 27.79953 28.94048 29.19477 28.58890 28.84478 28.34967 30.83709 29.99356 35.67017 37.03894 41.87283 48.01228 52.07547 56.62514 57.27229 56.75734 52.99384 51.47837 58.08596 68.03340 68.30973 72.05664 67.97759 60.40468 55.57776 59.98795 67.93173 69.95053 80.06304 87.50159 99.40285 101.64337 104.76172 104.64661 106.42523 110.15244 110.42222 108.16215 109.12995 109.90783 106.63682 106.61084 105.92202 109.85926 107.92201 106.45544 107.15171 105.13254 105.90120 105.21870 103.44842 101.23944 100.84686 101.92263 95.00548 95.56878 97.14818 93.30836 87.34511 79.68154 74.68396 67.94379 56.69278 59.71634 58.45658 58.17776 59.03981 58.68290 54.75037 50.32849 44.69759 41.87374 36.40885 31.40507 32.12295 35.01606 38.25366 38.59252 39.64934 37.72305 38.02285 32.67476 30.89222 29.41403 28.11520 27.40586 27.70088 27.99923 25.04064 24.71839 25.03163 25.70011 26.47516 25.05278 24.71840 23.65478 25.76963 25.60617 28.25413 25.57433 24.95116 24.76199 25.65633
24.87448 25.47979 24.18565 24.36472 26.17298 26.14598 26.03531 27.51927 24.80951 25.50643 25.62010 24.41950 25.49322 25.30378 25.85811 26.74351 27.96206 27.58273 26.08122 28.12923 29.06377 25.45243 27.99451 28.35144 26.27982 28.42894 31.04624 34.63711 36.56956 40.76611 45.95210 49.06173 52.44583 52.41945 51.19718 47.25481 45.00913 46.84639 55.61053 63.32588 67.59454 66.93806 62.64427 58.53872 51.18417 51.86811 58.94207 66.87160 78.76364 92.08185 95.56811 93.89323 95.17262 99.35222 103.66870 106.90534 106.17493 107.04762 108.56227 108.10079 105.17355 106.36946 102.98518 103.92314 102.85342 105.64490 102.04297 99.66083 98.89332 98.65221 94.05727 93.61821 94.74554 96.00548 90.36094 86.15733 89.80541 87.25753 84.20189 71.56894 69.64272 67.07129 56.52829 50.95225 53.87686 55.82836 54.53804 53.02936 53.85692 52.50666 43.74771 42.94484 36.79949 31.66948 30.31326 32.15439 35.00369 36.18288 37.20335 39.04098 37.00874 35.16699 32.14650 30.03650 29.80152 29.80863 25.28441 26.91449 25.05436 25.69060 26.17651 22.64069 26.11556 25.94078 24.48043 25.87276 24.15295 24.80294 23.40909 24.07442 24.11997 25.48467 25.09070
24.74302 25.80081 24.39416 26.73060 24.71092 25.76222 25.20008 24.64673 24.70509 25.56325 23.87431 23.66859 26.33951 26.35774 25.12181 24.76032 26.16783 27.57971 28.25156 25.89966 26.93813 25.82538 27.06991 28.29007 28.65910 30.40720 34.41587 33.42170 38.99088 41.06978 46.56238 47.90147 48.37794 48.13431 45.38841 42.72400 41.01202 47.81575 55.96463 62.57903 60.90209 60.37989 54.32235 49.59648 43.05569 52.21795 58.04243 73.35677 80.74928 88.47028 89.87764 90.19921 89.87754 90.84178 98.60529 102.78612 103.13147 102.64076 102.28466 100.22909 100.93980 98.90348 95.44302 97.00315 96.50715 97.73096 95.17766 93.71445 86.04853 85.51657 87.09445 83.94169 81.82138 83.41412 79.90029 81.22412 85.31138 84.41785 81.56530 71.66358 64.82992 62.38177 59.77098 50.61122 46.07987 48.20284 46.04166 45.92139 45.97956 48.91663 45.12426 42.22198 36.59594 31.07240 29.07439 29.13083 28.14396 32.85731 31.23491 34.13664 36.60228 36.63637 33.58316 31.04957 30.34531 32.36932 26.59733 26.28411 26.52623 26.86575 26.91240 25.57914 24.80567 27.61880 26.12482 26.04377 25.45447 24.35149 24.31137 25.17291 26.24645 25.04672 26.20332
26.48649 23.51311 24.51985 25.84305 24.28537 24.40791 25.09082 26.59403 24.31381 26.70172 26.85243 24.39179 23.04572 25.48523 26.46059 27.82007 27.33225 27.73633 27.20828 27.51958 28.01795 26.03023 26.77982 30.16747 31.10505 33.59346 33.58955 35.81690 39.58790 41.22140 45.22785 42.62978 41.25144 42.13397 37.44998 36.91045 45.40216 48.70161 55.68287 58.40888 53.52350 49.62243 48.95142 46.98746 42.77029 52.24494 59.21594 72.02632 79.33737 83.03910 79.73621 79.95782 85.87467 84.87856 91.11449 95.48700 92.95093 95.81330 97.32081 95.66268 91.94202 86.07167 86.99565 86.35395 90.42166 89.32835 88.15324 83.70700 82.62106 76.73597 76.24689 71.15761 74.75848 73.54014 76.40699 68.67249 72.95495 77.44208 77.77861 70.75497 63.36498 57.69786 58.14561 54.18552 48.23902 44.24189 40.97994 40.11958 40.01811 41.33297 43.13023 41.14031 35.73406 33.97247 29.93300 26.52518 28.57271 28.84353 31.53670 33.62987 33.92721 32.98412 32.46150 32.58963 29.90916 27.30119 28.31328 24.99423 25.72966 26.22456 27.11664 25.93383 26.57636 27.50597 25.09560 28.39498 26.71452 26.46515 26.09117 25.67650 23.34295 26.04685 25.41730
24.88219 25.42172 25.66785 25.17113 24.85925 24.72160 25.21616 23.82501 26.42619 24.51031 25.14713 26.41415 26.38693 24.72887 25.83617 26.25070 26.62099 26.13876 25.32900 24.43046 26.14305 27.03487 28.75735 27.43624 31.19406 34.14219 32.58659 35.38935 36.87162 38.33225 37.69507 36.22150 37.09937 36.33489 32.20115 39.44707 46.88544 51.22601 54.51138 48.02650 42.90998 43.48443 40.39529 38.86719 46.73858 49.17099 61.82414 67.66900 77.11426 77.37788 75.57521 72.41327 74.03412 81.40776 84.28986 86.69427 85.94310 88.13351 91.57429 94.90333 91.12514 79.25174 73.57573 76.78367 89.09850 86.55691 80.02770 74.96660 78.28070 70.88804 66.02445 61.38038 63.34893 62.69423 67.76946 63.42551 67.10928 75.11841 75.30984 68.72427 64.96002 54.10004 50.74370 53.51462 52.12956 44.96419 42.94081 38.59244 34.96359 38.70571 38.36601 40.65781 36.85695 34.22070 30.64163 28.87668 27.97281 28.36656 27.88410 29.59170 29.81705 32.47316 30.26053 29.85083 27.61661 28.09769 27.39946 27.00599 26.59520 25.61291 24.42256 24.48049 25.05501 24.66104 25.10950 26.77004 26.68476 23.69980 23.14836 25.16932 27.06664 24.10779 25.15710
24.78765 25.33074 25.58414 25.37743 23.97923 24.64698 25.38611 25.95050 24.27216 27.47222 25.39702 24.53962 27.11313 25.93004 26.73801 25.91531 27.16284 25.51555 26.72872 25.51712 25.53267 25.97299 27.46321 29.24889 32.02254 30.88993 31.55336 34.69207 35.49514 38.06147 34.49653 31.22900 31.78312 31.95063 36.70142 42.28904 45.99121 49.09088 48.78253 44.39217 40.28146 37.92118 38.23929 38.41576 49.39356 54.33755 61.33725 66.96424 72.02122 73.44630 71.81331 66.82675 71.83426 75.43627 82.00173 80.76004 79.98134 81.29057 82.21315 81.64002 84.45933 75.50688 66.28882 68.80275 79.96523 84.23204 77.94158 65.66512 62.86048 59.93407 57.65306 54.29430 54.57412 60.45491 59.32518 57.99696 59.55408 68.87669 72.57342 68.00631 62.11430 50.69324 47.00537 48.11788 47.71839 47.62768 44.75621 40.79894 36.03910 32.04375 34.17840 33.79516 33.89245 36.16990 32.75295 32.12574 29.14243 27.10397 24.79141 26.09219 29.77224 27.70964 28.71404 30.63982 28.24783 27.44795 28.82924 25.59969 25.22861 23.06237 27.56932 24.31787 26.18095 24.86461 24.82720 25.80279 26.16585 26.08461 25.42570 24.84858 26.02308 25.14737 27.04145
25.56567 26.29508 24.97667 25.75204 24.36256 25.46873 26.25745 27.12484 25.34257 27.16359 25.10436 24.30813 25.63105 25.28617 26.19485 26.55388 24.93719 24.69573 26.43266 27.29895 25.62262 28.73516 25.65678 28.71524 29.80241 30.58808 29.26074 32.10065 34.30068 34.62579 35.05296 29.81553 32.94697 34.35913 38.54731 41.15114 49.24134 49.16731 47.69232 36.55729 33.59371 34.87298 36.38070 45.79076 51.09755 57.76909 62.69186 63.88053 65.27573 66.11250 65.46899 62.09303 63.17192 71.74538 75.64548 73.19117 73.46447 75.47564 76.45303 81.76750 76.71297 71.29074 62.66617 60.94086 76.84564 79.89044 75.02376 66.16624 55.08166 55.33342 51.59252 45.10192 47.41272 51.13624 53.66929 52.16504 53.23898 60.44543 68.41353 67.75990 60.81037 52.13555 47.93999 40.51801 41.44825 45.73052 44.79124 43.93526 37.96413 33.79841 29.49532 32.83476 30.83575 31.35007 33.23312 32.61239 30.13834 28.29914 26.94340 24.23251 25.05681 26.18727 29.10359 28.68050 28.50632 28.96013 26.60927 25.24728 26.59915 26.99976 26.26335 24.58364 25.49328 26.27518 26.87637 25.28344 24.55027 25.15660 24.95211 26.64725 25.56842 26.90853 25.53647
23.41697 24.66624 27.32256 26.08299 24.66061 26.21115 26.24365 25.00790 24.61100 25.80901 25.42263 25.47647 25.85780 26.18583 25.17452 26.64615 25.85481 24.80833 25.79718 25.47415 26.59278 25.05957 28.53223 28.24080 25.77242 29.35775 30.39149 29.96698 33.97677 33.28752 29.11335 26.76862 29.68734 33.75032 36.64742 43.04489 44.32875 44.27501 40.68040 33.00987 34.70302 37.49071 40.76767 50.32308 53.92055 57.19739 59.38560 53.11659 57.93010 59.33167 57.70568 58.46312 58.89125 66.02886 71.73203 66.47086 65.58879 65.90791 68.65369 73.47398 74.53404 64.27861 59.57883 60.52434 66.66024 71.98326 69.24632 61.14531 48.93149 48.31198 40.69684 39.75305 43.68816 46.32856 44.63290 44.59395 52.42879 58.53658 66.42979 67.44198 63.10979 51.83131 46.64340 42.69763 37.74655 37.09703 42.29145 44.65074 38.21679 36.21284 32.19327 29.96933 28.13252 30.67097 31.33729 30.42954 29.15734 28.06273 28.59241 27.00685 26.54242 27.08902 27.27965 26.81129 24.82808 26.12730 27.29819 25.96565 26.33890 27.25354 25.83950 25.03694 25.13405 24.53215 26.84528 25.66183 23.99556 24.25436 24.08264 23.52694 25.51127 24.72488 23.68585
22.37046 22.40779 24.73967 24.34610 26.22606 24.75182 25.90144 24.96380 25.71943 28.03994 26.20084 26.19431 26.01157 26.11059 26.90771 27.26167 24.00638 25.20300 25.26449 24.19906 26.45504 28.27105 27.50678 27.17721 27.76559 28.75255 29.59707 31.20508 31.31928 31.71489 30.01344 27.81635 30.53254 32.01007 37.45984 39.51049 37.94761 38.24150 34.96265 32.52474 32.20338 38.08545 42.87999 50.90908 54.18369 51.54693 52.28651 48.53789 50.21917 52.54910 53.10498 48.98648 54.11992 62.24661 66.14197 60.38116 59.60724 61.38324 61.60961 65.23495 64.54629 58.18915 50.85302 51.93288 61.78810 63.73865 66.54545 61.60678 49.50958 42.36505 37.75635 36.91651 37.45599 39.07256 38.82377 43.52506 51.90306 59.68466 62.65473 66.42547 61.09738 51.86959 42.78595 38.70071 35.24594 35.48894 40.81444 40.45962 40.14619 37.29880 34.96209 31.81544 29.18310 28.85375 28.49027 28.64309 31.40430 28.82878 26.95433 27.26148 27.63363 25.87290 25.84472 26.29728 25.87739 24.93544 24.86461 25.59991 26.80087 26.09227 23.85515 23.98216 22.69659 24.26281 23.58138 24.63670 24.07946 25.88212 25.03019 25.80254 26.53282 26.99457 24.24706
24.17974 24.88224 27.45396 23.99292 25.11622 25.20120 25.55976 26.56084 25.95159 23.74064 24.60689 26.42174 24.75268 26.64089 25.50041 22.72994 27.21728 25.04713 25.26997 26.35094 26.81597 24.89467 26.26277 25.50085 25.35432 29.67578 28.46339 28.38653 30.05775 30.19462 28.23207 28.46559 31.22085 35.02489 37.21849 38.38360 35.11963 34.23753 31.10245 30.59943 29.71060 36.19144 43.58543 48.41597 50.25765 48.73803 42.98010 43.78324 46.64102 46.71791 42.13119 47.95650 56.20356 59.52514 64.38134 57.02992 54.41683 58.47006 61.66767 58.52926 57.94233 55.72225 50.23979 45.19174 52.81610 59.69475 66.94627 61.37949 54.16318 47.71854 39.71391 33.93229 34.02898 35.15309 36.80028 41.45369 48.71700 57.00795 62.44768 63.02866 57.49830 56.10674 47.12383 38.50608 35.57360 31.12283 34.98311 38.47497 40.56585 38.49832 38.47125 33.23375 30.74558 27.72675 26.35609 31.00139 30.69397 29.84071 27.89125 29.41823 27.50720 27.00484 25.88108 24.77282 26.54250 24.89966 23.64630 25.17801 24.09165 23.05217 25.46272 25.03228 23.89839 24.28551 25.40937 25.71872 24.15016 24.16593 25.34165 25.26572 26.24729 23.68779 26.25817
25.30681 25.42533 26.24498 25.66011 25.72645 26.57428 25.55405 24.34929 23.84544 23.87835 26.14335 24.86144 27.03852 26.10346 25.72445 25.59021 25.91847 24.02983 25.62700 25.64158 22.80124 23.97535 27.27323 26.15637 27.54143 28.51394 29.19876 29.66606 26.79384 27.55650 28.40994 31.82656 31.62795 36.27901 33.82334 37.84880 30.41164 30.31909 31.06037 28.24001 32.52804 39.58123 42.87497 48.00540 47.64289 42.44026 38.83104 39.36201 40.62701 42.60355 41.24618 44.11437 52.79666 57.44701 59.92162 49.67391 49.40612 56.28358 56.84966 54.40750 48.82912 47.91474 45.25250 43.05736 54.18738 60.71865 65.22245 62.47528 54.20248 45.14058 40.33986 34.15266 31.11124 30.34872 33.41931 44.34673 50.42976 57.11503 60.96723 60.71526 58.50877 54.67423 48.16322 41.23013 34.84664 31.54132 33.28432 32.40212 37.57441 39.20964 35.87300 35.31671 31.04400 27.11420 25.87147 26.44939 27.95706 28.45392 28.98043 29.09757 28.61641 25.43519 25.79025 25.45934 23.87120 24.64045 24.90382 23.69026 26.56469 24.18017 26.06451 25.42508 24.33609 25.31337 23.63228 25.37322 24.10722 25.17020 26.79808 26.07792 25.11528 25.70719 26.53980
