25.25000 25.25000 25.25946 25.26523 25.27259 25.28059 25.28921 25.29524 25.30409 25.31341 25.33590 25.37200 25.41514 25.52287 25.72766 26.09202 27.09506 28.07814 29.28984 29.97712 28.74552 29.67658 31.63092 34.28877 37.78529 44.33193 52.27286 56.55949 61.84571 59.61896 60.21645 57.74116 57.13907 57.20900 63.16953 66.38934 67.92619 67.96129 70.77039 76.40728 84.94251 86.52950 89.69715 93.09463 96.12355 92.89698 88.81836 84.77289 84.50824 87.10271 96.64262 101.60868 106.48431 107.85399 106.81181 106.37478 101.07923 100.82894 105.07024 108.69014 107.97427 106.63928 109.33950 108.94958 108.54738 108.57609 107.77609 104.54026 102.63196 103.39637 105.22278 104.16222 102.13065 97.65291 94.63338 92.77550 97.58537 101.46478 102.41221 101.45596 97.27475 90.06694 81.21318 74.00010 68.18027 64.56754 63.05275 63.10040 63.66446 71.05527 73.24371 71.47892 66.39744 65.19243 63.40239 57.24757 47.84127 44.81473 39.50328 38.00062 35.96628 33.90717 32.80769 30.56878 29.92140 28.91675 27.63081 26.96136 26.08699 25.87270 25.76537 25.56576 25.41476 25.35293 25.33059 25.30858 25.30216 25.29689 25.28790 25.28156 25.27416 25.26600 25.26600
25.25100 25.25100 25.25830 25.26606 25.27370 25.27942 25.28959 25.29912 25.30498 25.31715 25.34826 25.42749 25.53766 25.79022 25.98455 26.48591 27.50600 29.03647 30.74006 31.32291 30.50706 30.11196 31.05036 32.56820 36.94113 42.34867 48.76826 57.58426 63.89626 64.29490 64.91304 65.44512 64.85150 61.97865 63.71415 69.11909 73.34225 72.59651 72.00143 75.40273 82.87526 88.66612 92.18510 95.55862 98.64242 99.45743 95.72833 89.99886 88.91551 90.12662 99.34204 102.20846 108.56493 110.46324 110.50371 107.86909 105.67072 105.17796 106.69137 110.64145 109.88507 109.85615 111.64376 112.25928 112.32223 111.68472 110.85135 109.11234 108.27872 110.28790 108.06816 106.77599 104.10478 103.88598 100.12971 97.33202 98.13690 104.35870 105.21990 102.96381 96.27329 91.43933 81.23706 75.29614 72.26939 69.41426 70.70440 71.80026 74.51189 76.62360 77.57312 74.42048 72.03983 69.63100 64.74960 54.89879 48.40427 46.42360 44.49972 40.98505 37.93187 37.58189 33.89257 31.26245 30.30162 29.06609 28.15963 27.22457 26.73223 26.40266 26.01731 25.57409 25.40769 25.36541 25.35567 25.32750 25.30821 25.30009 25.29271 25.28555 25.27406 25.26700 25.26700
25.24900 25.24900 25.25510 25.26534 25.27282 25.28332 25.29098 25.30438 25.31322 25.32951 25.37414 25.56367 25.77657 26.07216 26.39851 27.00357 27.89222 29.05555 30.87563 33.05921 33.35965 31.97859 32.09950 33.91897 35.51405 40.20252 45.09820 55.90242 61.61522 65.12867 68.35356 69.94431 71.02775 69.48692 67.84580 70.69027 74.14553 78.41020 76.67227 77.38422 82.97916 89.16512 95.73896 98.21866 101.10891 102.56890 100.31082 95.80479 94.23074 95.30534 98.69247 104.48592 109.72832 113.17990 114.16233 112.33712 109.33078 110.11025 111.89176 114.10687 114.06351 113.95178 115.55739 115.53158 115.48651 114.71344 113.30029 110.84465 112.51083 113.98571 112.66510 109.12037 107.50301 106.55119 104.36467 102.11840 104.80413 106.56868 107.55488 104.59874 97.03061 88.43249 83.68416 80.47444 78.53149 75.40471 77.88752 80.98351 81.75352 84.83623 83.16551 80.06989 76.68558 71.19765 63.91285 55.78167 50.88588 49.43689 50.15572 46.60739 43.49903 41.09105 33.82803 32.27748 33.08821 31.52796 29.95319 28.50367 27.20963 26.78937 26.01535 25.68831 25.42720 25.41088 25.39123 25.35109 25.31634 25.30378 25.29310 25.28424 25.27443 25.26600 25.26600
25.25000 25.25000 25.25363 25.26613 25.27191 25.28206 25.29442 25.30416 25.33246 25.36395 25.47375 25.81189 26.07479 26.64959 27.24633 27.41813 28.37946 29.23540 31.23383 33.28482 34.59207 34.69442 35.44311 35.96520 36.87756 39.90989 43.23753 48.10305 56.95425 61.27344 65.58555 71.53113 77.35335 76.87628 74.19189 72.92723 76.63832 82.45933 85.39384 84.36081 85.12236 90.28878 97.09993 101.11118 104.35637 106.35628 106.36185 102.85368 102.03160 99.40420 102.36730 106.00318 109.86083 113.59518 117.00879 116.09465 114.58544 114.52116 115.56240 117.76957 117.79392 117.27225 118.13022 118.84842 118.02873 117.72013 116.57611 115.86812 115.41961 115.94285 114.75883 113.91917 111.00237 109.22450 107.14598 106.65116 109.24513 109.62840 109.36692 107.04723 97.32567 91.56311 90.09401 85.75125 81.90764 84.03610 86.40215 90.34211 89.43991 87.94848 87.08860 81.39065 76.94849 72.05648 60.89200 57.00350 55.68585 53.45735 50.84139 46.27710 42.85480 37.78941 35.22391 36.68335 36.34110 34.94878 32.23559 30.27062 27.68909 26.95360 26.17021 25.80534 25.70598 25.57749 25.44449 25.39791 25.33150 25.30174 25.29386 25.28457 25.27481 25.26600 25.26600
25.24900 25.24900 25.25539 25.26454 25.27668 25.28308 25.29875 25.32607 25.38362 25.47818 25.63389 26.17111 26.68787 27.58040 28.32701 28.50113 29.69452 30.02824 30.20773 33.41037 35.61686 37.04434 37.47074 38.49784 40.34891 41.36042 43.79579 45.30884 50.78715 55.54938 58.97792 73.04356 77.21295 81.82899 79.35025 77.57716 80.89933 87.66419 90.16839 90.69421 90.70311 91.07515 97.49024 104.56450 107.28187 109.46906 110.91419 109.41394 107.72956 105.30435 106.80570 110.52168 112.40119 115.94285 119.02558 119.87040 117.82983 118.53183 119.71954 121.44976 120.79426 120.85478 121.34956 121.66920 121.32433 120.89985 120.78346 120.00920 119.05741 117.93641 116.50615 117.01286 114.30900 112.20877 109.87158 110.47625 112.70292 113.63712 110.79327 106.17225 101.21723 94.49331 92.82767 90.08935 87.74229 87.01417 93.97433 96.17856 95.17944 91.27520 88.11207 81.82543 76.86438 68.80959 64.78657 62.07475 56.81827 53.00244 45.85026 41.12732 41.72473 40.65636 40.27670 39.69755 39.59526 37.52149 33.56669 29.86881 28.15442 26.60203 26.26305 26.37304 26.15886 25.97014 25.59930 25.42216 25.33313 25.31245 25.29096 25.28175 25.27575 25.26600 25.26600
25.24900 25.24900 25.25770 25.26586 25.27334 25.28332 25.29589 25.33532 25.41573 25.55351 25.86373 26.35645 27.17743 28.60027 29.73092 32.03365 32.55754 32.86301 32.44417 33.24235 35.28967 39.61037 42.13595 44.03202 45.83638 47.01695 47.63036 50.85164 55.87924 57.34883 61.22502 66.60660 77.87176 82.71523 85.74918 83.01959 84.75090 90.82181 94.06004 96.41803 96.05058 95.91509 99.91007 103.90819 109.29319 112.86708 114.33538 114.52626 113.18070 110.29312 111.07141 114.12124 117.37557 119.02094 121.24738 122.38034 121.75154 121.88699 123.45613 123.80877 123.67680 124.32662 124.55306 124.44853 124.45634 122.71165 123.35019 123.24450 122.85303 120.88854 120.31942 119.16839 117.89090 116.28841 115.00425 115.17078 116.07038 115.33501 112.17042 105.30234 101.19826 99.02556 97.38875 94.29909 93.32963 98.40007 98.75948 98.97573 97.26609 91.97009 85.99186 79.49439 74.39737 72.18155 68.94509 66.51017 59.26867 53.31179 45.77669 46.62129 48.00691 47.66289 45.79605 43.44134 40.15341 36.20185 32.77403 29.86217 28.22119 27.39624 27.43844 27.20172 26.91493 26.36530 25.82403 25.50325 25.35316 25.30444 25.29027 25.28078 25.27484 25.26700 25.26700
25.25000 25.25000 25.25822 25.26616 25.27313 25.28311 25.29315 25.32622 25.41182 25.58833 25.90752 26.63332 27.91925 29.06670 30.81639 33.31739 35.29563 35.45888 35.05621 34.38057 36.41044 41.43054 45.30933 47.06909 49.72654 51.61595 54.64210 58.14348 61.53855 65.71566 65.74275 68.54195 76.74297 81.97825 86.78654 87.77030 86.84249 91.79698 96.31042 99.92013 102.03753 101.38376 102.23460 105.14186 111.11849 113.26011 116.44617 117.67070 115.68349 113.52589 116.05696 117.74846 120.53023 122.36987 123.41751 124.94327 125.39866 125.54988 125.96583 126.47175 126.34108 125.81892 125.82539 126.27442 126.05055 126.13998 126.41145 125.56874 125.12028 123.90414 122.14654 121.59882 120.58586 118.77403 118.38313 117.75499 118.91358 117.71139 114.21242 108.25048 104.69493 102.52870 100.97206 101.02250 100.74785 102.86298 102.93185 100.66116 97.03970 90.81518 85.48329 82.34428 79.64155 78.74562 73.41440 68.01777 59.91033 56.95322 54.32478 51.83286 52.84932 52.07212 46.40524 42.68747 38.34529 35.27633 31.46353 29.31913 29.86973 29.90990 28.43567 28.54355 27.53916 26.43481 25.76980 25.59130 25.38594 25.31674 25.29385 25.27977 25.27382 25.26700 25.26700
25.25100 25.25100 25.25936 25.26506 25.27333 25.28425 25.29005 25.30762 25.37677 25.50412 25.92064 26.49724 27.04462 29.39627 31.72408 33.47414 36.76883 39.30997 39.04541 38.29155 38.58462 40.17440 43.15971 47.68999 52.12115 56.44470 58.45793 61.81280 66.51259 70.04373 74.71405 75.11908 75.69880 81.76335 87.87238 91.99260 93.32588 95.40308 98.69013 102.21026 103.43460 104.62200 105.12347 106.24961 109.87976 113.08025 117.46621 118.91016 119.12222 117.65220 120.46620 122.34690 123.29420 124.80674 126.23874 126.25669 126.27977 125.93340 125.95374 126.09376 126.64208 125.99855 126.52841 126.04618 126.63596 127.07413 127.27094 127.17124 126.37210 125.73690 125.41091 123.75377 123.52173 122.65103 122.05393 122.25313 120.63125 118.11568 114.89111 111.26135 108.67895 106.12026 104.97278 104.63880 104.07571 106.00609 103.80849 101.14287 95.24584 90.74211 87.51974 86.71886 85.02840 81.01461 77.81905 66.18772 61.93252 59.17300 59.20162 59.72177 55.44236 49.86759 45.09102 38.76568 36.91231 31.68194 30.55327 30.47779 31.54467 32.29063 31.22349 29.84281 28.10150 26.84848 25.89784 25.52181 25.38310 25.33394 25.29582 25.27827 25.27222 25.26700 25.26700
25.25000 25.25000 25.25926 25.26522 25.27397 25.29344 25.31253 25.31778 25.38401 25.49668 25.70214 26.28068 26.50906 28.00673 29.76382 32.38399 36.49399 39.60619 42.32988 44.59165 43.45204 47.40867 48.00364 50.06979 52.15422 57.41910 62.02644 66.09653 68.56190 73.50946 78.08464 79.97076 81.28718 81.46490 86.98583 92.32734 97.03702 98.47473 101.10441 103.27681 106.16234 108.74979 110.42961 109.77200 110.75375 113.99981 117.16440 121.11772 121.49655 122.31112 123.58334 124.75240 125.32367 125.44912 126.11261 125.16062 124.28921 124.71560 122.64456 124.03579 123.48222 122.86357 122.01275 124.52684 123.11900 125.35533 126.45546 125.72564 125.56149 125.76964 125.70492 125.62005 125.84165 125.45127 125.20461 123.23965 122.34394 119.35577 117.06458 113.91606 113.26519 108.24627 106.50914 109.30229 109.63074 108.94187 105.02800 100.90639 96.11876 93.28600 91.65935 92.25694 87.88052 83.18691 78.05698 68.27120 62.14384 62.64535 62.58577 56.30054 52.60539 44.54552 38.91590 36.31845 34.41922 32.47627 33.72737 35.18597 34.21158 33.03741 30.48219 29.36172 27.52214 26.54253 25.74722 25.55343 25.41513 25.33633 25.31332 25.28739 25.27346 25.26600 25.26600
25.24900 25.24900 25.25792 25.26635 25.27455 25.29406 25.32955 25.40275 25.42520 25.62115 25.89641 26.62645 27.46370 28.42351 29.17845 31.25236 35.25723 40.09263 45.22773 47.20983 50.49046 53.43143 56.50415 54.69456 56.43280 58.53518 63.09143 69.34120 73.79733 76.40023 81.06511 84.63026 86.49243 85.70686 86.99527 91.24375 98.58205 103.45238 105.87097 108.78154 109.30791 111.99958 113.70750 113.78025 114.06555 114.85671 118.47538 121.96486 124.56988 125.15472 125.17334 125.43281 124.96334 124.62376 124.19358 122.20620 120.58785 118.95677 119.43611 116.60612 118.30424 117.65101 117.17676 117.29114 118.86709 119.14799 120.78497 120.76182 120.30163 121.67118 123.87698 125.68804 126.67661 126.92846 126.89843 126.01036 122.62641 121.12069 119.49888 117.16743 114.90532 110.89059 109.92752 111.06830 111.99896 110.42153 106.90792 102.47276 99.51911 96.86977 93.91408 92.69825 88.03041 82.25344 75.58839 72.31426 67.55561 64.88711 60.12325 53.84901 46.16531 40.63432 40.65144 38.73624 38.57253 39.23714 38.57298 37.29104 35.44251 32.51024 29.97887 28.35244 27.42291 26.75388 26.15496 25.74492 25.53000 25.40740 25.31945 25.29080 25.27624 25.26600 25.26600
25.24900 25.24900 25.25779 25.26748 25.27984 25.30327 25.34276 25.47878 25.65060 25.95489 26.56772 27.33680 28.93827 29.27869 31.18097 32.56782 34.18296 38.39628 44.63130 48.77087 53.07029 59.80933 62.90077 65.56395 64.30761 65.66180 65.59807 70.43610 75.40617 81.39984 84.35132 86.34229 89.80234 91.06458 90.51194 92.80239 97.90648 103.03222 108.20486 110.14672 112.88059 114.27213 116.10806 117.84458 118.93474 120.41646 120.60799 123.43784 125.88121 126.01322 125.31549 123.64445 121.52103 120.74533 117.88125 117.84728 113.18609 112.74106 113.55033 113.67540 111.89594 111.83696 110.61761 111.18788 112.66394 113.10257 113.01021 115.33042 114.12349 115.82940 118.85326 121.69543 123.82429 124.75440 125.74836 126.92395 125.65809 123.83979 123.33676 119.30599 116.81470 115.35681 114.84376 114.20720 114.08770 111.72783 109.16364 105.15326 102.98516 99.99109 95.82712 90.74782 86.51585 81.24981 76.85885 72.71622 67.63953 64.23985 55.07559 48.86085 47.43715 45.98791 45.06772 45.68020 44.90447 41.60643 38.97333 36.74979 34.46383 32.23878 30.42639 29.36133 29.08906 27.70089 26.93285 25.88324 25.68836 25.43060 25.34373 25.29027 25.27576 25.26600 25.26600
25.25100 25.25100 25.25828 25.26715 25.28395 25.31851 25.44013 25.63932 25.88812 26.26557 27.14621 28.39651 29.91208 31.32899 33.87262 34.31786 37.95818 39.48274 41.46509 48.61207 52.37550 59.43426 65.01613 68.85316 70.13281 71.92055 70.71284 72.19323 77.54894 82.41559 85.86650 89.33420 93.62394 94.89145 95.55632 96.37117 99.06412 104.06204 110.06762 111.65445 113.93758 117.29545 119.16736 121.31412 121.76823 123.40142 124.27569 125.29916 125.89177 124.27207 122.87484 120.15053 117.91842 114.20710 113.07364 111.00231 109.54978 108.26184 106.80331 107.52296 108.21058 106.58197 106.39621 107.42287 108.73287 108.05627 107.43421 108.63596 109.47137 111.55815 114.83211 117.39429 119.29227 121.35686 122.41430 124.01176 125.55876 125.20982 124.58457 122.83325 119.98435 118.25981 118.36171 117.95562 116.55200 114.80409 110.34044 108.13364 103.79154 99.96049 95.43200 91.98841 86.78297 83.61311 77.78274 68.84473 63.49111 59.09592 54.26426 54.26183 54.17691 54.38832 52.80112 48.71958 45.51816 42.46760 38.29549 36.50660 35.61901 34.64526 32.64267 31.61168 30.36680 28.85683 27.41239 26.11566 25.64466 25.46902 25.35717 25.29563 25.27402 25.26600 25.26600
25.25000 25.25000 25.25732 25.26909 25.28586 25.31211 25.39202 25.70408 26.08888 26.64308 27.69704 29.00092 31.12737 33.09361 35.49263 37.94598 40.34534 42.77103 44.15124 46.44980 52.22439 57.39286 61.41698 68.00783 72.42012 76.18767 77.24442 76.26328 79.78302 82.79001 87.06511 91.01166 95.09281 98.45930 99.06737 99.98432 102.76216 104.05796 108.55232 111.36152 114.31219 118.15297 121.54042 122.51909 124.91783 125.61086 126.01640 126.11023 125.19912 122.13704 119.91736 113.14460 112.06464 108.93764 107.61990 106.61114 105.08964 104.56415 104.37528 104.26805 103.73379 103.26426 104.70482 104.45464 103.63766 105.61458 104.16278 104.18770 106.79002 108.42859 111.21374 111.77430 113.21256 115.29629 119.03429 121.33773 123.95591 125.54010 125.67292 124.77346 122.92280 121.86589 120.73108 120.00990 118.09831 115.29532 112.05778 107.44700 104.06277 100.44792 96.59097 95.25058 88.92951 83.24441 74.97653 67.79773 64.01243 61.18166 62.81810 59.35606 57.72924 59.20160 51.70132 49.00921 44.96472 40.79688 39.89408 38.74995 36.73654 38.11915 35.35009 33.48391 31.03538 28.73510 27.29147 26.27000 25.72723 25.48236 25.35467 25.30373 25.27937 25.26600 25.26600
25.25000 25.25000 25.25743 25.26824 25.28181 25.32397 25.39019 25.63428 25.94861 26.44093 27.32420 28.66998 30.23995 32.54508 35.95986 37.43421 42.48259 44.98983 45.83113 48.13959 52.04480 56.62093 61.73262 67.45643 73.06824 78.19618 82.45803 85.75054 87.06709 88.83822 90.76625 92.26531 96.73199 101.30729 103.88636 105.19518 106.29743 107.75222 109.83599 112.25920 113.91351 120.21329 122.80238 125.39348 126.14120 126.21976 126.20354 124.69878 121.82294 116.77315 113.24080 110.90783 107.32437 106.18741 104.68536 104.03964 102.64282 101.57881 101.15839 100.82238 100.60873 100.65628 99.59471 100.90516 101.43523 102.06212 102.61648 102.41622 102.94246 105.11456 106.02218 106.34258 108.53316 107.70334 112.59898 116.76352 121.95607 123.83871 125.43614 126.17711 125.56794 125.00431 123.18595 121.15095 117.90252 116.43308 111.71378 107.34830 103.68815 100.87518 98.71350 95.32917 89.58381 79.59550 76.01447 71.99007 74.29289 72.85079 69.59977 67.24179 64.70036 60.58498 52.40402 48.97228 48.23213 45.59459 45.13059 42.88602 43.79612 39.95285 36.67976 33.42556 29.59908 28.18932 26.96955 26.53628 25.92075 25.62764 25.46011 25.32716 25.29166 25.26600 25.26600
25.25000 25.25000 25.26038 25.26995 25.29711 25.34177 25.41390 25.60097 25.90750 26.14353 26.04995 27.25612 29.08052 29.10520 32.61101 35.16922 41.25187 44.27614 47.13243 48.96341 53.41818 60.97587 65.14624 69.44202 74.44919 79.82313 85.35249 88.52558 91.57717 92.11067 95.25365 96.55091 98.12327 102.79950 105.49308 108.11645 109.00544 110.79946 111.69929 113.88786 116.41720 121.20542 124.44671 126.29846 126.47529 125.78749 122.32749 121.01163 116.89669 112.48561 109.56167 107.25679 104.90805 103.64227 102.23153 100.34118 100.37548 99.22644 99.13243 98.43147 98.67970 98.73918 98.38103 98.69785 98.56538 98.43419 98.85370 98.96523 99.88514 101.36055 102.99048 104.37122 104.34387 105.35671 107.33795 112.27826 117.04433 120.00459 121.69319 124.86019 126.55689 126.38858 124.96834 122.88119 119.84063 116.49110 113.30174 108.17986 104.81023 102.12368 97.92106 94.30017 88.65938 78.89002 79.51752 81.72801 83.63953 83.38756 77.43334 70.11224 65.55096 60.61348 57.22089 58.71782 55.17993 53.98987 50.72234 47.46528 44.23405 40.02521 36.31148 32.15421 29.49603 28.17014 27.01402 26.54270 26.05571 25.69047 25.44321 25.34636 25.29257 25.26600 25.26600
25.24900 25.24900 25.26419 25.27933 25.32220 25.45252 25.51744 25.81538 26.18736 26.60343 26.80221 27.18278 28.21833 29.23720 30.55068 32.92065 37.80861 42.40063 45.60905 47.50810 53.16696 60.46064 66.02892 71.07281 73.63204 79.25480 84.61458 87.98810 93.52747 96.81811 98.42847 101.15029 102.07587 105.22379 108.09375 110.34558 112.56159 114.17398 115.74078 118.13411 120.41894 122.16537 125.13199 125.85334 125.25136 123.59413 119.46640 115.00210 112.97297 109.02927 105.78130 103.98348 101.63280 101.00157 100.14378 98.75367 98.39204 97.55299 96.71596 96.83009 96.43021 96.54067 96.38615 96.71831 96.83456 96.88090 97.18490 97.30190 98.26772 99.63968 100.42073 101.08049 101.65943 103.22438 105.13163 108.56653 113.42776 115.31185 117.87272 121.80049 126.06610 126.79430 125.99399 124.46589 121.26974 118.50021 113.47125 110.46926 104.58864 100.58400 95.76479 90.47718 85.04347 83.58289 88.04871 93.92580 90.71271 87.55831 79.16677 74.13091 67.12228 63.72476 62.81196 63.89299 65.34707 60.84100 56.63277 50.54967 43.91663 38.07632 34.04591 31.34690 29.19795 28.11652 26.98663 26.47877 25.96929 25.73165 25.43253 25.34460 25.30065 25.27500 25.27500
25.24900 25.24900 25.25839 25.28055 25.30892 25.47407 25.70769 26.17301 26.58969 27.53489 27.96753 28.49911 29.70032 31.63037 32.76238 34.38953 35.43995 36.92243 41.79323 42.54008 49.55681 53.26247 62.75488 66.00207 71.83916 74.23215 79.50062 85.40455 91.45770 95.34279 100.49378 104.26888 106.13039 106.74481 110.03108 111.68798 115.74582 117.24382 118.76020 120.95954 123.10194 124.33177 125.24744 124.65206 122.13546 119.07343 116.61897 111.45011 108.73587 105.07657 102.94390 101.20416 99.94324 98.75977 97.58173 97.19681 96.33588 95.71900 95.54444 95.13876 94.88541 94.82680 94.89043 94.68119 94.92242 95.17540 95.51957 95.47722 96.21303 96.98972 98.13793 99.14247 100.14485 101.14119 103.80774 105.57821 107.97492 109.42693 114.35735 117.92240 123.58094 126.15304 126.20654 125.76233 123.12346 119.25465 114.13325 110.57682 106.14072 104.27023 101.16340 93.03332 92.46370 93.11058 93.71011 96.81790 93.33945 91.52889 84.18179 77.76470 73.95035 70.07705 72.55083 70.92327 67.25545 63.66114 59.50587 51.10044 40.79183 35.43483 31.91337 29.86521 27.91006 28.12489 27.64574 26.82237 26.38778 25.78061 25.61709 25.45668 25.34562 25.28900 25.28900
25.25000 25.25000 25.25623 25.27959 25.32255 25.37780 25.77236 26.19985 26.84864 27.65192 28.50439 30.46015 30.90051 34.59040 36.30726 37.57580 38.72747 38.70051 40.01190 41.46376 43.34840 47.64812 53.03048 61.13926 66.41503 65.59198 72.18224 80.25403 87.19642 92.84962 97.31993 103.75672 107.87159 109.99394 112.30614 115.21509 117.19917 119.64123 120.92772 123.26036 125.59971 126.47965 124.46487 121.79562 119.22560 114.70515 111.37916 107.24801 105.23801 102.72470 101.10981 99.03501 98.28161 96.87263 96.06118 95.61877 95.09493 94.50222 93.99903 93.84820 93.66588 93.60233 93.61834 93.80683 93.76157 93.90625 94.09544 94.78132 94.80224 95.33764 96.35582 97.51358 98.18324 98.87762 100.69374 102.94868 105.37300 106.99109 109.21099 118.02120 120.35191 124.72772 126.33467 126.58484 123.67476 120.67455 116.57709 113.71180 111.50429 108.89777 104.69281 100.71564 99.27793 99.43734 101.50662 100.70147 97.19619 91.88446 85.92398 82.58835 78.43453 78.04355 77.46769 74.23187 71.53249 62.63258 57.77765 49.50665 39.51661 34.43915 31.33646 29.78971 30.65135 29.73057 29.86012 27.81560 27.25798 26.27424 25.91300 25.56213 25.44427 25.29800 25.29800
25.24900 25.24900 25.26223 25.30601 25.34407 25.48789 25.65858 26.11443 26.52966 27.43545 29.20081 29.97283 31.90271 35.86828 39.16071 42.30624 44.93088 46.02072 46.43339 45.63958 46.04520 47.90921 47.71175 53.52306 56.71577 59.74856 64.43683 72.14684 78.42642 87.02014 93.25763 100.52472 107.71818 109.87923 113.57952 116.83153 119.45061 122.29402 123.83665 125.01847 126.69744 126.67839 123.48969 118.46962 114.43880 109.62335 105.38995 104.24405 102.46138 100.92979 99.73218 97.78211 96.36224 95.33054 95.21335 94.26655 93.94520 93.43695 93.22505 93.15484 92.87170 92.75898 92.66222 92.77734 92.87343 93.07830 93.11340 93.28090 93.79432 94.35149 94.49120 95.07116 96.95231 97.79733 98.32218 100.27545 101.58523 105.20231 108.57185 112.21850 117.37147 122.32215 124.76770 126.59404 126.08466 121.30382 119.20643 116.59206 114.62932 112.49923 109.06445 104.88668 103.25989 104.87298 104.52531 102.40667 97.61166 92.33106 88.94181 86.35282 83.36784 81.26296 77.85380 73.49575 66.54871 60.04257 53.23131 46.43066 38.91283 34.03411 32.07468 32.66932 32.60887 34.09549 31.98209 29.95862 28.27654 26.96079 26.07796 25.65551 25.48743 25.32400 25.32400
25.25000 25.25000 25.26318 25.30630 25.40507 25.63165 25.93029 26.44629 26.99672 27.45927 29.28695 30.49987 32.42536 35.97316 39.15291 43.44064 49.25735 52.22708 56.02909 53.00987 51.05407 50.83854 51.54206 51.30159 54.15613 59.66579 66.35687 70.87327 77.91118 84.60919 87.88061 97.60108 101.87553 108.71675 112.81567 117.70284 119.33527 122.66752 124.67387 126.71956 127.56496 126.13431 121.89457 116.94546 112.62140 107.59684 104.02676 102.06909 100.00795 98.82703 96.89480 96.16892 95.34691 94.45315 93.88596 93.38427 92.93699 92.69701 92.57777 92.48554 92.39996 92.23308 92.20885 92.13781 92.35596 92.48763 92.51601 92.73154 92.86295 93.21168 93.84114 94.16991 94.88307 96.29156 97.29089 98.91361 100.02505 102.22476 105.69933 109.64197 112.71566 118.22803 122.65225 125.11178 126.08070 124.04700 122.12760 119.32872 116.88090 114.48102 109.49317 107.62404 108.42260 108.57393 106.48383 104.29605 99.31345 94.76697 92.66560 90.13508 87.28763 82.33502 76.13085 71.67992 62.83497 55.46996 49.67915 45.14160 37.34603 35.53375 35.72176 36.51675 36.96133 36.80318 33.53434 30.76303 28.28628 27.27164 26.16969 25.75836 25.41590 25.31500 25.31500
25.24900 25.24900 25.25969 25.29756 25.44726 25.86868 26.18689 26.94325 27.69544 29.13997 31.32557 33.89895 34.82863 37.36952 42.01274 46.44350 51.41527 56.67526 59.63158 61.47617 62.73910 62.75547 59.95311 56.89690 57.90730 59.56272 65.68311 72.83928 79.40027 84.51488 89.40495 93.49604 99.19137 106.16207 112.27588 114.94750 118.92106 122.01504 125.31615 126.71839 126.90270 124.04477 119.55219 113.07782 109.02320 105.76427 102.83847 100.61543 98.84362 97.02916 96.10207 94.60602 94.02815 93.38003 93.16886 92.86879 92.52753 92.25888 92.08631 91.92348 91.92183 91.84740 91.85732 91.87031 91.86135 92.03751 92.04615 92.18288 92.53864 92.68162 92.89796 93.36945 94.12759 94.92142 95.35416 97.21266 98.64356 101.06825 103.39886 106.10812 110.14307 113.40109 120.42562 123.54090 125.44720 125.59233 124.05933 122.95476 119.33677 117.40134 112.77768 111.79657 111.24686 109.82744 107.39610 103.62784 100.74174 96.02974 93.64909 90.21082 86.85862 81.20213 74.02546 62.82703 60.80604 52.78598 46.36765 42.31345 39.59407 39.98168 40.33201 40.46919 39.64848 36.67197 33.74016 31.11553 28.70882 27.00743 26.03700 25.63622 25.37333 25.28200 25.28200
25.25100 25.25100 25.26351 25.33509 25.44638 26.09156 26.66819 27.72903 28.99022 30.75648 34.47886 36.90249 40.17022 43.10055 47.22529 50.33661 55.66183 59.39557 64.72028 67.76818 69.31271 69.93568 71.48960 64.25327 62.57930 66.42738 69.14929 72.13643 77.94451 83.18057 89.52660 93.77105 100.38756 104.33832 108.90424 114.49173 118.90720 121.18232 124.19534 126.07171 125.42990 121.97282 116.56625 110.70753 107.01678 102.65434 100.95939 98.24306 97.46222 95.98945 94.84893 94.27448 93.74554 92.88145 92.56023 92.16958 92.02060 91.89889 91.71961 91.66465 91.59156 91.55850 91.48601 91.48222 91.63917 91.66164 91.79894 91.87939 92.08127 92.21452 92.44315 92.79051 93.18170 93.94415 94.73273 95.46301 97.33298 99.31491 101.44423 103.27220 107.35696 111.36057 117.56625 121.33091 125.31226 126.48283 124.81945 123.29434 121.67948 118.31732 117.70944 114.89781 111.58547 109.74316 104.46744 100.74909 96.37732 93.22540 91.13792 85.91275 79.83243 75.78739 67.55132 63.22012 55.37863 49.19151 47.19585 45.15336 45.86187 47.65931 46.89707 45.11688 41.39262 35.26975 33.26756 30.20127 27.71679 26.95339 26.20740 25.76113 25.43867 25.28600 25.28600
25.25000 25.25000 25.26432 25.34961 25.49081 26.14120 26.87678 28.48786 29.39893 31.61179 34.72055 37.69024 41.28518 46.77478 50.40403 52.75242 57.09838 58.13649 62.50503 68.32486 71.75930 76.59452 76.92636 77.22919 75.86640 74.54853 77.45714 83.90078 82.61699 86.78753 93.93361 98.15841 102.69671 107.69286 111.37028 115.78576 118.45205 123.13564 124.87253 125.68531 123.19160 118.99502 114.95740 109.42707 105.09327 101.69234 99.69779 98.19251 96.79994 94.99179 94.40533 93.36260 92.65075 92.36485 92.15172 91.80770 91.62896 91.62361 91.48926 91.35439 91.29870 91.27029 91.29272 91.25554 91.28823 91.32664 91.43336 91.58999 91.77920 91.86090 92.08452 92.41344 92.73806 93.36223 93.90552 94.63538 96.58834 98.01418 99.94095 101.96119 105.22683 108.26660 114.16446 119.83923 125.27574 126.94225 126.93543 124.66415 122.89712 120.40319 118.34992 113.98459 110.97196 105.51069 100.42902 96.31363 92.61563 88.03396 86.02482 81.02110 76.78255 70.22088 66.62643 60.55882 59.59100 55.38508 51.63539 50.50923 53.39890 54.22718 49.53272 45.31073 40.69076 36.38507 31.91534 30.62709 28.76397 27.75911 26.70684 25.87397 25.52412 25.32800 25.32800
25.24900 25.24900 25.26446 25.30557 25.56404 26.07324 27.05558 27.47264 29.36347 31.42077 33.81664 36.49141 39.30073 45.16345 50.52128 53.00115 54.34685 55.61663 57.37277 62.68700 74.25419 76.82374 80.15279 82.14591 83.37372 84.87145 88.47467 89.80615 93.37060 92.23984 95.56688 101.76586 106.70675 111.57474 113.76188 118.19876 121.26088 123.88764 125.15684 125.25540 120.28368 116.32403 110.03593 107.68435 104.27053 101.59889 98.68334 97.23906 95.28752 94.49127 93.44193 93.09652 92.43287 92.13085 91.86289 91.61001 91.39959 91.28670 91.23250 91.15482 91.08185 91.01377 91.04672 91.08091 91.08637 91.16285 91.27750 91.32173 91.41205 91.60119 91.76414 92.02169 92.45948 93.05897 93.43940 94.32149 95.15905 97.31424 99.32449 100.91849 103.84075 106.96309 112.84119 117.24389 121.39592 125.65081 126.88986 125.18799 121.99947 119.87798 115.14761 112.40958 108.01435 103.91718 99.26131 93.95087 92.46729 89.61322 81.81240 77.96126 74.38449 70.82523 67.20431 66.68317 65.27258 65.24904 61.07444 59.40357 57.55557 55.46328 49.68259 45.53796 39.76527 37.83169 34.98875 32.31556 29.77566 27.97617 26.76145 26.05275 25.56670 25.35300 25.35300
25.25000 25.25000 25.26915 25.29468 25.50139 25.87338 26.50530 27.34010 27.49222 29.04847 30.13552 34.02362 35.81382 38.39034 45.44248 47.09619 47.08345 50.03685 52.17976 59.69097 67.94053 72.85848 76.35332 81.53247 85.77546 90.84406 92.41845 95.83894 98.64216 98.33780 101.50742 103.73444 109.14911 112.02999 117.37136 119.80099 122.29676 125.34456 125.73011 124.90233 118.78951 112.86682 108.74996 104.30281 102.18773 99.85210 98.04940 96.20354 94.91366 93.87396 93.07927 92.51791 92.13443 91.79802 91.59420 91.43910 91.27348 91.14711 91.06770 90.97407 90.97741 90.94043 90.93525 90.94550 90.94312 90.97724 91.07135 91.17402 91.25183 91.39274 91.55375 91.76496 92.11813 92.51022 93.08959 93.74330 95.05882 96.41729 97.84882 100.40238 101.88722 107.30954 108.83245 114.29181 120.43490 123.52136 125.17356 124.67476 121.36972 118.39662 113.64904 110.90379 106.58927 103.32093 102.05773 98.63628 96.23489 93.18464 84.93419 79.58770 74.64705 72.38431 69.30123 66.66660 67.71525 65.98497 62.76316 60.00434 56.58000 54.30572 47.24330 42.96335 39.37689 36.64366 35.88457 33.21723 30.86849 28.50340 26.96539 26.09747 25.74561 25.36200 25.36200
25.25100 25.25100 25.26284 25.28743 25.40799 25.74920 26.07381 26.41740 27.27542 28.62102 29.80842 30.77762 33.49281 35.61634 38.12285 41.54235 45.91346 49.05435 52.66296 55.59290 64.13810 68.39028 72.00811 75.22987 82.78341 89.43238 93.47083 97.71518 101.30380 103.52350 105.35382 107.01306 110.43870 115.86781 118.69324 121.14404 124.52704 125.48159 125.53397 122.11229 118.38952 112.15282 106.74764 103.89110 100.75718 98.83214 96.98377 95.09326 94.33648 93.32554 92.45771 92.36768 91.86859 91.59784 91.41491 91.27119 91.13822 90.99376 90.91910 90.84089 90.83179 90.80505 90.80095 90.80870 90.83704 90.81552 90.90177 91.03583 91.08941 91.23473 91.42670 91.67527 91.90401 92.08507 92.66292 93.30889 94.35678 95.69999 97.03119 99.34220 101.40043 104.91919 107.37555 110.96038 118.32417 122.09142 125.09847 124.69217 122.51114 118.55335 115.58126 113.52647 110.73946 106.09736 103.35639 101.51744 97.02045 93.14135 87.32773 79.85282 75.53221 70.67083 68.15634 64.48213 62.34475 58.95213 58.21069 54.61342 51.58224 47.57459 43.79552 39.09839 38.08154 34.76403 33.91232 32.83261 30.13121 27.87677 26.84388 26.00538 25.74797 25.44300 25.44300
25.25000 25.25000 25.25758 25.28721 25.32536 25.54566 25.90185 26.54585 27.71149 29.45978 31.42773 33.05624 34.35035 36.45482 38.24725 42.77618 47.20932 53.44362 56.06594 58.20249 60.87419 68.94130 71.55702 75.64437 83.07994 87.90394 90.65526 95.30834 101.30820 104.84199 107.86881 110.64679 112.94992 117.22036 121.09166 123.48115 125.49480 126.18638 123.74067 120.31950 112.49797 109.18368 104.24716 102.18416 99.77938 98.15545 96.17562 94.51733 93.87055 92.88716 92.39170 91.97547 91.63418 91.48552 91.22064 91.11477 91.01764 90.90836 90.82558 90.77028 90.71097 90.69449 90.69275 90.69189 90.70458 90.74376 90.77373 90.85824 90.96262 91.05906 91.28210 91.41074 91.78857 92.05048 92.24687 92.92185 93.79810 94.64116 96.48406 98.07385 99.97566 102.79513 104.91582 109.30753 114.50299 119.27440 123.87711 125.15255 123.31468 120.23739 119.26878 115.58371 111.89856 108.13044 104.30852 100.81858 95.50302 92.16410 86.70429 81.57771 78.53904 70.94542 66.00030 63.72741 60.22280 54.59870 50.03119 47.47634 44.64522 41.54388 37.62789 34.96530 33.11438 33.69323 30.92663 30.17443 28.37491 27.38108 26.39796 25.89318 25.62353 25.42600 25.42600
25.24900 25.24900 25.26192 25.27927 25.35096 25.68093 26.08913 26.76903 28.35339 30.05367 32.28472 35.15469 37.19295 40.90483 43.24448 45.95762 52.12636 56.27633 63.33778 65.75926 69.17616 73.80141 81.24974 84.57684 85.21444 88.08768 91.35425 93.87852 101.00343 104.04240 106.83335 111.25072 114.42920 117.46245 120.79794 124.24041 125.77737 126.63050 124.56063 118.51637 114.49164 107.53053 103.88735 101.06344 99.11940 97.71131 96.04285 94.18224 93.35726 92.70095 92.30182 91.81524 91.56653 91.30077 91.11460 91.00236 90.87851 90.81763 90.70724 90.65830 90.61097 90.61045 90.60752 90.59312 90.63823 90.66016 90.72883 90.79677 90.90527 90.99623 91.14474 91.27905 91.49649 91.88837 92.18079 92.66952 93.70174 94.29057 95.63666 97.30827 98.83413 101.60369 103.70886 106.39898 113.08365 118.16040 123.26804 124.96212 124.81755 122.08115 120.09485 116.57849 112.60248 108.62544 102.78899 99.41978 96.44958 92.65723 88.39470 86.21664 83.93631 80.98350 70.95865 66.66928 60.82803 53.20417 48.72024 47.79816 42.50184 40.91774 37.69153 34.56721 32.15690 31.27084 30.34422 28.92255 27.65210 26.65188 26.15546 25.65348 25.49064 25.35000 25.35000
25.24900 25.24900 25.26321 25.33667 25.52027 25.72782 26.44846 27.22063 28.50030 30.33202 32.52455 35.31369 37.92636 41.84707 46.29443 51.43520 54.34329 60.23989 65.82329 71.39900 75.94988 79.44014 85.00079 87.69862 88.26653 93.34066 94.20198 96.24184 99.18926 103.64365 106.89185 110.93066 114.05997 117.72943 121.03890 123.35993 125.94503 126.37097 124.40506 118.74618 113.43097 108.26053 104.86003 101.59769 98.55098 96.65272 95.51867 94.06549 93.38835 92.54146 92.08837 91.77458 91.43053 91.18960 91.02294 90.93894 90.82737 90.66182 90.65233 90.58185 90.56049 90.54136 90.52061 90.53409 90.53720 90.59843 90.62039 90.73947 90.81317 90.90965 91.07599 91.22278 91.34642 91.66221 92.08541 92.48698 93.13011 93.95110 95.27167 96.39707 98.31824 100.47413 103.90813 106.23265 111.33584 118.61847 123.05409 125.16510 125.14748 122.67167 119.40359 116.90534 114.01992 109.77185 105.48263 102.61604 100.48300 98.33405 92.89250 89.63762 85.36576 81.64037 75.48598 71.74921 67.02686 59.43927 56.55204 53.27045 47.72479 43.91019 40.00547 38.54212 34.96769 34.22153 31.70301 29.94333 28.71905 27.30801 26.41021 26.05768 25.56553 25.33300 25.33300
25.24900 25.24900 25.25625 25.44627 25.76919 26.41339 27.07160 27.94715 29.31152 29.88878 32.05475 33.73301 37.79592 40.28776 44.69821 49.45044 53.81346 60.54042 65.58738 73.33702 76.70139 82.54120 84.13800 87.30924 89.59853 92.76070 95.41803 97.94683 100.80754 102.27866 105.66486 110.26280 113.35824 117.56934 120.55389 123.81877 125.75413 125.88100 123.28023 119.49111 112.85329 108.19635 104.47203 100.25052 99.05207 96.52622 95.00947 93.73377 93.02574 92.41881 91.96343 91.62272 91.43895 91.10137 90.98473 90.88273 90.75745 90.63895 90.61062 90.53321 90.49747 90.47431 90.47534 90.46870 90.50017 90.53079 90.58937 90.64862 90.78729 90.87395 91.00334 91.13503 91.29557 91.59740 91.95925 92.33371 93.11352 93.65373 94.84020 96.05825 98.24018 100.47289 103.32294 107.18145 112.35597 118.22067 123.31153 125.21348 125.11159 122.87200 119.11388 115.79902 114.03180 110.23945 108.37412 105.92545 102.05531 98.31900 92.34366 88.05212 82.65302 77.53019 75.08609 70.95770 65.35493 61.43594 57.68499 56.29799 51.01685 47.25126 43.30186 40.45438 37.14188 36.21268 34.86391 32.12716 29.67496 28.91379 27.47092 26.33875 25.78386 25.42900 25.42900
25.25000 25.25000 25.27636 25.42747 25.98374 26.60302 27.33564 29.34730 30.47483 32.23105 34.21463 35.36473 37.91839 40.91590 46.97394 51.01694 56.22020 62.77516 67.58725 72.23660 75.28692 77.61242 79.06645 79.83886 81.20380 86.72936 90.92023 94.64509 96.53050 99.46341 103.10129 109.21668 112.61040 117.04406 121.21424 124.27448 126.43129 126.92574 123.32883 116.73984 111.76925 107.23299 104.26548 100.99780 97.89578 96.35334 94.78309 93.42029 93.01044 92.25858 91.90323 91.49702 91.31605 91.14272 90.93962 90.83311 90.70436 90.60889 90.53525 90.49715 90.47172 90.43241 90.43504 90.44339 90.45945 90.50603 90.53745 90.62057 90.70454 90.82267 90.97218 91.11292 91.29831 91.46622 91.81071 92.29918 92.85168 93.45503 95.23476 96.08376 97.74498 100.49700 103.26988 105.91278 108.99857 116.58443 122.09814 125.52134 125.10354 124.06752 119.71242 116.93224 114.54567 111.11074 108.54677 105.20079 101.05885 96.72373 90.54342 85.79103 81.74526 74.32368 67.40744 61.93788 60.04649 54.96292 54.35922 52.62910 47.74951 45.45813 39.39399 36.66761 35.80368 35.50615 34.47891 32.63921 30.81273 28.74919 27.62732 26.40026 25.85552 25.47800 25.47800
25.25000 25.25000 25.32112 25.43397 25.87894 26.62489 27.70148 29.69524 31.36317 33.56246 35.79525 39.43459 41.06609 45.40173 49.25198 56.24141 59.64720 63.90373 66.85890 68.58429 68.90900 73.95932 69.54611 69.76131 73.32473 75.58176 83.39457 86.49952 92.59641 98.00179 103.01726 107.42867 112.80170 115.85802 121.35316 123.94998 126.38941 126.65432 124.58584 118.46557 110.82290 106.29988 103.37720 100.64946 98.08089 96.38613 94.72545 93.69458 92.66318 92.24121 91.81379 91.50367 91.27090 91.09403 90.91144 90.82032 90.68339 90.57498 90.51940 90.45412 90.42802 90.40326 90.39393 90.40940 90.43846 90.48107 90.52018 90.62470 90.68260 90.78911 90.91540 91.07485 91.26430 91.52891 91.70139 92.27043 92.75810 93.44431 95.08549 96.24447 97.40492 99.50351 102.23910 106.45223 109.37672 116.41263 121.34853 124.91819 125.07862 123.46083 120.65733 117.81197 114.86552 111.02536 108.32616 103.82323 100.02668 96.64475 92.33923 87.54122 80.28605 74.38789 63.65434 58.33419 51.87654 47.89491 45.20186 44.91784 41.97550 38.11655 35.90904 32.69470 32.10819 32.19527 32.44042 30.47811 29.70961 28.31836 26.66633 26.18659 25.67056 25.41600 25.41600
25.25000 25.25000 25.34166 25.45252 25.74946 26.53469 27.40447 28.89934 30.52124 33.27221 37.10518 40.22859 43.87939 46.64308 50.02840 51.67962 54.60132 57.38860 59.79354 62.16654 58.62635 59.84772 63.09080 65.52807 70.39275 75.46809 81.35899 85.46823 89.37767 94.93068 100.99489 106.17883 111.70985 115.45556 121.12622 124.24186 126.59279 126.38323 122.69486 118.27156 111.51577 107.39119 103.79276 99.91548 97.78750 96.21822 94.85970 93.50768 92.85597 92.45705 91.74125 91.53098 91.26980 91.07244 90.93952 90.76670 90.68652 90.58139 90.50513 90.45175 90.41041 90.39524 90.38315 90.39480 90.42628 90.48039 90.52266 90.60532 90.68853 90.75610 90.89773 91.06801 91.26100 91.51093 91.75792 92.11364 92.84843 93.49578 94.59644 96.09858 97.63671 99.86545 102.14663 105.68217 109.16361 114.92122 121.79288 125.22751 125.84082 123.89774 121.30196 118.70976 114.84579 111.49302 107.31148 104.40752 99.53248 95.44071 92.26175 87.74813 81.98672 71.63248 64.63134 57.15319 51.94402 46.00327 43.31082 40.49510 38.46879 35.86605 34.10955 33.09637 31.02184 30.23319 29.40343 28.78276 27.67691 26.46752 26.20552 25.71395 25.46791 25.31200 25.31200
25.25000 25.25000 25.28542 25.48435 25.78815 26.12632 26.88963 27.79064 28.66162 32.47064 36.02299 38.44369 41.81055 43.98684 45.97493 46.86085 50.34729 50.68384 51.93738 53.05068 51.32871 56.53961 65.49863 69.39007 76.16523 81.88754 86.70998 93.15948 95.22170 98.25912 103.84825 107.06800 111.79688 117.55441 121.46920 123.90295 126.43261 126.87832 122.45317 117.10382 111.64057 107.68299 103.20495 100.77738 97.94302 96.40775 94.92039 93.61144 92.81891 92.36445 91.84387 91.43135 91.28615 91.02510 90.93203 90.79107 90.69725 90.58565 90.53692 90.46972 90.42475 90.40779 90.39267 90.40289 90.41832 90.46300 90.52493 90.63361 90.70162 90.77653 90.94751 91.06688 91.23887 91.57301 91.82147 92.26484 92.87569 93.71074 94.60992 95.96861 97.21834 99.78870 101.89771 106.20790 112.85016 116.39036 122.62543 125.29151 125.95644 124.17251 121.67664 119.23515 115.14279 111.14427 106.19215 103.19397 98.65497 93.64030 90.07722 84.19016 75.35738 67.08594 64.83960 59.02253 53.84206 49.20161 47.04030 43.03950 40.96170 39.81075 38.68866 37.92924 33.71627 31.54183 29.57104 28.12311 27.01413 26.30209 25.83982 25.64308 25.41737 25.30800 25.30800
25.24900 25.24900 25.25527 25.37197 25.54268 25.88445 26.22963 26.85179 27.24598 28.72423 30.37991 34.00267 35.71009 38.58001 38.29186 38.95257 41.67414 44.60538 45.49024 45.01807 48.92992 54.09298 62.94514 73.07187 78.98589 86.60398 93.01427 96.54478 101.75415 104.03286 107.29500 111.71086 114.23392 118.58455 121.47324 123.74203 125.90975 126.68766 121.50805 117.03175 111.06679 107.48133 103.66147 100.59587 98.23834 96.22785 95.00127 93.59833 92.77770 92.36560 91.91424 91.55324 91.27815 91.08512 90.90423 90.80260 90.71889 90.62749 90.55593 90.48814 90.45448 90.43492 90.42995 90.42712 90.46447 90.47392 90.54908 90.62810 90.73008 90.79937 90.95800 91.10902 91.26744 91.63722 91.88415 92.25894 92.91383 93.86890 95.04499 96.28029 98.23547 100.31928 102.92723 106.53004 110.05343 116.69435 122.94900 126.07827 126.61058 124.26110 122.14454 118.62468 115.75917 112.67224 107.88467 104.99225 101.01205 95.29447 88.64602 82.82053 78.50525 74.81547 73.86152 64.86791 60.00855 54.79044 55.05426 53.78177 51.55344 48.87480 42.89555 42.20451 37.38842 33.27456 31.14450 29.15870 28.30690 26.96857 26.17683 25.82741 25.53753 25.35900 25.35900
25.24900 25.24900 25.25605 25.34021 25.40187 25.69975 26.30759 26.81477 26.81389 27.43926 28.56472 29.88678 32.53425 32.39678 34.43946 38.04905 40.01844 44.36672 47.08443 49.94656 56.70294 59.60318 64.31794 72.11939 81.61072 87.77460 94.52292 99.82450 103.78638 106.80722 109.97246 112.91326 114.21534 118.39818 120.85915 123.07440 125.31838 126.10742 122.86858 117.18402 112.21260 106.64165 104.74308 100.60470 98.76112 96.58309 94.74332 93.45464 92.80357 92.42428 91.90464 91.64126 91.36399 91.16704 90.98939 90.83726 90.74835 90.66937 90.62410 90.53006 90.48505 90.46535 90.46501 90.47716 90.51682 90.52736 90.60530 90.64847 90.76479 90.86158 91.02224 91.19424 91.33257 91.56390 92.02112 92.38210 93.02621 94.06989 95.32312 96.69409 98.33870 101.60780 103.11980 107.91604 111.53830 118.82356 121.47100 126.50813 126.92965 125.21516 122.10313 120.75021 116.64221 115.07043 111.71071 107.77153 103.06999 99.95659 92.64339 87.41256 83.18522 80.47735 79.33362 74.68297 69.18537 65.90382 62.50161 58.74423 55.66981 55.24141 52.32024 46.24344 40.17691 37.14475 34.66107 30.77716 29.74129 28.21843 26.74526 26.40012 25.68399 25.42300 25.42300
25.24900 25.24900 25.26628 25.33240 25.53806 26.15404 26.82044 27.72758 28.90803 29.30257 30.52216 32.19432 32.35354 32.68091 36.61863 40.94292 45.50179 49.98358 55.00104 58.58570 63.09214 67.87134 71.77314 76.98811 83.86365 88.14066 91.80411 97.33678 102.99391 105.70555 107.73868 111.03079 114.00684 115.07133 118.39621 121.62112 124.46133 125.83471 123.80544 118.81734 113.95148 107.76427 104.33715 101.84608 98.52696 96.85580 95.08271 94.06299 92.76686 92.50636 92.07895 91.66957 91.48642 91.21642 91.07388 90.91364 90.77471 90.71831 90.67381 90.61209 90.55015 90.52569 90.50694 90.52113 90.55139 90.60501 90.63828 90.70695 90.82286 90.92807 91.04290 91.22437 91.45762 91.65128 92.09993 92.61258 93.21257 94.02619 95.40637 97.18072 98.69178 101.94082 104.97786 107.95263 112.72639 118.36521 124.79140 126.44873 126.14341 124.87831 122.72775 119.76790 118.01385 113.12750 111.32090 106.99210 102.77963 98.44622 93.29344 88.63804 85.88394 81.56797 77.88927 74.75775 71.13815 66.78677 62.11141 59.87987 59.04916 56.12396 51.39129 46.41562 42.70533 39.41842 37.49328 34.91894 31.97648 29.06187 27.47099 26.35097 25.91422 25.41400 25.41400
25.24900 25.24900 25.27687 25.41196 25.59720 25.96860 27.22020 28.79269 30.20253 32.80330 33.97173 35.69607 37.92556 38.38010 42.09526 45.67102 53.88380 58.91994 60.81053 63.77190 65.85456 69.99511 71.78425 77.32432 82.18118 85.06714 86.90601 90.16358 95.55304 101.81323 102.52719 104.89503 108.28593 113.38687 115.85410 120.51135 123.45583 125.67065 124.63439 121.09581 114.50135 108.56624 104.65420 101.80470 99.40020 97.62367 95.66603 94.11793 93.35459 92.50366 92.21793 91.82443 91.57024 91.31597 91.13495 91.00676 90.90551 90.76484 90.72097 90.66311 90.61173 90.61882 90.61704 90.60542 90.65902 90.66402 90.74052 90.79746 90.86968 90.99635 91.12032 91.31270 91.44776 91.86923 92.10475 92.66333 93.38576 94.65655 95.81043 97.32519 99.25035 101.12732 105.90596 109.84590 113.56783 121.28426 125.11778 126.48256 124.92081 123.49608 121.21819 118.92000 116.45727 111.89777 108.03793 104.55540 98.81284 96.31343 91.79635 86.18180 81.04385 78.84762 73.73530 70.96255 65.34123 59.65714 57.21665 54.29417 53.09996 52.09252 48.94840 44.90604 41.97472 40.39965 37.39944 35.48690 32.95536 30.31607 27.77801 26.67269 25.81417 25.37600 25.37600
25.25100 25.25100 25.27817 25.36606 25.63921 26.06027 27.26728 28.53752 29.99388 33.40538 36.30786 39.83671 42.67272 44.05597 46.07661 51.16489 55.94968 60.74172 62.63822 61.93445 61.79119 62.26097 65.54153 68.62290 71.67554 75.62179 78.95974 83.80198 87.38733 93.18255 96.75393 99.37517 103.87628 109.69726 114.58587 120.03702 123.65217 125.40507 124.64578 121.92911 114.41441 110.24948 105.91858 102.49270 100.20009 97.65956 96.12641 95.16323 93.69587 92.92157 92.32945 91.99332 91.80019 91.47651 91.24661 91.07835 90.95546 90.90234 90.79181 90.74639 90.70196 90.68097 90.67613 90.69150 90.73468 90.76868 90.79577 90.88597 90.98319 91.11249 91.20582 91.36052 91.68547 91.98478 92.41259 92.93126 93.60040 94.64484 96.16141 98.10736 100.84630 102.30620 105.81296 110.51350 114.33087 122.81751 124.45943 126.41425 124.26928 120.87824 119.12998 116.21571 114.74704 110.97107 107.02040 102.11158 97.25899 93.73257 89.03482 84.53221 78.98241 74.12747 67.26891 64.45459 60.57758 55.81330 53.06430 49.80870 46.53428 45.15595 43.82148 41.11376 40.15104 36.90604 35.71359 34.38504 32.63493 29.73933 27.93777 26.77123 25.83041 25.38000 25.38000
25.24900 25.24900 25.26474 25.37315 25.70785 26.11463 27.11277 27.83057 30.12738 33.51505 36.28302 40.59356 44.19622 46.64620 48.30101 52.52589 54.29266 56.37123 57.84111 54.50454 52.82693 53.89863 56.55481 61.18499 65.93742 67.99847 73.25375 78.57735 82.78532 87.98132 97.14056 102.15738 105.12845 109.32037 114.56198 119.06338 123.22541 125.80624 125.62911 123.13302 117.97489 109.41569 106.48585 102.53220 100.50281 98.62638 96.67523 95.31037 94.48004 93.40231 92.67168 92.21963 91.94702 91.67985 91.41269 91.21235 91.09429 90.97203 90.92844 90.85638 90.81951 90.73903 90.77767 90.81035 90.87573 90.91986 90.95680 90.99253 91.08577 91.17784 91.39622 91.54147 91.78825 92.29190 92.66971 93.36956 94.23468 95.35412 96.81638 98.19110 101.26129 103.61378 107.86748 113.11520 117.76671 122.52257 126.32193 126.80074 124.57475 119.95712 117.02960 113.42516 111.18457 108.53160 104.76838 103.42652 99.89775 96.27169 91.97057 88.53879 84.72737 79.93735 76.92046 68.09571 65.18422 62.56051 57.11426 52.11525 46.35402 42.62320 38.46452 36.79878 34.76787 33.87815 32.64776 31.74299 30.81201 29.16778 27.30889 26.30058 25.71259 25.39600 25.39600
25.24900 25.24900 25.26291 25.30377 25.59064 26.27584 27.00638 28.13469 29.10704 31.24407 34.95333 38.32830 41.30323 43.62204 44.66792 45.69254 47.42231 47.68838 47.66636 50.72465 49.36662 53.74047 62.08043 67.43737 70.21404 75.76034 81.03174 85.10869 87.67765 94.62998 102.16095 104.87735 109.75168 112.50118 115.39973 119.80382 123.07437 125.52834 126.19816 122.49354 120.58260 111.92490 106.58883 104.63795 101.41071 99.00413 98.04364 96.39150 94.71725 93.84476 92.99467 92.51614 92.05546 91.85359 91.72387 91.40248 91.21771 91.12683 91.03556 90.99146 90.92896 90.96094 90.93129 90.91574 90.98075 91.03461 91.06818 91.12536 91.33379 91.43749 91.56263 91.82537 91.95435 92.46095 93.26440 93.76196 94.76786 95.68201 97.67292 99.57096 102.65642 104.64631 108.50446 114.59601 119.61453 124.46015 126.57592 126.45570 123.76400 120.83980 116.21983 112.62489 107.97361 103.68752 102.36866 100.42508 99.87073 94.52485 91.81988 89.62484 87.85022 83.85048 80.62283 76.08515 71.24449 66.24937 62.41926 55.65119 52.26675 44.97667 41.82397 37.10629 34.05853 31.53545 31.00125 29.62052 29.08082 28.14702 26.60411 26.00622 25.58323 25.34100 25.34100
25.24900 25.24900 25.27583 25.30976 25.49039 25.67093 26.52434 27.38390 27.96573 31.33316 31.99052 33.71727 36.42698 36.98757 36.61287 40.52913 38.68486 41.52657 41.84967 44.65489 50.86758 60.27957 69.99994 73.74598 80.35744 85.13644 89.11223 95.63730 97.20940 101.51483 105.42994 108.73587 112.77029 116.16919 118.06587 120.14580 123.21949 125.06107 126.04227 125.01757 120.71412 113.53901 108.58455 105.22814 103.25492 100.22880 98.75231 97.44742 95.61021 94.46527 93.34719 92.90972 92.40110 92.07928 91.79550 91.66186 91.37247 91.30140 91.24784 91.14034 91.13469 91.08712 91.08991 91.11620 91.18719 91.17252 91.23143 91.32759 91.45410 91.63770 91.74183 92.10117 92.44399 92.79962 93.45234 94.13121 95.85153 96.89739 98.56872 100.17700 103.03256 105.50516 108.97144 115.81131 120.39699 124.33104 125.99822 124.37438 122.40455 120.28118 116.58442 112.57850 107.84912 101.51670 95.79181 94.98103 91.08343 86.86515 87.94082 84.65449 83.87885 84.63139 82.74207 78.37615 75.06902 67.75002 65.83906 60.88316 54.89834 49.88466 45.03050 39.61530 35.56397 31.88122 29.90338 28.21768 27.46218 26.58461 26.15759 25.93475 25.52554 25.32800 25.32800
25.24900 25.24900 25.27856 25.31188 25.41837 25.64506 26.02933 26.76885 27.52569 28.61795 30.32315 31.64786 31.67587 32.29445 32.25150 34.92165 35.56456 38.58594 40.18406 46.14900 58.65387 65.40651 72.78647 81.35681 83.82416 89.38399 93.44326 97.19427 100.26902 103.93001 107.36973 109.99936 112.83639 115.12257 116.94470 118.57912 120.26277 123.84010 125.13088 124.46580 121.83456 117.30398 110.15891 107.89622 105.49871 103.54517 100.01776 98.65457 96.30701 95.27298 94.06671 93.21530 92.89025 92.56771 92.25542 91.98217 91.69702 91.50798 91.34216 91.37307 91.31582 91.27552 91.29553 91.29618 91.32593 91.35869 91.41363 91.53356 91.62197 91.89933 92.19869 92.35263 92.91223 93.40234 94.08285 95.20852 96.18382 98.30613 99.82720 101.91637 104.43220 107.01045 110.77931 115.21201 121.70100 124.64204 125.31566 121.88006 120.28233 116.27742 113.37343 111.41846 106.81988 101.24535 94.21612 88.82331 86.27659 78.56527 75.05035 73.27694 76.09976 77.89563 79.54347 75.34058 72.50118 66.49479 61.00918 57.98061 53.89529 49.23611 43.56274 41.44038 35.63463 32.80271 29.94203 28.29447 27.32761 26.55710 26.00791 25.64567 25.43901 25.32300 25.32300
25.24900 25.24900 25.27507 25.30090 25.39206 25.52345 25.83912 26.13975 26.75577 27.36382 28.39339 28.68670 29.27856 31.02962 32.99119 38.44248 41.35899 42.31845 45.18339 54.72354 60.19807 67.99454 75.19362 79.77871 83.75281 86.93920 91.73288 96.66137 99.12061 104.42056 106.10866 109.54066 111.70612 112.53736 113.02101 114.87848 117.69156 120.13878 124.99581 125.13844 123.81472 119.96679 117.12610 111.45240 107.42690 105.05009 102.85040 100.44830 98.24058 96.23333 95.29901 93.87432 93.19334 92.92262 92.65209 92.24914 92.11582 91.82932 91.66565 91.66010 91.58235 91.50734 91.44686 91.59380 91.58153 91.68150 91.75308 91.74556 92.02704 92.16344 92.53120 92.97378 93.39097 93.98983 94.72507 97.35881 97.96038 99.57868 101.73289 103.72383 106.24193 109.68237 114.75365 118.64053 122.43397 124.08555 122.71347 120.56869 115.55255 112.54800 109.24143 105.45188 102.81046 99.97116 94.75980 90.06611 83.14761 74.82673 71.04129 65.36581 63.07463 64.54376 73.16468 72.84743 69.50097 65.46667 61.57723 54.64037 50.54325 44.95270 41.62011 38.10806 35.89075 33.23409 30.83697 29.22696 27.81204 26.73551 26.10899 25.48060 25.36172 25.28100 25.28100
25.25000 25.25000 25.25629 25.28584 25.29949 25.37104 25.53320 25.69958 26.10206 26.87439 27.72008 29.10193 30.10139 34.27881 39.28874 41.44435 48.31209 50.34201 54.12564 55.86415 63.70120 68.38350 71.89560 73.44928 78.25060 81.19060 88.49751 92.78565 95.77992 99.91543 103.86348 105.39759 106.90855 107.41882 106.36273 111.26110 115.13026 118.45070 122.60642 125.88910 126.32813 123.20341 119.74871 115.20263 110.17079 106.91843 103.81209 101.96230 99.94797 97.53260 96.11338 95.40121 93.97546 93.38640 93.11738 92.64237 92.33927 92.32975 92.04561 91.91694 91.88288 91.74063 91.74927 91.77503 91.80019 91.92907 92.01062 92.22629 92.37618 92.63540 93.25765 93.64022 94.25354 94.87514 96.13452 97.44088 99.63811 100.95255 103.32342 104.65286 109.06335 114.70073 119.11765 124.19736 124.78568 124.06359 120.94609 118.00991 115.25875 109.27574 103.45612 100.77420 97.51520 95.10879 90.29376 90.50830 85.60011 77.52514 73.48773 62.91574 59.47101 58.33285 61.42510 66.58221 67.65708 65.91599 61.25536 55.79927 51.07762 42.50972 39.46924 36.02182 34.12503 31.97598 30.01614 28.97024 27.74724 26.86917 25.93600 25.57100 25.36020 25.27500 25.27500
25.25100 25.25100 25.25430 25.27354 25.34297 25.38270 25.52614 25.75798 26.10952 27.41226 28.89259 31.10131 34.92870 37.50296 42.51733 47.08035 52.88840 55.46393 55.91540 58.32612 61.07184 63.71148 67.33936 68.54483 72.98490 80.40709 87.53519 92.31761 94.11534 94.86159 100.19106 99.19216 100.13953 102.74742 104.83333 107.84450 114.11616 118.14012 120.25339 125.53218 126.92423 126.51666 123.75841 119.14243 112.45835 108.17737 106.17111 102.67472 101.32319 99.54374 97.71044 96.10403 95.34431 94.01492 93.63562 93.44095 93.07690 92.68103 92.60705 92.33466 92.33177 92.12854 92.12669 92.13932 92.27309 92.50384 92.75672 92.76570 92.98439 93.45831 94.21910 94.40646 95.40970 96.29053 97.11437 98.84939 101.62909 102.87839 106.72113 107.80323 111.35391 115.90339 121.46279 125.43226 125.93266 124.38271 121.10702 117.30308 115.06037 110.76729 102.57328 97.49081 93.64942 89.55945 85.37520 82.84610 81.81602 77.17005 69.99705 60.18714 54.33848 50.66942 51.32894 55.57380 60.02349 59.65069 59.93581 56.18278 49.88204 46.58171 41.92075 37.07220 33.28019 30.76152 28.88594 27.92229 26.98110 26.26164 25.98807 25.58082 25.43478 25.29800 25.29800
25.25000 25.25000 25.25965 25.28896 25.32895 25.40941 25.62524 26.04179 26.91887 28.09908 29.96631 33.17564 36.63943 39.38928 45.02075 49.22398 51.66666 53.18095 52.26037 51.69170 53.59407 57.17643 63.53170 70.07232 74.53115 81.89504 87.83207 90.72851 91.38875 88.14185 90.26320 93.28851 96.14526 102.12737 107.48753 109.60918 113.86842 117.47411 121.09331 123.13523 125.45253 126.62519 125.39203 122.55823 116.05190 109.72357 107.87893 104.70129 103.21003 100.77933 99.59039 97.53222 96.46800 95.94598 94.68967 94.20457 93.81928 93.27253 93.16371 92.85598 92.76541 92.79132 92.90023 92.69919 92.82240 93.00246 93.05719 93.48301 93.71556 94.07655 94.80323 95.87472 97.03967 97.81861 99.62168 100.02227 102.28556 104.90755 108.45286 110.86073 115.33039 120.16152 123.62153 126.24910 125.98083 123.96999 121.24775 117.44969 115.98700 111.37989 107.36094 100.07717 95.43632 88.78781 81.45326 75.42079 73.76693 68.94101 63.22448 58.57602 50.39985 48.87530 44.29532 44.72657 48.84331 52.67716 54.41910 53.69510 49.36890 46.66231 43.33553 40.75583 36.52126 32.64882 29.88397 27.43711 26.53121 26.26349 25.70882 25.51557 25.36601 25.29500 25.29500
25.25000 25.25000 25.25822 25.28526 25.32064 25.45906 25.72972 26.16981 27.07385 28.38632 30.43165 32.53889 35.93530 38.93270 43.15343 44.19522 44.94089 44.87456 47.92065 49.23360 53.82425 58.79241 67.10840 72.75725 78.08768 81.30989 84.94495 87.40758 85.80621 81.54009 84.25469 88.72389 96.66883 102.97232 109.28695 113.42282 116.06637 118.00194 120.11085 122.22261 124.57896 125.69106 126.33361 124.44850 121.24025 115.83358 110.84160 108.18313 104.93873 103.09915 101.65086 99.73834 97.97589 96.66616 96.42454 95.36250 94.99500 94.81675 93.97429 94.28946 93.51432 93.65227 93.44822 93.65452 93.57046 93.79773 94.06425 94.01159 94.64554 95.19343 96.22723 97.13220 98.18687 99.43844 100.87381 102.73283 105.23969 105.59176 109.81321 114.52682 118.38974 122.89135 126.53607 126.44900 124.61969 122.68891 119.77594 116.72923 115.56859 113.63660 109.16686 105.27618 101.59068 96.30858 88.82382 80.52211 70.65550 64.05086 61.02654 54.97575 50.89521 49.41831 45.73050 40.70118 42.69895 43.81123 45.20107 45.27704 44.74529 42.06806 40.37020 37.77967 36.93585 33.30520 31.59837 29.36438 27.23755 26.19915 25.73909 25.46862 25.32398 25.27000 25.27000
25.25100 25.25100 25.25683 25.28367 25.31979 25.51587 25.74400 26.27741 27.23863 28.54650 29.52421 31.38788 33.57163 36.22596 38.21538 39.92881 38.42071 40.25045 43.68475 49.48513 53.79225 65.01911 70.32017 74.50443 76.38575 78.39840 77.85227 77.39604 76.29076 78.94793 84.85487 89.99861 97.46942 106.28728 109.22441 113.36914 115.17793 116.19977 117.16537 118.36903 122.05811 123.86657 126.65333 125.94716 124.00781 118.77048 113.98146 110.98299 107.38331 106.62360 103.37160 101.95374 100.53671 98.43652 98.05253 96.83655 96.37092 95.50659 95.47433 95.01445 94.86164 94.48132 94.62058 94.53504 94.57328 94.94348 95.02839 95.38919 96.14506 96.94189 97.42865 98.75447 100.05460 100.86150 103.37746 104.03027 106.96413 109.51870 111.43899 118.75439 122.69563 125.40987 126.66995 126.05039 124.12514 121.19917 118.89310 115.05804 113.20741 112.19362 110.22205 107.28315 105.79539 102.40635 95.11906 89.92161 79.63110 71.31978 67.10646 63.26457 61.97665 56.46707 51.08977 44.70826 37.85326 37.42794 38.20505 40.25093 37.10075 36.45809 34.85736 34.66126 34.46576 33.51453 31.15338 29.19095 27.61832 26.45457 25.79894 25.50629 25.33198 25.27000 25.27000
25.25000 25.25000 25.26075 25.27538 25.31794 25.55366 25.80810 26.18858 26.86025 27.85285 28.28479 29.76323 29.80489 32.03453 33.19896 34.33887 37.60832 42.35405 46.85576 54.32740 60.55872 66.23092 69.79789 72.94438 71.53629 71.38733 71.91957 69.88323 73.46819 78.20458 86.95506 93.47362 100.43753 104.92309 109.54161 111.70000 113.13049 113.46889 114.76449 117.09848 119.93694 123.15125 125.43264 126.66205 126.22630 123.85270 119.35384 117.37651 114.17350 110.29642 105.86544 103.77509 102.47089 101.46966 100.06647 99.07738 97.51253 97.94639 97.22630 96.46607 96.22814 96.19284 95.90096 96.20531 96.08121 96.20895 96.22228 96.69989 97.32316 98.25977 99.67373 100.22806 102.08896 105.85869 106.23782 108.83066 110.95035 115.27646 115.72122 121.98632 125.56165 126.61256 126.42056 124.97710 122.44806 118.91446 116.10484 113.62926 110.44546 108.42551 107.92559 106.36260 105.20833 102.27746 98.23578 91.61141 87.74376 82.31809 77.04887 74.30227 69.67003 63.36491 59.78002 49.55914 42.54890 34.99844 34.09967 33.19265 32.89731 31.45067 30.94946 29.89220 30.73171 30.41956 30.04619 28.43382 27.25979 26.37745 25.68939 25.50974 25.33948 25.26900 25.26900
25.25000 25.25000 25.26103 25.27212 25.31467 25.41095 25.69886 25.81327 26.38102 26.37164 27.12670 27.42668 29.10447 30.25647 31.78682 35.78001 40.75257 44.30709 50.38052 54.95631 62.34244 65.75555 67.48639 65.15239 62.43624 59.80014 64.16121 64.96371 73.66900 81.56573 88.08919 93.87842 100.67855 103.71726 106.62222 106.96020 107.57072 110.64798 113.94965 117.30741 119.44041 121.85159 124.03891 126.29820 126.88354 127.12714 123.24041 120.89530 118.38889 114.37786 111.62709 106.22802 104.85451 103.65642 102.50267 101.57378 100.60455 99.22778 98.70624 99.11855 98.46802 98.56837 98.16008 97.73430 97.56849 97.81801 98.57310 98.79138 99.25523 100.11636 101.22564 103.07744 104.76614 106.36031 110.67746 112.98109 116.29626 119.44764 122.03858 124.87539 126.37045 125.91789 124.76059 121.89516 119.93925 117.19942 114.05753 111.00727 108.35662 105.67454 102.30419 102.50381 101.68566 98.58101 96.30824 92.89305 90.40234 85.96410 82.67134 79.40803 73.92396 67.54503 61.04613 53.48894 45.69037 40.25171 36.41726 34.80606 32.23642 30.19882 28.81392 28.11383 28.00118 27.74947 27.25068 26.94636 26.59078 25.96683 25.77221 25.43867 25.32594 25.27100 25.27100
25.24900 25.24900 25.25810 25.27153 25.29360 25.36232 25.54280 25.64541 25.82112 26.11984 27.05716 28.14536 30.63290 31.41907 33.54656 36.57737 38.73781 41.37571 49.19907 53.70132 58.73233 61.88075 56.20040 55.83834 52.49337 55.96263 62.63000 69.81867 78.92498 83.84585 88.54512 92.69352 93.07442 98.87300 101.02540 102.87083 105.03766 110.57806 113.32107 115.86384 117.91496 119.93354 123.23395 124.45719 125.69117 127.25374 127.03706 124.60284 122.23909 116.96625 113.49471 110.88078 108.17105 106.75870 104.21171 102.12933 102.68754 102.50589 101.26695 100.87925 100.30773 101.04101 100.92969 100.61307 99.82583 100.05284 100.15192 100.84433 101.91685 102.04926 103.22108 105.80271 108.19960 111.13545 115.01887 117.00839 122.07696 123.80246 125.31329 125.38130 125.78737 123.09697 122.54051 120.48892 118.63356 115.68123 111.70765 107.80610 104.80636 102.18465 98.28666 96.05398 94.94117 92.53519 93.15349 89.44201 87.44928 85.17915 81.98131 80.05940 75.57163 67.91654 63.26926 59.06224 51.72061 49.26691 45.36551 38.46049 35.80525 33.83964 31.21689 29.42386 27.57217 26.55046 26.44854 25.99440 25.79931 25.81271 25.59461 25.39038 25.31432 25.27200 25.27200
25.25000 25.25000 25.25925 25.27029 25.27971 25.35208 25.41229 25.48550 25.78050 26.46331 27.34899 29.41228 31.32340 33.07724 33.50186 35.41440 36.76019 38.62257 45.42295 50.03196 53.81825 54.44051 50.25375 50.15253 51.36113 55.73634 65.75136 74.86787 79.38425 81.53333 84.47903 85.61022 89.90049 94.83872 99.66012 101.77421 104.68307 109.99519 111.60193 112.04596 113.74333 117.92994 120.19616 123.11729 124.39303 126.30055 127.02706 126.62290 124.80121 122.18721 117.89533 115.19510 113.40740 112.07904 107.84180 105.59352 104.55198 105.39970 105.11379 104.21508 103.31425 103.03879 104.00573 103.57793 104.47715 104.16733 103.02723 104.04156 104.58297 106.97973 107.26533 108.20969 111.25978 114.91197 116.96863 122.65397 125.19288 126.17663 126.27407 125.17469 122.70411 121.72281 118.82819 117.91623 115.19257 112.83604 109.06825 105.23505 101.16515 96.26912 92.95957 90.77391 86.83835 88.11266 88.84624 88.17756 84.27436 80.58081 80.63264 76.56451 73.71928 67.50336 63.36612 57.33237 54.92631 50.27309 47.92158 45.61267 40.13650 37.92463 34.27760 31.27946 29.06875 28.29347 26.20538 25.92552 25.58933 25.47904 25.45958 25.36801 25.29919 25.26900 25.26900
25.25000 25.25000 25.25963 25.27128 25.28081 25.29756 25.34265 25.45514 25.68522 26.49860 27.60431 29.06134 30.99672 31.62915 31.51007 31.29060 33.65799 36.43669 41.70478 44.54684 44.29599 45.83386 45.67434 46.74898 51.31948 61.91210 67.09223 71.04514 74.53912 75.45015 78.30186 84.87092 90.28490 95.11893 100.02398 102.73577 106.56423 108.61527 110.60137 109.80107 110.10215 114.63919 117.86476 120.84612 122.07961 123.55253 126.01764 126.08378 126.15222 124.67056 122.16043 120.23147 118.87686 115.46048 113.31490 111.56152 110.43271 108.52953 107.43506 108.46416 106.65627 105.98412 107.44523 108.37738 108.62271 107.22313 106.97205 107.38935 108.13154 108.26665 110.52682 110.46849 117.89516 119.60632 125.34556 125.33917 125.33804 125.88847 125.22950 122.70086 120.23723 116.99882 115.76640 113.69182 112.53276 110.06191 106.49729 100.07334 95.48200 91.31837 86.80438 85.07418 81.48895 78.37583 84.47216 84.83570 83.25309 79.24634 73.44136 70.74334 68.28777 62.32581 58.76655 55.64637 50.63783 48.84400 45.44990 44.71896 40.98533 39.85715 35.89364 34.09775 31.18563 29.36248 27.50975 26.57179 25.62254 25.38676 25.34392 25.31811 25.28171 25.26900 25.26900
25.25000 25.25000 25.25986 25.26653 25.27913 25.29519 25.33813 25.43784 25.68529 26.61991 27.35395 28.58123 28.53480 28.81991 29.92454 28.90041 30.66253 33.50420 35.79213 37.80752 38.84421 41.33719 44.32056 50.90781 55.19266 60.74227 64.18014 66.75411 66.51910 69.18686 77.37030 80.67686 91.85378 95.22811 99.38206 103.01407 105.94539 106.67490 105.91767 106.37933 108.70626 113.12496 115.66857 116.88091 118.86517 120.09694 122.99062 123.75467 125.67006 126.53904 125.81498 124.76374 123.58951 119.68177 118.08813 116.80055 115.74235 114.59676 112.21387 111.32884 111.67628 110.82959 112.18755 114.46030 113.01081 110.92434 111.87521 111.54813 112.54870 114.84610 116.79560 117.58950 119.18965 123.95247 125.72057 125.67002 125.43915 124.71960 123.14700 121.77934 118.21088 114.22143 111.71568 109.73400 107.39785 106.96363 103.82340 101.04373 96.60499 86.43067 82.36783 77.69547 74.32013 71.33143 75.26412 80.93126 80.30302 77.93579 71.31767 65.36184 60.13941 54.90165 51.47862 48.34600 45.72481 42.98080 42.45852 38.81248 39.13674 36.96715 35.82157 32.86886 31.03385 29.57255 27.84106 26.76387 25.82527 25.43208 25.33213 25.29586 25.28119 25.26700 25.26700
25.25000 25.25000 25.25849 25.26403 25.27749 25.28704 25.33530 25.46325 25.63009 26.19681 27.09363 27.32044 27.35429 27.55601 27.26187 28.22588 29.82212 32.13514 34.30848 35.48040 38.15489 44.56107 46.09565 51.75786 54.25167 58.12201 58.30160 57.04268 62.86895 66.53740 77.83761 82.48853 90.35189 94.04110 98.57699 100.86228 100.38357 102.05574 101.38798 101.81485 106.43045 110.11059 112.53678 114.20364 114.66491 116.46561 118.44446 121.16690 124.16033 126.04683 126.32876 126.15098 125.65093 124.39254 125.07909 122.96996 121.59983 120.55317 120.17787 119.49119 116.90678 116.79983 116.83686 120.45314 121.25519 117.51603 118.38808 119.31003 120.55079 120.85273 121.40632 124.30038 124.67616 125.78388 126.17493 125.74905 123.95629 122.29602 119.66659 119.03278 116.69998 112.47632 108.23105 104.56013 105.06547 102.55242 100.91396 100.15847 96.48981 90.14231 82.14500 77.14723 68.01741 64.68613 68.45052 73.34138 77.39714 77.13223 73.41996 67.76437 60.28717 54.08528 48.95156 45.59196 43.38759 39.14352 36.86304 35.15025 33.40017 33.82879 32.62284 32.33213 30.01260 28.56618 27.42874 26.52409 25.83953 25.44402 25.35897 25.28819 25.27806 25.26900 25.26900
25.25100 25.25100 25.25870 25.26671 25.27856 25.29026 25.32353 25.46569 25.61487 25.79035 26.25247 26.37644 26.47658 27.14552 27.65720 29.78822 32.48943 32.97533 35.97550 37.97895 41.59590 45.38475 47.18197 48.75379 47.71698 50.73124 50.53784 53.20343 63.31233 67.78051 76.93591 84.17827 89.53661 93.74287 96.70839 98.35774 95.93045 94.21102 96.64474 101.10153 104.47971 110.01251 111.65194 110.55407 110.15733 112.27391 116.04812 118.72992 122.50692 123.30258 124.63745 124.93422 125.63278 126.02079 126.67449 126.94075 125.53485 125.23587 124.61177 124.96557 123.14696 123.14705 124.39108 124.17598 125.20634 124.39984 121.93331 123.96953 124.46225 124.22415 125.15351 126.29537 126.02159 125.81579 124.67795 124.37085 123.14843 120.32757 117.58462 114.42777 112.33945 111.24723 104.46430 102.79568 100.77257 99.57038 96.91989 97.90628 95.98114 92.78320 84.13223 78.73342 71.30016 61.90165 59.67807 63.48153 71.96895 74.56649 73.60165 69.68809 64.76753 58.56453 52.55556 50.47344 45.43982 40.19794 35.38759 33.37832 31.09654 30.10559 29.58629 29.20187 28.16216 27.10671 26.70046 25.94478 25.60438 25.39086 25.32602 25.29151 25.27618 25.26900 25.26900
25.25100 25.25100 25.26002 25.26905 25.27528 25.28590 25.32416 25.39081 25.52279 25.63772 25.73796 25.86617 26.15130 27.57433 30.23670 31.40601 35.21717 37.58998 38.80553 40.30040 41.33500 42.90452 41.75483 41.11979 42.22779 48.03671 53.55547 58.05147 64.37854 70.02838 77.31688 84.05220 90.21391 93.57938 92.43632 91.97480 89.70530 89.24894 92.79666 99.76358 104.98590 109.23409 109.55894 108.49577 107.16365 108.50952 114.80662 117.83552 120.35316 121.42637 121.22583 121.74807 123.22333 124.69904 125.58761 127.34588 126.97157 126.68148 126.59634 126.88396 127.03882 125.78296 126.07094 126.42916 126.36892 126.06546 126.34438 126.06174 125.81527 125.86046 125.34152 125.07222 124.56700 124.75093 123.12726 120.61035 119.55439 118.05531 116.08551 112.47880 109.95146 108.47894 102.84701 98.45717 98.05674 97.79882 94.81449 92.33115 92.17868 91.67447 83.08780 80.27713 71.49945 61.72321 55.73063 58.89207 67.98989 69.17457 67.50481 68.16090 65.88021 60.94761 56.56500 53.11907 47.96000 44.37590 37.69848 35.58667 31.88700 29.83350 28.17244 27.21909 26.71444 26.45538 25.89357 25.57509 25.52377 25.35679 25.30478 25.28602 25.27485 25.26700 25.26700
25.25100 25.25100 25.26026 25.26677 25.27839 25.28699 25.30173 25.35128 25.42305 25.50122 25.54221 25.66274 26.35645 27.61163 30.05594 33.13323 36.04982 37.67117 39.20944 40.00823 39.33454 38.68108 38.82255 42.36186 47.24548 52.73827 56.43873 59.47860 63.84157 68.48981 77.65425 82.94117 88.53002 90.02914 86.95289 83.72706 82.82867 87.76528 95.15819 101.59414 104.82370 106.11906 103.44037 100.68727 100.80956 108.98447 112.57880 117.06120 117.98957 119.66617 118.95211 120.16824 120.76569 122.01565 123.55834 125.40671 125.29412 125.26452 125.71750 125.41064 126.73177 126.67136 126.14167 126.12587 125.99230 126.45883 125.76788 124.90392 123.84245 123.28079 123.28565 123.13155 121.90224 121.39984 119.76462 118.42123 117.15022 116.12173 115.51689 110.53759 107.52641 106.42606 103.86584 96.97839 92.41755 91.75721 89.81986 85.98315 86.20655 88.50418 85.74968 78.18255 72.45567 60.31743 53.66852 56.09164 56.26764 58.94809 57.91676 59.93219 61.94933 61.20683 56.27285 50.35421 48.00232 42.84475 39.82397 35.32972 33.85905 31.05811 28.53013 26.92268 26.26324 25.74679 25.59870 25.49319 25.38697 25.32502 25.30040 25.28605 25.27323 25.26700 25.26700
25.25000 25.25000 25.25871 25.26383 25.27480 25.28636 25.29540 25.31942 25.35461 25.38681 25.47288 25.70518 26.41876 27.59532 29.40530 32.17339 34.07410 35.45239 35.32514 34.88395 34.52660 34.85554 38.24421 45.38625 50.30012 55.33638 56.33418 56.96379 60.86231 68.98145 74.14885 81.38294 80.87811 81.47839 78.35704 76.83117 82.84006 88.14343 96.48010 100.67851 100.90931 100.88437 99.23779 96.51254 96.26046 101.93980 108.43549 113.27714 115.04338 115.45357 115.16688 116.47844 118.86814 119.29362 121.14860 121.87724 122.18595 121.96736 122.61580 123.69526 123.41794 123.45858 123.64289 123.20031 123.53703 123.23201 123.70239 121.99552 121.48541 120.00301 118.83897 117.98227 119.49332 118.51617 117.32036 114.75527 113.29089 113.19528 112.19711 108.33095 104.01785 104.32402 101.22961 97.42607 90.85768 86.76111 83.89972 80.22817 79.01630 82.65379 82.62666 77.96866 70.31050 60.78840 50.27484 49.26703 50.56116 47.37993 49.87343 54.81582 57.14063 56.33003 52.84243 47.93687 44.16082 39.85756 36.87202 35.03900 32.97331 30.73598 28.84808 27.20751 26.50958 25.74295 25.50108 25.39197 25.32751 25.31051 25.29072 25.28392 25.27359 25.26500 25.26500
25.25000 25.25000 25.25719 25.26224 25.27184 25.28559 25.29389 25.31145 25.32391 25.35512 25.48721 25.93944 26.65396 27.64097 28.87319 30.65753 31.01939 31.70098 31.52587 31.07438 32.82850 35.35276 42.67401 47.03403 52.12315 53.32563 52.75080 53.29616 58.37074 65.93536 72.25079 74.50695 74.40871 72.00345 70.84750 75.91173 83.85586 89.90442 95.08219 96.00045 95.52344 94.13899 89.50689 88.67421 92.91974 96.01716 104.54810 108.12089 110.34551 110.54024 111.88203 113.27644 113.45354 115.93194 118.03185 118.58999 119.48670 119.18135 120.09899 121.31327 121.24616 120.66692 119.16112 119.42227 122.60452 121.55919 120.08793 118.65955 118.02957 117.25341 115.01897 113.35303 113.84965 113.59171 113.04032 111.74942 110.49172 109.86783 110.38541 106.28146 103.80925 99.81311 95.43736 94.89636 90.64859 86.44731 81.26294 76.13408 73.74882 74.58707 75.56681 74.82550 67.66497 60.00624 53.02061 46.95682 44.25486 42.09220 44.79782 49.09758 52.32145 52.52313 49.71951 44.63809 41.63114 37.42155 34.12892 31.51197 30.38293 29.42879 28.18338 27.13031 26.05435 25.76471 25.41829 25.34658 25.31387 25.30152 25.28704 25.28036 25.27320 25.26600 25.26600
25.25100 25.25100 25.25705 25.26181 25.27280 25.28075 25.28921 25.30462 25.31406 25.34446 25.42251 25.82645 26.10282 27.18680 27.97513 29.05968 29.88526 29.53368 29.66937 30.69717 34.20959 37.63805 42.92627 49.55604 50.24743 50.19869 47.18348 50.17277 56.97575 63.75506 67.06890 67.01439 65.03843 62.62994 69.61495 77.35101 86.83203 90.44502 92.79767 91.72519 87.75362 82.62623 82.43646 84.80511 91.57747 98.65953 103.86506 106.15826 107.81704 108.19834 109.28877 110.33978 111.14491 112.08103 115.94932 115.91147 116.19932 115.11496 116.09689 115.55664 118.52919 117.32856 115.94235 115.86480 118.23875 120.18186 118.78789 114.65686 113.00401 112.58112 111.09757 108.37222 107.94792 109.89483 109.08141 108.77257 105.73703 106.71614 108.52981 106.64356 102.57123 97.62532 93.19522 90.57641 89.78534 87.10927 83.75129 77.87325 72.10960 68.30192 68.20341 68.12885 67.56780 62.74886 61.60666 52.47206 46.75304 37.45241 38.28066 41.50444 46.42232 45.32252 45.98795 43.57953 40.10795 37.39249 33.09621 29.82318 28.43594 27.75626 26.86131 26.54185 25.96337 25.63735 25.42466 25.32858 25.30647 25.29533 25.28727 25.27954 25.27259 25.26600 25.26600
25.24900 25.24900 25.25692 25.26222 25.27053 25.28003 25.28659 25.29866 25.31694 25.34241 25.39991 25.57495 25.96580 26.40035 26.73767 27.35588 27.71541 27.97916 28.37976 31.10130 34.48297 37.55165 40.80232 44.68594 45.45064 44.57268 43.95723 49.05540 56.32962 60.23018 62.66457 59.13087 60.98899 62.83203 74.90480 79.37614 87.29021 89.46283 89.14556 82.65648 77.90435 75.71635 79.09245 87.60354 93.41278 99.88320 103.20863 103.13535 102.27572 103.83627 105.09960 106.44133 106.63555 109.26216 112.12448 111.95829 112.96355 112.49395 113.83048 113.87957 113.65573 113.93300 112.33822 111.66959 115.20875 116.39813 115.67338 112.54953 107.85258 108.65953 106.38557 102.80803 101.25115 102.15652 104.72895 105.84441 103.71237 103.54298 105.81306 106.05962 101.23867 97.65158 92.27097 85.32040 86.10178 87.17143 84.72610 82.31884 74.08506 68.27550 62.81352 63.03680 63.42428 60.77445 61.17466 57.38355 50.82099 41.57466 37.21399 36.74018 37.09203 40.57396 39.90997 40.67722 39.04617 36.58626 34.03937 30.64255 28.23822 26.94014 26.29507 25.82177 25.68639 25.51547 25.40354 25.33617 25.30620 25.29553 25.28655 25.28193 25.27356 25.26600 25.26600
25.25000 25.25000 25.25729 25.26240 25.27062 25.28004 25.28584 25.29578 25.30975 25.33099 25.36688 25.45261 25.59966 25.79519 26.25342 26.73800 26.23482 26.80757 28.33609 29.78028 32.95205 36.66971 38.31753 40.39259 40.30524 39.10807 42.76214 48.43026 56.17833 58.15249 56.56493 53.81647 57.82604 67.23464 73.69978 82.33064 85.32800 84.75972 80.29453 73.54782 70.12049 75.02477 79.98512 89.60259 95.77313 99.51523 99.70904 97.26546 98.78579 100.12758 100.79543 102.55958 104.44680 107.59992 110.50508 109.19012 107.72760 109.41412 110.40618 111.89033 111.14147 110.93680 109.37305 109.06668 110.56790 113.81608 113.66492 108.37578 103.47187 101.69513 97.97573 94.71051 95.41238 97.30803 98.60723 98.88236 99.16602 99.94768 102.81879 104.00857 101.47176 95.85466 90.53916 83.39657 76.88950 79.96050 84.03522 81.32890 75.51538 69.59812 63.93162 57.83542 54.85114 56.94175 56.63795 56.12644 52.36527 44.43042 40.04502 35.41399 33.50933 32.56223 33.24602 37.40215 34.93232 35.37835 33.73565 30.57318 28.22216 26.60205 26.17131 25.60559 25.47781 25.39680 25.35210 25.32300 25.30288 25.29633 25.28729 25.28283 25.27400 25.26600 25.26600
25.24900 25.24900 25.25502 25.26353 25.27297 25.27799 25.28661 25.29589 25.30446 25.32015 25.34525 25.38888 25.47694 25.67766 25.79205 25.89870 26.09167 26.75898 27.76167 29.30284 30.56672 31.90148 33.68379 34.92130 37.23937 38.92062 45.24658 49.24956 54.20489 51.87764 51.65634 49.87904 55.77376 65.73880 74.11951 77.05664 76.84059 77.81329 73.21357 66.87535 64.12909 72.59938 83.13501 91.88783 94.40287 95.11845 95.92145 91.99477 93.45144 96.82361 98.01592 98.23420 102.06919 105.71399 107.69671 104.79758 103.70642 104.28286 105.23185 107.23346 107.44015 108.95720 103.34886 102.33911 106.99301 108.42258 110.96679 108.22443 101.48228 94.72234 91.91062 88.59915 87.07879 89.91871 91.79177 93.17324 92.82684 97.64240 100.58852 102.22444 99.93495 93.97539 85.37451 79.22105 74.81392 77.17970 77.61150 77.28190 76.65374 70.20079 66.48414 56.86609 53.07471 48.73058 49.23829 51.56902 52.38947 49.47729 43.38711 37.45864 32.43137 31.13235 29.02756 29.80482 31.41617 32.20784 31.01353 29.28377 27.62246 26.77270 26.17060 25.65461 25.48196 25.36158 25.33458 25.31545 25.30373 25.29568 25.28880 25.28133 25.27370 25.26700 25.26700
25.24900 25.24900 25.25141 25.26057 25.27143 25.28080 25.28718 25.29635 25.30384 25.31392 25.32190 25.35972 25.41398 25.45315 25.53411 25.65521 25.92084 26.81671 27.75459 28.62846 29.23254 29.98008 31.13855 33.25905 36.30081 39.00425 42.95197 50.67061 51.93704 47.19784 45.20822 49.00976 58.11245 65.93730 70.49132 70.95739 69.00072 66.73900 62.94487 59.47563 64.45214 74.67008 83.93844 90.68911 91.41843 91.05289 86.53559 86.92153 90.25686 92.16685 91.09688 97.85903 101.65842 103.92593 103.18386 100.72452 97.64777 101.42959 103.34792 102.09387 103.15649 102.87639 99.79603 97.18444 99.82706 105.20459 108.79185 106.75563 102.65408 95.43748 87.74210 82.97008 83.13389 83.03929 85.66058 88.69763 86.62516 92.03397 96.69270 99.64880 96.90601 94.91343 85.57333 77.58066 72.51544 69.00214 71.00164 72.07702 74.48981 72.73844 68.31919 61.29513 53.46842 47.67303 44.14214 46.82163 49.64650 50.64075 45.47581 40.26520 35.46908 32.68550 30.05184 27.72848 27.97526 29.10006 29.06362 28.54336 27.13499 26.14156 25.84137 25.58046 25.43681 25.36811 25.32624 25.31094 25.30073 25.29569 25.28788 25.28179 25.27351 25.26600 25.26600
25.25100 25.25100 25.25047 25.26355 25.27201 25.28177 25.29029 25.29582 25.30670 25.31289 25.32234 25.33678 25.36335 25.38782 25.46797 25.65516 26.03324 26.66921 26.92453 27.18319 27.69253 28.44858 32.84155 35.66275 39.39300 41.36448 45.57635 49.00414 44.38704 42.64586 43.57387 50.64757 59.14204 65.25795 66.25754 65.82307 59.62787 57.08223 54.58337 58.18108 66.15336 74.76653 83.75249 88.71826 89.00331 82.62152 81.72979 84.41814 86.23229 87.93256 87.32325 93.81368 101.00812 101.68508 98.82831 94.30611 93.78404 97.72649 99.87223 99.51499 97.53196 96.99934 93.58957 92.36169 98.74685 104.22792 105.97964 105.89469 102.45417 98.67752 88.74850 80.03956 75.28327 76.17163 80.41939 85.82677 84.24249 88.58929 93.00884 95.16300 93.43415 90.16519 86.15597 79.73064 73.31053 65.10460 59.11104 61.82669 70.28230 70.98161 69.94864 64.19870 55.43308 49.05309 41.53421 41.20903 45.74281 46.19769 46.33242 41.36325 38.10035 35.00853 31.68131 28.62276 27.10594 27.51965 27.35000 26.89931 26.47752 25.93488 25.63762 25.49113 25.41976 25.34380 25.32139 25.31155 25.30179 25.29469 25.28738 25.28097 25.27393 25.26700 25.26700
25.25000 25.25000 25.25282 25.26173 25.27313 25.28504 25.29116 25.29832 25.30587 25.31501 25.32356 25.33637 25.35041 25.39094 25.45634 25.62047 25.70681 25.95119 26.16272 26.39954 26.91583 28.74686 31.65498 36.77841 39.07688 40.66332 41.59388 40.87824 38.85750 39.29192 40.68904 49.00979 56.48061 59.76930 61.47573 57.20206 53.85426 49.21652 50.35467 58.24725 68.18598 75.61744 82.53758 85.10700 82.04283 77.68795 77.01391 80.43054 81.76815 78.35809 82.17109 90.74035 97.97384 99.16967 94.42408 88.30385 86.95049 91.16989 96.36383 95.39356 94.97589 92.09346 88.54635 85.68707 90.98803 98.47864 104.41190 102.48766 100.32718 96.98743 86.79743 78.53844 71.25416 73.21193 79.56247 81.15743 78.28247 79.11981 85.11380 90.00224 90.94108 86.78703 83.68877 79.58113 72.89765 65.24291 55.56043 54.79667 59.60001 67.02215 67.92400 64.83965 57.44698 48.07795 40.64296 36.94752 39.61545 41.96524 42.38916 40.95630 38.90430 35.01010 32.27550 28.58197 27.15225 26.46995 26.31110 25.99364 25.94037 25.74815 25.52943 25.42300 25.36802 25.33489 25.32215 25.31385 25.30345 25.29589 25.29132 25.27981 25.27417 25.26700 25.26700
25.25000 25.25000 25.25765 25.26635 25.27327 25.28433 25.29024 25.29924 25.30539 25.31281 25.32318 25.33534 25.34999 25.37211 25.42433 25.48413 25.54397 25.62608 25.90765 26.36748 27.11246 27.85699 31.77850 33.98341 37.95855 38.57668 36.27887 35.60114 36.19441 36.30768 39.48035 45.11706 53.64940 56.18270 51.88715 50.13555 44.80363 45.57381 51.47121 58.83047 68.59099 78.72753 79.82053 79.70123 75.35135 73.24337 72.65454 76.22863 74.63540 72.76520 80.46134 89.22540 93.69664 93.80723 88.97078 84.82985 83.11759 86.14294 91.68157 90.92102 87.89419 85.17892 83.27876 85.83934 92.24171 95.79274 99.10066 99.35911 97.22465 91.28010 86.63954 75.78568 69.11185 68.43874 74.70794 77.53626 76.24510 75.18150 78.24780 81.69241 85.75226 82.97973 77.84297 72.64798 69.11542 64.41735 55.61403 51.13698 53.84136 58.66972 63.45572 62.57818 54.52850 43.66720 40.12855 34.26172 34.50266 37.42935 37.44689 38.01444 36.27960 33.66002 31.54269 28.67253 27.22747 26.34134 25.74190 25.70577 25.52782 25.45305 25.42316 25.37576 25.34861 25.33382 25.32142 25.31585 25.30904 25.29755 25.28967 25.28270 25.27318 25.26600 25.26600
25.25100 25.25100 25.25994 25.26972 25.27543 25.28319 25.28902 25.29707 25.30843 25.31495 25.32399 25.33192 25.34486 25.36527 25.38331 25.41014 25.43886 25.56319 25.80786 26.47740 27.44623 28.41905 29.61788 31.07198 34.68629 33.82047 32.54579 31.72640 32.02758 35.68446 43.19310 47.16547 50.40810 49.94964 46.87262 42.22400 42.07859 43.65929 51.14646 59.87831 70.14582 73.65700 73.16092 73.18455 70.17110 67.66534 66.04031 68.64696 68.45885 68.35230 77.83716 86.69744 91.12501 89.99102 85.33347 79.19861 76.60537 80.81909 84.81708 85.65640 81.28204 80.49948 78.87676 79.93058 88.53314 92.26485 96.52149 96.87934 93.37380 88.25008 83.34000 72.71471 64.61029 65.76737 71.35187 73.93259 72.11216 69.20003 72.63742 76.38096 79.52043 79.64444 73.15213 68.94149 66.19269 60.75649 55.35876 48.49818 47.23185 54.70250 58.72441 59.87058 50.23791 43.86610 37.70607 33.59137 31.07011 32.05558 32.83838 33.64665 33.68418 31.50905 29.87790 28.33307 26.91963 26.40162 25.90586 25.64828 25.48735 25.41754 25.37981 25.35534 25.34030 25.33263 25.32497 25.31581 25.30800 25.30135 25.29158 25.28062 25.27317 25.26200 25.26200
25.25100 25.25100 25.25961 25.26760 25.27618 25.28261 25.29018 25.29577 25.30357 25.31513 25.32191 25.33074 25.33804 25.34825 25.35837 25.37590 25.39972 25.54815 25.75114 26.13746 27.24552 28.02421 28.68461 29.24781 29.40245 29.64824 30.28920 30.86701 33.41710 36.38976 41.50684 46.16415 46.83665 45.02027 43.14180 36.68224 39.60357 44.76897 52.72722 64.17786 66.62981 69.43004 66.20386 64.86197 64.08702 59.60572 59.02538 60.94097 62.01551 65.25989 76.01210 82.47424 88.38974 86.10039 78.37929 74.70412 72.31109 77.57319 81.91807 80.60727 74.73787 72.39728 70.91207 75.09002 82.03634 89.67457 93.96248 92.91354 87.21672 83.96272 77.66903 71.54008 62.47090 58.37749 66.10746 73.28725 70.69399 66.96232 64.31624 68.73684 74.91999 71.82122 69.54725 62.36078 57.74171 55.33503 52.07698 46.21285 45.40048 49.50451 53.41490 55.46745 50.63094 43.17306 36.27612 32.54808 30.49839 29.16058 28.83486 30.47588 30.50291 29.76028 28.53901 27.15915 26.40776 25.98400 25.83276 25.62735 25.48759 25.39368 25.36332 25.34816 25.33839 25.33182 25.32369 25.31635 25.30782 25.30230 25.29287 25.28329 25.27312 25.26600 25.26600
25.25100 25.25100 25.25924 25.26738 25.27458 25.28067 25.28736 25.29593 25.30231 25.30920 25.31857 25.32708 25.33499 25.33971 25.34996 25.35798 25.37685 25.44714 25.59183 26.03657 26.19931 27.01056 27.27388 27.79423 27.18932 27.81249 29.41548 32.86137 35.91004 38.94856 40.38426 40.32856 41.21639 38.89564 36.34167 34.69783 44.42183 49.00082 55.15116 62.31208 66.64953 61.69120 56.63930 55.11374 51.21643 52.69206 54.30995 54.34443 57.61492 58.77682 80.48079 82.31043 84.38339 82.40982 74.85739 67.81875 69.31703 74.08081 79.52792 75.61531 68.93930 66.49316 67.05119 69.11749 77.82592 88.84481 91.54765 90.94062 82.94373 77.20864 73.56297 65.24644 57.83220 53.72552 64.47534 70.16094 70.51372 64.66403 59.99788 62.09456 65.57689 69.61426 65.22110 58.04068 53.14145 48.87102 45.62478 41.11521 41.12171 46.64458 48.06371 48.21332 47.51719 42.49137 37.93108 34.94404 31.56319 28.71349 27.67656 28.52718 29.36598 28.73991 27.67950 26.65921 26.11782 25.77153 25.54479 25.51747 25.43323 25.39140 25.36230 25.34681 25.33778 25.33054 25.32361 25.31711 25.30815 25.29882 25.29317 25.28389 25.27371 25.26600 25.26600
25.25100 25.25100 25.25962 25.26514 25.27453 25.28131 25.28554 25.29325 25.30266 25.30821 25.31643 25.32328 25.33341 25.33808 25.34460 25.35565 25.37127 25.41112 25.48674 25.64189 25.95302 26.26120 26.47758 26.78366 26.51119 28.14895 30.21218 34.09375 36.38941 37.74304 38.31373 37.34373 34.50731 34.10404 34.33686 36.66310 44.24158 51.53542 56.74703 61.04911 62.08630 60.02700 53.78018 50.08442 46.92794 48.80678 47.83009 48.77737 48.92736 59.09178 69.60126 80.87629 82.69678 77.89741 70.25000 62.78614 64.29267 74.29567 77.63271 71.62717 66.91865 59.65639 60.83479 65.69825 78.62258 83.51726 85.73335 88.20670 79.73369 73.75396 66.15392 62.30688 52.91763 49.75271 60.20596 68.08835 69.77214 63.85764 54.07648 53.83516 60.72889 63.58372 60.66930 55.23242 49.28904 44.99635 42.16047 38.36104 36.42028 40.14584 44.61901 45.20927 42.95081 40.47421 36.86905 34.87033 31.50717 29.08983 26.98231 27.21065 27.49022 27.71247 27.09746 26.49255 25.85484 25.56633 25.46348 25.43035 25.40468 25.37387 25.35572 25.34664 25.33680 25.33095 25.32050 25.31471 25.30738 25.29913 25.29102 25.28527 25.27542 25.26600 25.26600
25.25100 25.25100 25.26012 25.26568 25.27204 25.27901 25.28502 25.29351 25.30041 25.30742 25.31457 25.32526 25.33232 25.33780 25.34399 25.35275 25.36147 25.38435 25.41244 25.50719 25.68915 25.84159 26.02750 25.97865 26.79675 28.26783 30.41906 31.72404 33.84097 35.47482 33.50555 32.06035 31.43872 31.29669 33.92877 37.76345 43.59940 49.57238 53.60977 56.79842 58.09128 57.07385 49.18473 43.04272 42.52827 44.05644 43.42566 47.05164 51.69830 59.20790 69.55394 75.67791 78.48638 73.62642 64.86091 57.53791 61.83012 70.66123 74.66654 67.30086 58.99499 56.25620 57.60149 63.39757 73.90676 81.12250 82.55463 82.25980 78.41563 68.76452 61.72699 53.97364 49.97980 48.14086 53.49575 61.03766 67.50864 63.60018 52.71219 49.08895 53.82337 58.21457 57.10698 53.00513 49.67075 44.40759 40.19612 35.42292 33.99714 34.36518 38.28114 39.10172 38.81133 37.79461 35.23140 33.15836 31.66152 28.80478 27.24281 26.51611 26.55528 26.39365 26.19578 26.05374 25.73595 25.55687 25.41437 25.39015 25.37793 25.36902 25.35602 25.34783 25.33565 25.32887 25.32012 25.31387 25.30616 25.29971 25.29159 25.28114 25.27464 25.26500 25.26500
25.25100 25.25100 25.26042 25.26588 25.27276 25.28085 25.28688 25.29198 25.30224 25.30713 25.31277 25.32575 25.33208 25.33930 25.34388 25.35274 25.36108 25.37233 25.39777 25.44356 25.52251 25.53722 25.64680 25.98683 26.75735 27.64168 29.11679 30.82750 32.11668 32.49891 31.21185 29.81063 28.77315 31.93697 34.42446 40.13684 44.32403 45.83202 49.63403 52.37850 54.82344 54.48087 49.65582 40.10787 39.02762 39.65848 40.60678 48.42303 55.82607 63.59887 70.06478 75.05929 74.73054 67.79784 62.67537 53.60240 60.81193 68.10120 70.21830 66.46258 55.05404 52.43244 57.11823 64.65351 72.62788 74.35306 76.43843 79.45004 75.55178 67.69444 61.00791 51.85783 45.37076 44.36469 50.52258 57.83658 58.16020 59.37314 48.16562 45.69438 44.10109 48.12414 51.36652 51.81888 49.03129 45.45574 39.88594 34.63023 33.10275 31.19052 33.37912 35.06091 35.04585 33.99169 32.20324 31.03698 30.10734 28.83909 26.93427 26.21883 25.88554 25.89479 25.81965 25.67484 25.59782 25.47871 25.42002 25.38883 25.37125 25.36479 25.35808 25.34759 25.33844 25.32745 25.32146 25.31425 25.30683 25.29757 25.29079 25.28281 25.27183 25.26300 25.26300
25.25000 25.25000 25.25707 25.26493 25.27212 25.28139 25.28770 25.29579 25.30164 25.30796 25.31560 25.32294 25.33036 25.34002 25.34809 25.35239 25.35960 25.36767 25.38076 25.38908 25.41690 25.43380 25.66283 25.96661 26.45638 26.76327 27.74328 29.03758 29.70114 29.75436 28.67600 27.85394 28.82142 32.31284 36.32666 39.85474 42.13173 43.36035 44.39603 49.16922 51.69395 50.96736 47.03940 37.52059 34.63273 35.09564 42.33723 48.04964 58.26789 64.73294 70.42768 72.05047 66.80670 58.66451 52.95157 49.96003 58.22268 64.49696 64.20614 60.52228 52.72172 48.10695 49.14794 60.12223 70.57008 72.10605 70.59781 68.78214 68.74057 67.01092 60.44023 52.18090 45.24642 42.23861 43.58684 49.99384 51.59746 55.11021 50.99507 43.65527 41.05410 41.48949 43.27613 47.40038 48.04675 44.50261 39.35369 35.32651 32.08439 29.80247 28.41983 30.29315 31.00045 31.34213 30.44679 29.75654 28.84114 27.89150 26.60683 25.93618 25.69838 25.55903 25.58455 25.54763 25.47613 25.43311 25.40302 25.38663 25.37317 25.36374 25.35483 25.34816 25.33780 25.32913 25.32115 25.31422 25.30762 25.29790 25.29222 25.28200 25.27215 25.26500 25.26500
25.25100 25.25100 25.25511 25.26114 25.27176 25.27991 25.29005 25.29493 25.30203 25.30901 25.31707 25.32756 25.33483 25.34047 25.34813 25.35455 25.35937 25.36522 25.37222 25.38015 25.38621 25.42144 25.58426 25.75801 25.83038 26.07780 26.23380 27.03989 28.01168 27.85437 27.93794 26.86510 27.67988 31.08226 35.70431 38.25517 39.64081 38.30679 39.70069 45.46959 49.02130 49.51558 43.53079 38.00191 33.37609 34.11400 40.24746 49.94874 56.59669 62.14310 64.36224 63.84231 61.54283 55.66283 47.68687 47.78621 53.15189 60.60767 59.47157 55.20297 47.98170 45.41925 51.84556 58.34818 67.12040 68.90898 66.41550 63.04285 63.44992 63.29765 60.44716 52.65191 48.28489 40.62394 39.04809 41.24944 46.28604 51.88292 54.26070 48.92017 42.04730 37.34060 37.83659 42.03123 46.20838 45.75662 39.84102 36.04702 32.96598 29.24833 27.96009 27.79795 28.17000 28.81584 28.01514 27.65313 27.31100 27.07236 26.48330 25.88076 25.57015 25.49545 25.46759 25.48102 25.43066 25.40020 25.39063 25.38072 25.36971 25.35989 25.35375 25.34677 25.33740 25.32764 25.32261 25.31679 25.30580 25.29771 25.29002 25.28219 25.27244 25.26500 25.26500
25.25000 25.25000 25.25179 25.26105 25.27038 25.27965 25.28571 25.29503 25.30335 25.31304 25.31872 25.32561 25.33482 25.34136 25.34802 25.35443 25.35912 25.36294 25.36589 25.36881 25.36964 25.40219 25.48482 25.59448 25.62599 25.63977 25.82879 26.00395 26.39811 26.57079 26.05842 26.41016 27.95068 29.66387 32.45875 34.91965 35.80612 36.51526 37.52155 41.81445 45.10513 45.18259 41.52438 37.80017 32.68725 33.59278 38.31039 47.93852 53.93433 58.25472 57.51684 56.96540 53.56400 47.97589 43.83059 46.96669 52.23232 58.50379 56.72137 49.39046 43.47109 44.88437 50.01746 56.74553 63.88905 66.21913 63.13795 59.31530 56.77647 56.59957 56.99351 54.93907 47.71934 43.94286 37.54229 37.25202 44.30501 50.18321 52.52250 50.82709 44.78361 37.76965 34.76448 38.20424 42.71281 44.53655 40.83695 35.63028 32.08248 28.50897 27.22559 27.03857 26.58167 26.79371 27.08249 26.85622 26.75567 26.17423 26.06835 25.67914 25.54639 25.42335 25.41083 25.40659 25.40169 25.38686 25.37802 25.36903 25.36638 25.35920 25.35297 25.34484 25.33720 25.32890 25.32066 25.31594 25.30785 25.29802 25.28996 25.28140 25.27078 25.26100 25.26100
25.25100 25.25100 25.25466 25.25860 25.26943 25.27854 25.28680 25.29454 25.30173 25.31112 25.32048 25.32907 25.33554 25.34263 25.34731 25.35309 25.35548 25.35723 25.35872 25.35810 25.36228 25.37444 25.39868 25.43157 25.43707 25.52229 25.57295 25.70624 25.59468 25.78573 26.29092 26.87737 27.51410 29.00915 30.57605 32.31357 31.83025 33.16670 34.62604 39.16954 40.98188 39.66281 37.62592 33.70802 31.54842 32.16508 36.88297 43.26833 50.14490 53.68238 53.04223 50.30852 48.00832 44.74216 41.03275 46.51602 54.32353 56.41807 51.42603 47.51365 42.48092 42.91635 45.10911 55.23376 61.67894 63.36812 61.92082 55.51699 52.48286 50.79661 52.33477 53.00378 48.58426 42.49410 35.95169 34.81333 40.09582 46.50143 48.71398 48.85922 44.39359 37.36112 34.22649 34.52342 38.88252 41.14948 37.64716 35.41347 32.09112 29.39051 27.32357 26.48378 26.17526 26.09964 25.90190 25.97806 25.94298 25.88814 25.74345 25.58907 25.47400 25.39847 25.37869 25.38286 25.38210 25.37420 25.37150 25.36756 25.36176 25.35618 25.34955 25.34481 25.33510 25.32756 25.32121 25.31130 25.30732 25.29949 25.28806 25.28089 25.27034 25.26000 25.26000
25.25000 25.25000 25.25409 25.25837 25.26646 25.27590 25.28305 25.29318 25.29681 25.30883 25.31570 25.32657 25.33480 25.33990 25.34561 25.35088 25.35147 25.35355 25.35223 25.35287 25.35436 25.36088 25.37226 25.37652 25.38008 25.39115 25.45286 25.45805 25.47377 25.64865 26.20435 26.88782 27.17404 27.88840 28.77053 29.07023 29.52116 31.30589 34.38242 34.79466 36.77034 34.67701 31.68913 30.26405 29.98445 31.20705 36.36553 42.48658 47.97769 47.26511 43.54600 45.52937 42.26303 38.89630 39.55130 47.00355 52.50057 51.92393 46.48450 43.33046 36.91709 40.12428 44.21211 50.56820 57.08175 61.87169 60.44676 54.41080 48.82406 46.81783 48.01369 49.31892 46.52423 39.31233 34.63377 32.01467 36.34307 42.51626 45.75994 44.73751 40.83949 33.71236 32.32118 32.44054 35.03056 37.18363 36.29427 33.50201 31.00819 29.27613 27.78281 26.38161 25.97489 25.69117 25.53992 25.60035 25.60308 25.53064 25.48730 25.46647 25.40431 25.38731 25.37046 25.36797 25.36467 25.36436 25.36468 25.36076 25.35640 25.35297 25.34641 25.34093 25.33282 25.32569 25.31711 25.30967 25.30349 25.29731 25.28783 25.27883 25.27055 25.26300 25.26300
25.25000 25.25000 25.25343 25.25905 25.26565 25.27073 25.27752 25.28549 25.29666 25.30174 25.31422 25.32058 25.33069 25.33675 25.34269 25.34630 25.34778 25.34775 25.34769 25.34548 25.34516 25.34655 25.35171 25.35186 25.35180 25.35011 25.35336 25.38430 25.45665 25.68596 25.78772 26.19571 26.50743 26.84618 27.40904 27.40860 29.45552 30.66538 32.50693 33.76747 32.75846 31.31230 29.77289 28.69902 29.85816 34.11842 38.81742 42.70081 44.77304 42.07747 38.52391 34.58862 35.42552 34.42591 40.40757 45.07680 50.34531 49.51741 42.78216 36.74075 34.49399 38.59432 43.51907 49.75359 54.09374 57.25493 57.59339 53.34273 46.47558 43.84564 44.99633 45.39179 44.00983 38.01500 33.28949 30.37744 34.38534 38.61154 43.34283 42.79760 37.28419 33.69378 30.10555 30.76203 32.30037 33.84907 33.61633 32.24235 30.01133 28.37778 27.44141 26.72131 25.95446 25.57400 25.47906 25.40978 25.43372 25.42214 25.38688 25.40973 25.37514 25.36551 25.36353 25.35731 25.35357 25.35282 25.35112 25.35269 25.35111 25.34637 25.34177 25.32855 25.32546 25.31951 25.31362 25.30754 25.30047 25.29436 25.28765 25.27993 25.27098 25.26300 25.26300
25.24900 25.24900 25.25352 25.25920 25.26338 25.26780 25.27127 25.27806 25.28819 25.29717 25.30839 25.31678 25.32730 25.33106 25.33750 25.34048 25.34256 25.34211 25.33996 25.33928 25.33843 25.33822 25.33824 25.34123 25.34173 25.34235 25.34897 25.37277 25.45401 25.50460 25.62244 25.80380 25.95228 26.01771 26.17806 26.71054 28.37742 29.65789 31.17148 31.09574 31.22898 29.09373 28.46304 28.40038 31.27135 34.62453 38.04705 40.54610 41.23650 38.25696 33.01539 31.88884 32.25427 34.63948 41.12562 46.43539 48.04761 47.53482 36.26856 34.46756 34.86519 37.64530 42.48705 48.53305 51.16636 52.95173 54.95852 50.65406 44.84466 39.89044 38.85214 41.62850 41.30389 37.16084 31.38003 30.00065 31.20752 37.01370 38.40121 38.19543 35.28702 30.38420 28.61865 28.04022 28.23618 30.89621 31.14433 30.66480 29.00441 27.56740 26.91653 26.39250 26.00196 25.55707 25.41852 25.37464 25.35907 25.36568 25.35591 25.35107 25.35616 25.35313 25.35122 25.34913 25.34640 25.34255 25.34456 25.34433 25.34080 25.33783 25.33460 25.32502 25.31691 25.30407 25.30476 25.29542 25.29437 25.29293 25.28685 25.27728 25.27086 25.26100 25.26100
25.25000 25.25000 25.25230 25.25660 25.25913 25.26137 25.26649 25.27366 25.28175 25.29516 25.30558 25.31483 25.32171 25.32565 25.33041 25.33367 25.33462 25.33261 25.33152 25.32977 25.32843 25.33073 25.33183 25.33100 25.33153 25.33112 25.33707 25.34586 25.37530 25.44261 25.47299 25.50338 25.60393 25.64864 25.87281 26.20240 26.67385 28.14144 29.22045 29.08378 28.72668 27.45537 27.63214 28.21736 31.82471 33.78667 37.04775 38.69599 37.69385 35.16292 32.20058 30.23806 31.27246 34.91024 37.63755 44.26960 45.46935 43.49159 35.70141 30.91847 31.93922 37.94447 41.91800 44.98521 47.37551 47.79938 48.19127 47.57424 45.03930 38.27840 36.19314 36.65902 37.30152 35.29543 30.18973 28.96050 30.15994 32.70009 34.57918 35.71306 34.08663 30.77372 28.09554 27.13237 27.47167 27.81978 28.21304 28.17470 27.43925 26.77437 26.23741 26.09133 25.72322 25.53518 25.42559 25.36004 25.34214 25.34560 25.34334 25.34009 25.34027 25.34091 25.34304 25.34191 25.33798 25.33605 25.33432 25.33396 25.33415 25.32842 25.31901 25.30842 25.29614 25.29154 25.28458 25.29059 25.29018 25.28735 25.28283 25.27914 25.27038 25.26100 25.26100
25.25100 25.25100 25.25109 25.25358 25.25597 25.25879 25.26178 25.26737 25.27516 25.28779 25.29766 25.30930 25.31394 25.32284 25.32449 25.32520 25.32436 25.32571 25.32540 25.32197 25.32244 25.32307 25.32235 25.32369 25.32282 25.32374 25.32798 25.33385 25.34248 25.35271 25.36930 25.40304 25.44937 25.47302 25.51235 25.82050 26.44112 26.74932 27.39077 27.81007 27.09920 26.62546 26.65161 27.84534 30.37430 32.47494 34.35234 34.45486 34.40380 33.38950 31.17593 29.33285 30.59930 33.76520 37.39653 39.08905 40.93889 38.84298 34.69330 29.82557 31.45180 34.52748 40.19832 41.44219 41.19401 43.21398 43.89895 42.91423 40.54180 36.33412 33.45828 32.40702 33.77693 32.18470 30.32136 28.11717 28.58810 30.27005 32.21870 33.12344 32.15349 30.41150 27.92586 27.02739 26.21361 26.23255 26.86394 26.91566 26.17393 25.99943 25.78043 25.60800 25.53926 25.42204 25.37264 25.34294 25.33097 25.33133 25.33010 25.33251 25.33094 25.33275 25.33122 25.33260 25.32821 25.32768 25.32873 25.32661 25.32315 25.31777 25.31076 25.29601 25.28702 25.28321 25.27588 25.27972 25.28104 25.28110 25.28088 25.27650 25.26986 25.26200 25.26200
