101.00099 101.00099 101.01050 101.02654 101.03735 101.05169 101.06987 101.08638 101.09994 101.11993 101.13010 101.15239 101.16142 101.17666 101.19807 101.20888 101.22596 101.24462 101.25598 101.27570 101.28926 101.31589 101.32907 101.33935 101.33166 101.34560 101.35506 101.34862 101.37213 101.38000 101.41533 101.50512 101.60851 101.79669 101.85083 101.89964 101.88486 101.69224 101.68024 102.03912 102.48064 103.15453 103.54163 103.43836 102.95853 102.59927 102.54407 103.30012 104.08232 104.36024 103.85579 103.13428 103.19044 104.02935 105.70920 105.97567 105.44197 104.34772 104.42527 105.31556 105.90860 104.66656 103.75121 103.72590 104.38461 105.78736 105.97786 104.85960 103.88961 103.24257 104.13215 105.57961 107.50918 108.33278 109.42056 107.79868 104.87566 103.89215 102.54157 101.99577 101.72053 101.86657 102.15791 102.66247 102.75547 102.77523 102.55318 102.30611 102.21379 102.01400 101.84697 101.57321 101.43080 101.38951 101.38444 101.42562 101.43404 101.42773 101.40379 101.37850 101.34994 101.32183 101.31286 101.29808 101.28125 101.26698 101.24489 101.23291 101.21869 101.20245 101.18873 101.17360 101.15837 101.14473 101.12599 101.11566 101.09885 101.08197 101.06460 101.05203 101.03513 101.01965 101.01965
101.00293 101.00293 101.01027 101.02382 101.04248 101.05519 101.06868 101.08493 101.10615 101.11382 101.13171 101.14951 101.16246 101.17741 101.19624 101.21208 101.22341 101.24227 101.26156 101.27387 101.29181 101.32408 101.35020 101.36932 101.38360 101.38888 101.40624 101.43171 101.41498 101.42460 101.41613 101.51166 101.60450 101.85867 102.06296 102.27963 102.26112 102.07155 101.83100 101.89797 102.44383 103.08471 103.82255 104.05101 103.46146 102.88194 102.72041 103.99423 104.76796 105.06285 104.81815 103.87394 103.68126 105.03346 107.08521 107.49521 106.99146 106.32858 105.38477 106.42215 106.53545 105.26053 104.17838 105.42510 106.62224 107.35581 106.88050 105.49766 104.09761 104.05928 105.47106 107.77651 109.46164 109.97197 110.11030 107.65925 105.51811 103.91707 102.61494 101.87739 101.82792 102.09627 102.46143 103.34130 103.90685 103.48100 103.18360 102.71815 102.66029 102.29898 101.76998 101.51794 101.43644 101.42222 101.48837 101.53737 101.52875 101.52141 101.46449 101.39709 101.35228 101.33493 101.31641 101.29399 101.28041 101.26352 101.24661 101.23517 101.21504 101.20488 101.19081 101.17344 101.16109 101.14541 101.12570 101.11595 101.09978 101.08652 101.06681 101.05137 101.03949 101.02035 101.02035
100.99532 100.99532 101.00948 101.02501 101.03702 101.05372 101.06784 101.08551 101.10580 101.11674 101.13156 101.14757 101.16116 101.18046 101.19662 101.21306 101.22347 101.24112 101.26244 101.28032 101.29468 101.33568 101.37847 101.43157 101.45632 101.45953 101.47662 101.51563 101.58741 101.52004 101.49146 101.44550 101.51167 101.84043 102.13660 102.45845 102.60066 102.53641 102.25920 101.92881 102.15661 103.04151 103.90393 104.49896 104.20037 103.66265 103.27258 104.01234 105.18640 106.40103 106.05435 105.22352 104.08898 105.31998 107.09148 108.65546 108.58775 107.23198 107.09917 108.92157 108.14392 106.86916 105.25479 105.91144 109.37974 109.25444 107.58681 105.95032 104.05660 104.63086 107.06643 109.25344 112.42682 112.70908 110.15319 107.91415 105.52537 103.41881 102.49773 102.05992 102.23650 102.64899 103.54810 104.54881 104.79136 104.89075 104.18316 103.62575 102.85530 102.39310 101.81823 101.57835 101.44874 101.51040 101.62376 101.71221 101.69122 101.59870 101.53737 101.42896 101.38180 101.33996 101.32145 101.29868 101.28117 101.27006 101.24709 101.23453 101.21741 101.20323 101.19152 101.17380 101.16121 101.14512 101.12995 101.11661 101.09936 101.08405 101.06709 101.05178 101.04083 101.02218 101.02218
100.99902 100.99902 101.00951 101.02578 101.03900 101.05381 101.06899 101.08777 101.10338 101.11672 101.12781 101.14926 101.15901 101.17964 101.18870 101.21143 101.22415 101.24479 101.25734 101.28015 101.29513 101.33802 101.39168 101.48169 101.55343 101.60165 101.61985 101.68182 101.69553 101.73744 101.73720 101.58472 101.59418 101.71173 102.16969 102.43451 102.80881 103.00756 102.79818 102.38956 102.59729 102.85621 104.10880 104.59083 104.99835 104.23933 103.82292 104.62685 106.30262 107.75158 107.47065 106.89676 105.67720 105.29133 107.92721 110.18986 110.42064 109.79242 110.98508 110.85647 110.40525 107.67371 106.62700 109.59514 111.50850 111.14107 109.05110 106.19200 104.25867 105.42111 108.11755 112.70734 114.10690 113.07346 110.48009 107.75463 104.79280 103.04343 102.40342 102.25386 102.73847 103.51572 104.23946 105.32296 105.78437 105.66450 104.67166 104.02060 103.13978 102.23731 101.81142 101.59733 101.51873 101.74798 101.83024 101.89931 101.86739 101.74948 101.64690 101.48542 101.40245 101.35539 101.33178 101.30609 101.28531 101.26792 101.24976 101.23433 101.21837 101.20487 101.18759 101.17619 101.15947 101.14750 101.13105 101.11917 101.10072 101.08740 101.06869 101.05494 101.03553 101.02038 101.02038
100.99827 100.99827 101.00564 101.02809 101.03895 101.05710 101.06446 101.08318 101.09996 101.11639 101.12999 101.14682 101.16301 101.17361 101.19379 101.20756 101.22728 101.24485 101.26013 101.27694 101.28956 101.33324 101.37266 101.49711 101.61571 101.73917 101.70972 101.89260 102.01108 102.15659 102.00736 101.81648 101.71697 101.76114 102.00957 102.44931 102.86167 103.37936 103.44176 102.85658 102.66603 102.85355 104.05506 105.23597 105.79423 105.56675 104.51127 105.02501 106.87897 108.93831 109.44273 107.93993 106.65396 107.07323 109.39026 113.03390 112.90892 112.41382 113.47027 114.73039 111.98749 109.86988 109.55991 111.75384 113.50435 112.77243 108.88176 107.10855 105.32625 106.22439 108.60499 112.73540 115.03410 113.78249 109.92144 106.52453 104.07325 102.76588 102.50906 102.63960 103.78809 104.62875 106.02591 106.33856 107.33249 106.14961 105.42057 103.95770 103.04668 102.03985 101.77583 101.68917 101.76644 101.95488 102.00600 102.14639 102.04643 101.77865 101.69288 101.51549 101.44202 101.37007 101.32910 101.30375 101.28321 101.26896 101.24888 101.23535 101.21920 101.20096 101.19031 101.17643 101.15994 101.14717 101.13108 101.12031 101.09814 101.08694 101.06961 101.05472 101.03786 101.02401 101.02401
101.00043 101.00043 101.00844 101.02427 101.03542 101.05382 101.06612 101.08117 101.09946 101.11378 101.12781 101.14843 101.15924 101.18005 101.19452 101.21085 101.22923 101.24635 101.26376 101.27696 101.29663 101.31365 101.39792 101.46824 101.61092 101.77787 102.06389 102.23325 102.46676 102.61550 102.28415 102.11830 101.97505 101.87644 101.96953 102.28954 102.68708 103.57444 103.92340 104.32520 103.28720 103.28418 103.93553 105.68694 106.72946 106.92987 105.93374 106.42773 107.42800 111.71218 112.43580 110.83502 107.95427 107.15306 111.56885 114.45180 116.15881 115.70238 119.26306 119.14756 115.32601 111.76434 111.63850 115.03874 115.19975 113.50766 110.25751 108.53370 107.32509 108.15187 111.36668 113.46016 115.36645 113.07707 109.48386 107.26928 103.75692 102.91925 103.20162 103.73604 105.12940 107.04075 108.01140 108.65220 108.44528 106.48641 105.36115 103.43370 102.53192 102.02105 101.75345 101.84338 102.05428 102.20337 102.33716 102.22557 102.03815 101.85195 101.69812 101.49190 101.41282 101.35664 101.32721 101.30857 101.28718 101.26910 101.25265 101.23205 101.22019 101.20440 101.18808 101.17655 101.15841 101.14450 101.13213 101.11483 101.09955 101.08752 101.06904 101.05874 101.04200 101.02578 101.02578
101.00170 101.00170 101.01310 101.02199 101.03627 101.05418 101.06926 101.08173 101.09907 101.11426 101.13242 101.14575 101.16089 101.17966 101.19451 101.21331 101.22775 101.25190 101.26985 101.28648 101.30443 101.31744 101.36467 101.44699 101.57638 101.82837 102.06526 102.54426 102.81786 103.21189 103.30797 103.08455 102.74596 102.63714 102.50443 102.51657 102.76683 103.39515 104.33155 104.83822 104.83928 103.86640 104.30269 105.79813 107.25970 108.04010 107.92080 108.43265 110.37164 114.29315 116.29358 115.39683 112.94802 110.20543 112.67526 116.22831 118.90885 119.97249 123.91578 124.12362 120.33974 115.41211 115.89968 119.23745 119.52288 117.57080 113.95234 111.83116 109.92096 110.43453 112.98788 116.92144 116.25488 112.93109 109.12214 105.54067 103.88235 103.21742 103.84365 104.66416 106.53064 108.90211 109.62874 109.57318 108.73773 106.35076 104.36350 103.64594 102.33406 101.99094 102.03984 102.03879 102.38039 102.70201 102.53669 102.20193 101.89520 101.68496 101.53242 101.45871 101.38515 101.34070 101.32631 101.31277 101.28814 101.27013 101.25615 101.23371 101.21915 101.20619 101.19196 101.17851 101.15954 101.14966 101.12674 101.11597 101.10089 101.08831 101.06824 101.06006 101.04395 101.03058 101.03058
101.00400 101.00400 101.01324 101.02153 101.03733 101.05262 101.06819 101.08082 101.09938 101.11376 101.13051 101.14398 101.16064 101.17979 101.20077 101.21305 101.22816 101.24830 101.27894 101.30059 101.32504 101.33940 101.35905 101.39780 101.49018 101.73665 102.08448 102.49191 103.14406 103.53549 103.91724 103.75541 103.81441 103.58017 103.18417 103.10032 102.82713 103.36907 104.71346 105.55413 105.84818 105.64944 105.53641 106.26238 107.76377 109.12487 109.02071 110.47096 114.78316 117.07320 118.93065 117.85704 113.09896 113.98913 118.91945 123.99510 124.84709 126.09422 129.34777 129.64334 125.27933 120.23427 121.77244 123.79439 125.38353 122.19147 120.16327 115.93640 112.40757 112.76612 115.46555 117.47054 115.26465 110.92203 106.49654 104.86026 104.74021 104.49186 104.89121 106.62758 108.80833 110.69604 110.51186 109.55999 107.79529 105.55673 104.18222 102.83273 102.21942 102.19240 102.45672 102.80112 102.90444 102.79554 102.49282 102.12570 101.74151 101.64576 101.48158 101.41325 101.38288 101.36307 101.35393 101.32564 101.32316 101.28357 101.26113 101.24592 101.21932 101.20893 101.19219 101.17735 101.16096 101.15053 101.13625 101.11664 101.10208 101.08916 101.06939 101.05675 101.04230 101.02982 101.02982
100.99744 100.99744 101.00668 101.02347 101.03885 101.04943 101.06824 101.08507 101.09858 101.11357 101.12898 101.14745 101.16253 101.18120 101.19406 101.21441 101.23067 101.24914 101.28746 101.32097 101.35761 101.38333 101.38147 101.39269 101.48484 101.64497 101.87396 102.40135 103.04400 103.37864 104.31487 104.91896 105.23586 105.03643 104.94150 104.28349 103.54282 103.60135 104.74938 106.14816 107.88806 108.51945 107.25662 106.76959 108.43692 110.39454 111.56007 112.30460 117.40921 121.94238 123.54998 123.69951 116.11535 115.63899 123.99911 128.05176 134.64257 135.81239 135.83356 135.79451 131.58386 123.19080 125.25563 128.95267 131.15882 128.17207 126.38074 122.02202 116.04049 115.81398 118.00371 117.71256 115.05122 109.71360 106.49776 105.35417 104.87845 107.13502 107.91479 110.24195 111.36710 111.59631 110.47938 108.79398 106.42552 104.99088 103.48688 102.94261 102.86813 102.79754 103.12016 103.19208 103.16228 102.80578 102.36239 101.86218 101.62021 101.50905 101.43268 101.40718 101.38792 101.42379 101.40869 101.39062 101.34827 101.30388 101.27337 101.24366 101.22331 101.20905 101.19208 101.17552 101.16111 101.14676 101.13510 101.11496 101.10338 101.08878 101.07391 101.06160 101.03980 101.02710 101.02710
100.99894 100.99894 101.00464 101.02301 101.03586 101.05415 101.06802 101.08515 101.09665 101.11497 101.13157 101.14899 101.16383 101.18125 101.19532 101.21432 101.23263 101.24854 101.27964 101.32701 101.39519 101.44061 101.44830 101.46501 101.45538 101.53745 101.67915 102.20242 102.56047 103.11540 104.39403 105.12938 106.23710 106.74921 106.85676 105.17293 104.63490 104.48921 105.31858 107.94295 110.23637 111.12111 111.51757 109.57771 109.47790 111.76150 113.97915 115.82199 119.56606 125.80770 131.11455 127.25048 123.60784 119.03447 125.79332 134.58418 141.96863 148.43293 149.27931 147.75844 141.23078 131.92410 134.69597 137.79530 138.36793 136.95604 134.21252 124.08502 120.41507 119.39157 121.46298 117.51147 112.85598 109.15022 107.02221 108.04673 109.58063 109.85559 110.70111 113.11005 113.09778 111.74972 110.07459 107.44619 105.42523 104.28328 103.51990 103.48309 103.53099 104.05845 103.91513 103.62865 103.23219 102.59482 102.13716 101.65415 101.49713 101.44898 101.46983 101.48858 101.52744 101.50114 101.46394 101.42051 101.36449 101.30063 101.27094 101.24540 101.22085 101.20787 101.19155 101.18017 101.16165 101.14604 101.13421 101.11880 101.10223 101.08913 101.07302 101.05578 101.04064 101.02856 101.02856
100.99781 100.99781 101.00529 101.02643 101.03447 101.04997 101.06964 101.08121 101.09854 101.10779 101.13413 101.15443 101.16574 101.18217 101.19809 101.21505 101.23106 101.25145 101.28387 101.32046 101.41393 101.47611 101.56308 101.56119 101.55602 101.57314 101.61961 101.75139 102.17229 102.76015 103.80469 104.81156 106.13651 107.33177 108.25778 107.42074 106.10109 105.45078 105.83054 108.65605 110.63276 114.03927 114.34274 113.20300 111.10783 113.84934 117.09648 119.08718 123.84369 129.58930 136.97742 136.25398 131.85357 125.42542 130.69463 141.12195 153.94691 161.87773 161.10532 160.54681 149.00999 138.56443 140.57435 150.07698 149.04876 150.02139 142.86397 131.09685 125.27371 123.47306 125.07302 121.90355 114.31804 110.10073 110.02718 111.90154 114.86303 114.14992 116.11550 117.44302 114.54926 112.13851 109.46096 106.76450 104.91862 104.32539 104.27605 104.67700 104.57204 104.48021 104.28290 103.38871 102.96752 102.36625 101.77945 101.58887 101.52025 101.53767 101.57576 101.61278 101.64570 101.57822 101.50578 101.41958 101.34877 101.30952 101.25857 101.24828 101.22046 101.21241 101.19948 101.18235 101.16775 101.14820 101.13569 101.12126 101.10420 101.08671 101.07718 101.06035 101.04347 101.03146 101.03146
100.99603 100.99603 101.00846 101.02403 101.04037 101.05077 101.07050 101.08472 101.10442 101.11737 101.13097 101.15062 101.16551 101.18137 101.19951 101.21643 101.23676 101.25497 101.27459 101.31282 101.41040 101.48452 101.63219 101.68618 101.75927 101.74760 101.72324 101.66885 101.83448 102.21020 102.92872 104.64226 105.16509 106.79278 108.31095 108.65803 108.50614 106.07675 106.62777 107.87227 110.97816 114.53438 116.72922 115.23330 113.87773 114.57405 119.25963 122.88047 125.91904 132.62039 142.10371 145.52457 139.52795 132.80899 135.20063 148.06437 158.38677 172.63279 175.07959 173.84985 157.94989 147.80385 151.66096 163.59347 164.10325 160.45843 147.40281 139.55201 130.60319 129.76719 128.42104 125.40763 116.38333 112.16290 113.18747 117.35276 120.54818 122.35446 121.52505 119.90510 116.91299 110.22273 108.49346 106.98307 106.29698 105.32985 106.06760 105.74806 105.35996 104.60604 103.93214 102.90237 102.56258 101.97754 101.69675 101.58719 101.61212 101.74055 101.82104 101.85214 101.72368 101.66127 101.48308 101.37858 101.32474 101.28850 101.26918 101.24448 101.23116 101.21345 101.20064 101.18781 101.16838 101.15495 101.13903 101.12209 101.10299 101.09438 101.07392 101.05796 101.04620 101.02773 101.02773
100.99842 100.99842 101.01152 101.02523 101.03624 101.05202 101.06654 101.08654 101.10191 101.11284 101.13003 101.15129 101.16472 101.18283 101.19912 101.21574 101.23475 101.24895 101.27459 101.32757 101.38340 101.53612 101.67680 101.82553 102.01590 102.12802 102.03599 102.03622 102.15649 102.14703 102.61618 103.30637 104.61739 105.80360 106.98589 109.37622 110.45385 109.82193 108.08363 108.57783 110.38654 112.61465 117.99177 119.37390 117.57923 118.08734 120.67929 127.21019 130.74621 138.76138 149.17544 154.06131 151.01220 141.65964 141.88129 152.64285 164.59047 187.50645 194.08789 185.59492 168.36652 161.39458 165.74157 175.52358 182.18120 168.23980 160.92350 150.87556 143.65612 138.40813 134.24511 127.53539 117.76139 115.50286 118.53177 124.11467 128.30314 127.81550 126.40152 120.58370 114.86411 110.95818 109.38918 108.33464 107.68381 107.53952 106.68259 105.94037 105.22794 104.19297 103.04856 102.29576 101.92900 101.72723 101.62277 101.68394 101.89454 101.92320 101.96600 101.99841 101.82721 101.67309 101.44178 101.35496 101.31777 101.31221 101.28653 101.26034 101.24375 101.21621 101.20254 101.18767 101.16981 101.15607 101.13939 101.12133 101.10298 101.09019 101.07306 101.05603 101.04331 101.02285 101.02285
101.00349 101.00349 101.01237 101.02512 101.03690 101.05356 101.06747 101.08404 101.09993 101.11437 101.12923 101.14968 101.16695 101.18190 101.19690 101.21376 101.23308 101.25468 101.27235 101.30790 101.38097 101.51722 101.62105 101.79932 102.09767 102.35862 102.63480 102.63969 102.58496 102.69513 102.70762 103.20191 104.04095 104.81418 106.65667 108.61375 111.40446 112.20824 112.39758 110.55180 112.71063 112.82888 119.50668 120.78732 122.95778 121.20979 125.49151 129.59955 137.33875 145.15397 156.40467 160.35113 162.41767 155.36615 148.66243 161.33974 172.57489 193.07567 206.35130 203.35495 186.52829 173.06183 176.81899 195.23181 197.73141 193.37481 183.06408 160.82143 150.74665 147.22070 138.44869 127.17403 121.11457 119.75078 123.32706 129.43427 136.20043 136.61941 130.63430 121.67168 115.21625 112.02799 111.12451 110.82125 109.24739 107.69968 106.29927 104.93540 103.84600 103.00001 102.54457 101.93009 101.68128 101.84068 101.78782 101.95088 102.14674 102.34560 102.27540 102.08159 101.81445 101.64161 101.42739 101.38238 101.38431 101.35698 101.33302 101.30286 101.24387 101.22440 101.20249 101.19302 101.17160 101.15482 101.13456 101.12528 101.10629 101.08859 101.07529 101.05391 101.04163 101.02423 101.02423
100.99888 100.99888 101.01013 101.02045 101.03684 101.05641 101.06423 101.08132 101.09732 101.11044 101.13136 101.14526 101.15961 101.18734 101.20627 101.21913 101.23892 101.26929 101.29383 101.30789 101.34839 101.41305 101.52485 101.73743 102.02880 102.43022 102.89080 103.22793 103.50523 103.44703 104.11502 104.33259 104.42078 104.85006 105.66106 108.48525 111.11327 115.20947 116.66127 116.37785 113.95045 113.71851 120.60730 124.67703 127.53408 127.76397 131.74927 134.03706 143.05778 148.57409 162.48897 174.87892 173.29243 169.34636 163.66506 166.57891 181.14457 201.46166 218.88609 218.38824 205.96312 195.93758 199.86059 215.13510 216.33804 200.34002 192.47106 177.04056 163.63365 157.85058 147.16631 129.07177 126.06986 129.86805 129.76435 139.04876 143.73680 139.24411 133.02160 123.25636 117.76747 115.10605 113.74917 111.25554 109.98793 106.84295 105.21959 103.80292 102.98230 102.31787 101.84997 101.80428 101.87237 102.09820 102.14844 102.40198 102.55348 102.58199 102.32809 102.09710 101.80087 101.60522 101.48964 101.47054 101.45152 101.47526 101.40543 101.32547 101.26856 101.22915 101.20825 101.19553 101.17748 101.16187 101.14149 101.12201 101.10581 101.09194 101.07220 101.04995 101.03837 101.02376 101.02376
100.99521 100.99521 101.00803 101.01913 101.03630 101.05755 101.07249 101.07965 101.09771 101.11065 101.12848 101.14436 101.16421 101.18685 101.20847 101.23728 101.26253 101.28635 101.31583 101.35781 101.36630 101.42268 101.48199 101.64878 101.75955 102.21222 102.78674 103.53115 103.80924 104.66123 105.18507 105.52077 106.64918 107.02093 107.39426 107.65943 110.56033 115.43433 117.98033 119.36070 122.10656 121.14276 122.81157 126.06538 129.95659 135.95853 139.37325 148.82437 148.12348 159.76855 169.56164 184.45026 191.70878 185.29942 181.04271 185.64374 193.84944 217.27503 237.91947 234.79425 229.52142 229.78303 233.83193 228.43187 243.95153 225.20482 207.16636 195.55659 180.63599 166.23371 158.01752 141.17158 135.74632 141.83765 141.65138 143.08378 151.07189 145.79491 137.16375 126.42180 121.80552 115.97247 112.94573 108.77972 107.69078 105.61896 102.92166 102.76518 102.12268 101.99454 101.91378 102.10622 102.54156 102.89587 102.98332 103.05096 103.12170 102.78434 102.32656 102.03607 101.85721 101.76738 101.71508 101.72951 101.72075 101.59426 101.49469 101.35523 101.28277 101.23923 101.21701 101.19846 101.17674 101.15907 101.14019 101.12457 101.10601 101.08801 101.07522 101.05659 101.03837 101.02302 101.02302
100.99501 100.99501 101.00646 101.02300 101.03606 101.05357 101.07065 101.08950 101.10062 101.11495 101.13165 101.15315 101.18082 101.21237 101.23886 101.28112 101.31996 101.34818 101.43535 101.44835 101.53319 101.58365 101.66039 101.62982 101.74744 102.04318 102.40071 103.28736 104.25073 105.27545 106.20774 107.61433 109.30859 109.35571 109.36324 109.55852 110.81042 115.31532 119.55411 125.16991 126.15969 128.26557 128.58181 128.56348 132.10290 136.30274 147.48414 154.35024 163.32987 172.77417 179.84080 195.12772 206.60917 209.62116 202.65372 202.03908 213.24501 239.98416 254.02210 274.26398 263.00987 258.24566 257.19748 262.74421 262.21422 257.07256 232.51905 220.96961 209.38615 188.57505 170.37530 157.01539 152.14078 153.58901 162.32501 165.45511 155.28086 147.71583 140.45991 127.56878 121.83499 115.80339 110.83416 107.90208 105.24320 103.02425 102.51993 102.23532 102.10519 102.26331 102.50326 102.83357 103.50776 103.74122 103.98566 103.78969 103.48320 102.72902 102.43556 102.42445 102.20469 102.23515 102.20615 102.04841 101.97760 101.77053 101.57200 101.47363 101.30874 101.26337 101.23059 101.19875 101.17662 101.15975 101.13446 101.12129 101.10304 101.09251 101.07222 101.05334 101.04122 101.02507 101.02507
101.00243 101.00243 101.00870 101.02427 101.03792 101.05408 101.06762 101.08795 101.10251 101.11968 101.14042 101.16067 101.19109 101.21914 101.30356 101.36487 101.44250 101.49854 101.54981 101.63344 101.73699 102.03741 102.09572 102.09904 101.97078 101.99689 102.13909 102.64287 103.44970 105.19795 106.66657 108.23204 110.91775 112.81538 112.45565 111.85706 112.43824 114.31227 119.30296 124.89763 130.86369 133.19990 135.05155 138.34660 139.99734 147.72024 158.53933 166.76297 181.92798 189.66529 205.31184 219.82458 231.60922 233.42333 238.39477 230.25975 256.20145 265.32480 271.86704 285.61511 286.75340 280.13734 286.44247 281.67377 282.60279 274.62631 264.86254 241.90750 228.15914 203.84790 193.29461 179.45626 171.62767 176.01742 175.01170 167.83942 162.33068 148.86051 138.82320 124.20167 120.45856 112.80233 109.17174 106.12913 103.34462 102.70341 102.37992 102.75674 102.89993 103.00907 103.81330 104.41664 104.77643 105.21689 105.02825 104.46649 103.69358 103.30481 102.99021 102.94669 103.03298 102.79347 102.62036 102.53380 102.38263 101.94571 101.69057 101.53263 101.36399 101.29665 101.24832 101.20227 101.17346 101.15432 101.13785 101.11933 101.10855 101.08732 101.07168 101.05378 101.04114 101.02312 101.02312
100.99949 100.99949 101.00824 101.02455 101.04049 101.05614 101.07472 101.09185 101.10496 101.12285 101.14035 101.16237 101.19147 101.22584 101.34259 101.39584 101.57179 101.66958 101.73347 101.87907 101.99231 102.42306 102.80994 102.59082 102.40696 102.30492 102.44709 102.58186 102.90334 104.13486 105.47859 107.31073 112.33172 114.33656 116.33933 117.38658 116.38243 117.66092 121.74157 124.70901 132.27193 142.52869 147.23090 153.53948 150.43954 152.57856 161.42272 174.34534 196.35651 214.07923 227.86623 239.98917 250.97848 262.58176 263.31276 271.00029 277.02279 282.08554 290.03068 290.10950 289.23174 285.54592 285.35209 285.09983 280.63736 274.29155 266.52781 255.16610 242.09060 227.90005 213.26576 199.66296 191.90357 187.48207 180.60970 168.89723 157.78265 139.46937 130.68282 121.65423 112.54275 108.93257 105.68247 103.65066 102.55617 102.69649 103.52149 104.61973 104.89758 104.49906 105.72929 105.62159 106.63449 106.69620 105.87477 104.92799 104.18793 103.89659 103.81535 103.80010 103.74587 103.44539 103.26039 102.81416 102.43986 102.13402 101.73779 101.53743 101.38955 101.31103 101.23730 101.20699 101.17235 101.15754 101.13984 101.11958 101.10703 101.08968 101.07440 101.05738 101.04081 101.02311 101.02311
100.99841 100.99841 101.00824 101.02805 101.04231 101.05569 101.07028 101.09108 101.10627 101.12342 101.14059 101.15994 101.18346 101.24691 101.31909 101.45498 101.62634 101.78026 102.00507 102.15347 102.71682 103.19211 103.74507 103.99349 103.84237 103.48056 103.68181 103.34398 103.37725 103.77018 105.04277 106.69400 110.14780 113.57419 117.54332 120.00942 122.67671 123.87391 124.50557 126.70943 135.01247 146.21208 155.29223 158.08612 165.07606 158.90164 166.84396 189.61635 205.80460 225.86235 242.40569 279.48845 284.62073 294.29945 293.80942 289.67968 291.18626 288.44499 288.07077 276.88291 268.19160 261.39695 274.24508 266.48532 254.16307 266.97100 251.56260 249.07316 244.21738 236.06230 219.20344 214.85581 200.27164 190.62567 173.07966 159.86009 145.83558 132.14071 124.31363 113.35409 109.30106 106.17950 103.88853 103.04583 103.39705 104.45191 105.49176 107.78525 107.39775 106.83668 107.85575 109.90688 109.03549 108.48218 106.73464 105.57090 104.66944 104.52910 104.39439 104.01380 103.87572 103.72260 103.16141 102.78075 102.22689 101.90104 101.61590 101.48902 101.35757 101.28126 101.23040 101.20136 101.17483 101.15726 101.13883 101.12056 101.10554 101.08929 101.07185 101.05806 101.04089 101.02236 101.02236
100.99946 100.99946 101.01028 101.02451 101.03800 101.05894 101.07319 101.09138 101.10398 101.11754 101.13602 101.15305 101.17935 101.21495 101.29962 101.35453 101.61382 101.75728 102.03541 102.44869 103.02359 103.77993 104.44021 105.16943 105.26298 104.41018 105.17320 105.94540 105.67176 105.28108 105.20776 106.22731 108.58022 112.49590 116.76621 121.07017 125.28784 128.50722 131.67505 132.82338 134.97205 149.06263 158.55528 171.77974 183.17216 183.22005 185.99736 198.33457 213.63865 249.02034 273.30945 291.54064 308.34969 311.07365 304.41681 290.84534 284.29011 272.51101 260.69469 247.33965 234.04121 235.33067 221.99105 226.26481 229.23046 234.78528 235.50146 228.98376 215.12531 216.02653 209.09818 197.55759 185.34180 172.10960 156.60758 143.40999 130.77676 121.25960 114.34476 109.90879 106.35567 103.94446 103.25960 104.57271 106.67291 107.28760 109.58174 111.39625 111.31144 112.00908 113.36876 112.45738 110.93594 109.25765 108.40046 106.68716 106.05789 105.00631 104.49646 103.80306 103.25218 102.87518 102.54138 102.51963 101.99161 101.68235 101.55711 101.42554 101.29815 101.25270 101.21469 101.19635 101.16606 101.15624 101.13443 101.12498 101.10578 101.08944 101.07589 101.05442 101.04325 101.02682 101.02682
100.99522 100.99522 101.01094 101.02224 101.03947 101.05849 101.07183 101.08786 101.10733 101.12270 101.13740 101.15339 101.17295 101.19285 101.25406 101.29670 101.48210 101.59596 101.84832 102.33412 102.94759 104.06633 104.79226 105.69554 106.27256 106.56408 107.64890 107.49876 107.58559 107.01128 106.56722 106.73679 107.78448 111.19761 114.36889 119.76859 123.76269 130.79084 135.05439 139.31992 144.38100 152.68776 166.86740 177.66781 191.75488 199.29187 211.45492 215.24680 238.57304 263.91872 288.22937 310.05928 319.12189 313.40574 299.08740 271.53104 265.16620 244.98948 238.05138 219.02587 214.75478 211.52144 205.74558 202.90646 197.16068 194.84686 191.25103 185.59745 187.44082 187.33176 189.30901 183.06566 159.48414 148.65645 140.27965 132.03718 121.42691 113.34861 108.22732 105.84825 104.36100 104.02703 105.18824 106.66866 110.23499 111.44093 117.04241 117.95149 116.99411 116.69500 115.62437 114.95848 113.07119 110.00093 108.64197 107.43928 106.06148 105.04927 103.99859 103.12765 102.78527 102.27359 102.21440 101.98013 101.76611 101.47821 101.40560 101.31951 101.26428 101.24156 101.21326 101.19143 101.16810 101.15808 101.13938 101.12498 101.10606 101.09018 101.07243 101.06018 101.04224 101.02684 101.02684
100.99598 100.99598 101.01164 101.02302 101.03949 101.05876 101.07241 101.09174 101.11150 101.13014 101.15140 101.17275 101.19261 101.20168 101.22169 101.25051 101.36346 101.51170 101.78776 102.05821 102.69283 103.63806 104.17366 105.15272 105.85518 107.19913 108.79175 109.84565 110.62896 110.66824 108.99930 108.57730 109.11205 111.55162 113.03102 116.30299 118.92923 131.09177 138.69398 150.15648 156.70121 163.90343 175.58595 188.74899 204.60462 215.88907 231.29083 246.61775 258.58839 280.40791 306.67605 324.10631 322.23409 313.32939 284.04648 257.79408 244.64220 225.85241 206.32996 202.27267 188.20666 183.24538 177.76389 177.93619 178.00643 175.23627 171.64274 166.51580 170.62754 168.68223 166.24916 156.65280 140.25252 128.66840 126.40192 121.77072 113.31297 108.64032 105.22697 105.06180 104.96460 105.75866 108.00963 112.39583 116.71174 121.57342 124.73602 126.74993 125.11796 122.28531 118.51061 115.76171 113.00251 110.08949 107.52294 105.38970 105.05013 104.01599 103.26580 102.33198 102.03635 101.72203 101.74363 101.66602 101.48878 101.35529 101.32888 101.33348 101.28423 101.26324 101.22641 101.20077 101.18567 101.16029 101.14250 101.13031 101.10840 101.09479 101.06781 101.05712 101.04118 101.02554 101.02554
100.99842 100.99842 101.00788 101.02454 101.03972 101.06035 101.07309 101.09487 101.11176 101.14941 101.17633 101.21229 101.22744 101.25206 101.26189 101.27042 101.29273 101.32217 101.58976 101.67300 102.26588 102.48553 103.50643 103.95908 105.26249 106.13434 108.65410 109.97312 111.19527 111.60139 111.99145 113.64653 113.19626 113.77610 115.87729 117.41028 122.17829 127.69955 133.99871 152.87803 161.75740 174.41845 187.73528 202.35293 218.67981 239.46701 249.57422 270.67611 288.44165 313.18912 327.63976 337.83995 327.92274 305.67909 275.71780 249.11568 222.24724 201.85335 194.62966 180.46327 171.49465 162.30935 161.59086 152.06325 154.31329 155.73118 150.80729 142.94333 145.43722 145.16366 148.92214 144.31130 129.05907 120.97712 117.52748 112.28642 108.89535 106.44887 105.36757 107.18987 109.28129 112.89960 115.86756 117.03770 123.11599 130.03162 134.94973 133.37122 128.59265 124.21441 119.28767 112.65678 111.16548 107.16034 106.43604 104.72098 104.48485 103.27569 102.41725 102.12038 102.03774 101.72363 101.64921 101.51615 101.41142 101.40011 101.36738 101.37929 101.37752 101.33466 101.28465 101.23835 101.19228 101.16749 101.14813 101.12843 101.11557 101.09078 101.07527 101.05672 101.03888 101.02257 101.02257
100.99771 100.99771 101.00813 101.02419 101.04497 101.06220 101.08006 101.09833 101.13327 101.17130 101.20904 101.32622 101.30474 101.31987 101.35045 101.33019 101.32955 101.33137 101.41467 101.52277 101.67210 102.04388 102.41793 102.98763 104.17127 104.87638 106.83001 107.99939 109.71296 111.30209 112.09300 114.65440 116.91369 118.72744 121.29872 124.78079 125.97769 129.27866 133.87631 147.20500 163.62044 184.57702 202.49089 218.01350 229.90669 254.91057 276.66281 301.83900 318.33609 333.24994 338.31308 339.15771 322.61158 297.90408 275.49827 244.54841 222.19901 194.43268 182.63267 165.97073 157.35059 149.52746 145.90723 142.79749 140.39504 141.10738 136.71336 133.25238 129.25687 134.00908 137.94173 131.06630 122.83424 115.07360 110.75124 107.84311 106.45050 105.31934 106.28463 113.65716 117.26069 126.16687 124.74951 129.78337 141.49708 144.51068 140.56771 136.96196 129.08504 123.28810 117.55788 111.37964 108.36147 106.08608 104.68077 103.58764 103.04935 102.82166 102.51262 102.58410 102.57664 102.18863 102.02275 101.77048 101.61236 101.51414 101.53147 101.50704 101.46286 101.38221 101.32574 101.24713 101.21183 101.17428 101.14949 101.12039 101.11189 101.09342 101.07331 101.05634 101.04329 101.02410 101.02410
101.00097 101.00097 101.01075 101.02846 101.04081 101.06019 101.07360 101.10279 101.12851 101.19482 101.29948 101.35885 101.43639 101.53066 101.53072 101.53534 101.50498 101.45617 101.54491 101.52874 101.61461 101.74257 101.83486 102.34119 102.93993 104.05267 104.65785 105.13688 106.04663 108.32275 110.46104 112.55085 116.82704 118.75413 124.32528 129.06559 132.68328 138.08304 141.25883 147.73849 157.13371 174.75711 201.75410 227.13363 246.82891 275.97891 308.96742 320.61818 337.70455 344.00691 340.23206 332.44805 311.23384 284.62592 273.92907 238.62842 224.08103 197.67972 183.70424 169.15150 156.29684 147.68445 137.76027 131.28853 129.40180 128.84127 123.58380 117.15151 120.24020 125.10693 121.18732 122.62438 116.98064 112.28486 107.04571 105.76757 107.17999 108.10310 111.33097 117.67469 123.88891 134.24422 141.87805 147.71735 150.64372 148.56055 144.78348 135.70719 129.24961 120.13811 114.54199 109.85332 107.47584 105.69064 104.78043 104.28424 103.67774 103.67358 103.35958 103.37920 102.98801 102.58326 102.53320 102.20506 101.91405 101.83165 101.69724 101.59416 101.50108 101.39577 101.33187 101.25609 101.21177 101.17556 101.14334 101.12141 101.10939 101.09973 101.07210 101.05612 101.04574 101.03145 101.03145
100.99571 100.99571 101.00875 101.02474 101.03905 101.05784 101.07138 101.09951 101.12966 101.18642 101.28887 101.39682 101.48832 101.62163 101.68009 101.70718 101.77807 101.77747 101.99293 101.86644 101.78143 101.68682 101.76997 102.03075 102.39272 102.98768 103.22187 103.74517 104.11662 105.49572 105.34196 109.13710 111.45221 116.33096 121.62217 130.28777 132.40769 140.92931 147.79935 154.53474 164.51767 176.97248 199.59936 225.88731 249.73401 286.69762 316.36118 334.33192 346.73754 342.30773 320.38259 308.83938 297.39775 275.00201 256.38618 232.13729 218.09470 207.72855 194.37863 178.31723 168.60288 154.84616 142.59628 134.97220 128.68536 122.75859 117.48897 116.29363 113.78762 115.32765 116.53169 115.71588 112.09303 109.32507 107.27166 107.05192 110.43218 114.06561 118.58226 123.22718 137.48174 153.87366 154.64539 167.07841 161.04419 153.66038 143.11034 131.75957 121.13212 115.29274 109.47584 108.24018 107.04310 106.89009 106.43569 106.45449 105.07192 104.63671 104.55726 104.42892 103.92883 103.53068 102.81307 102.57898 102.11502 101.85648 101.69283 101.57478 101.43707 101.36334 101.29013 101.22066 101.18555 101.16379 101.13929 101.12030 101.10403 101.09143 101.06872 101.05841 101.04176 101.02961 101.02961
101.00352 101.00352 101.00980 101.02184 101.03945 101.05781 101.06940 101.09502 101.14326 101.19254 101.25609 101.34370 101.51397 101.69465 101.79994 101.96111 102.17439 102.24517 102.25451 102.38900 102.40604 102.22273 101.95791 101.96978 102.19995 102.29108 102.34350 102.58098 103.32864 103.71238 104.27023 105.72368 108.27333 112.52075 117.32295 121.52492 130.41928 138.86981 151.79877 160.77921 173.10575 190.88291 210.60631 239.47103 266.57512 299.15725 323.56837 344.65907 351.07194 334.58061 313.44329 288.26009 273.15739 251.39008 239.07572 222.10384 210.28345 200.98462 193.57159 182.23896 172.84571 164.28366 151.01617 139.64136 133.74277 126.76871 124.59154 119.69599 115.42844 112.25666 109.87859 110.32612 107.95722 108.48051 110.89510 111.13729 113.60172 119.60746 130.60842 137.70024 151.95754 165.64703 174.43720 172.66101 162.20120 148.96646 135.09640 126.46011 116.29689 114.03387 110.46957 109.86171 109.50414 109.58117 108.64418 107.75195 107.11300 106.01063 105.47771 104.87860 104.26769 103.49557 102.98491 102.28724 102.05196 101.73551 101.54721 101.44876 101.34502 101.27110 101.24330 101.20180 101.17900 101.15648 101.13627 101.12089 101.10678 101.08725 101.06875 101.05750 101.04027 101.02698 101.02698
100.99826 100.99826 101.00761 101.02509 101.03661 101.05751 101.07035 101.09187 101.10965 101.15254 101.21849 101.29007 101.40289 101.60862 101.77006 102.05627 102.49859 102.69910 103.11142 103.37877 103.21715 102.81323 102.76470 102.34576 102.43372 102.54981 102.51694 102.81868 103.53967 104.31669 105.49771 106.33227 106.18889 107.89076 110.44066 115.07637 124.39781 133.03687 143.83391 162.61530 182.96218 201.38273 223.71248 249.72152 270.59449 311.77263 329.01966 350.83735 352.39409 334.80031 309.99188 288.06881 268.71804 242.20024 226.02669 205.71943 194.48997 183.62171 173.72815 173.66863 166.61542 159.01704 150.54997 140.30738 135.95105 131.13431 127.48203 123.37952 118.31772 112.59367 108.95959 108.06255 108.77212 112.42409 114.00456 120.55566 118.51708 125.56046 141.35837 152.79741 171.18990 178.33423 180.95593 174.58564 155.81543 143.08993 128.50518 120.92326 117.70719 114.73636 115.22280 113.61228 112.80474 111.22238 109.50555 108.23474 106.95022 106.09212 105.46429 104.50842 103.63221 103.07130 102.44023 102.27447 101.77112 101.52795 101.44459 101.31821 101.31209 101.26718 101.24550 101.21416 101.18705 101.15320 101.14261 101.12055 101.10411 101.08432 101.07107 101.05919 101.03793 101.01987 101.01987
100.99730 100.99730 101.00940 101.02565 101.03690 101.05791 101.06967 101.09119 101.10428 101.13133 101.17863 101.21287 101.33406 101.46616 101.63554 102.08338 102.46288 102.86093 103.56075 104.16889 104.12724 104.11282 103.67245 103.91105 103.87089 103.48204 103.13391 103.60154 103.89823 105.25127 107.67101 109.12214 108.09792 109.33113 110.73407 114.60892 118.81872 131.50368 138.93519 160.15240 180.10348 199.89682 219.72657 249.26735 277.25363 313.64782 338.19277 352.85645 355.16175 332.48507 321.72769 297.63924 282.73138 260.74220 242.49477 221.36736 198.25584 184.30109 165.78308 159.67154 150.74921 145.63688 141.90676 132.94850 128.53279 126.59463 125.85498 122.34553 116.39775 111.51147 108.97535 109.06515 112.16188 119.01523 124.52142 128.38635 130.08212 139.38540 146.65326 162.91569 189.11351 190.52837 186.18996 171.32454 149.97883 138.33299 127.15942 121.13331 121.68859 121.46465 118.61592 115.80182 113.77067 111.53067 108.84230 107.07820 106.09885 104.98353 104.61144 103.52416 103.04032 102.56292 102.19568 101.80969 101.58865 101.46117 101.39141 101.36618 101.34673 101.31722 101.27417 101.22432 101.20215 101.17138 101.13358 101.11917 101.10100 101.08537 101.07538 101.05271 101.03489 101.01665 101.01665
101.00161 101.00161 101.01059 101.01999 101.04240 101.05794 101.07546 101.08471 101.10639 101.12796 101.15826 101.18400 101.23933 101.39113 101.54636 101.84899 102.34278 103.06881 103.59252 104.38414 104.83204 104.79695 104.75966 104.96922 105.18888 105.80155 104.68319 104.24110 105.15160 106.19797 108.39250 111.43633 113.40088 114.82718 114.04736 115.44422 118.81051 128.25221 131.76582 147.71454 160.77221 187.19146 203.50850 228.86472 267.28450 295.48475 336.11989 353.48959 355.92132 346.47772 326.89706 317.00019 292.79924 277.32620 254.73490 232.40194 214.27373 194.68345 182.44660 164.36981 150.69564 138.27240 133.09074 125.67581 121.72625 119.96233 120.87781 116.07442 113.42247 109.61822 108.71818 110.07900 114.11797 122.18112 129.42028 139.97497 148.52961 155.47583 167.61794 185.43845 206.54920 211.64404 190.67982 172.03863 155.26412 139.64042 130.46356 131.09355 131.00159 128.44569 122.37159 118.45268 113.47829 110.44474 108.15094 105.80383 104.64001 104.00122 103.46098 102.89041 102.56653 102.38290 102.06540 101.94811 101.68116 101.63343 101.61336 101.58445 101.52596 101.43978 101.37534 101.30806 101.21260 101.17987 101.14279 101.11679 101.09943 101.08335 101.06887 101.05196 101.03345 101.01608 101.01608
101.00384 101.00384 101.01283 101.02265 101.04446 101.05654 101.07317 101.09726 101.10996 101.12973 101.14982 101.19028 101.25874 101.34380 101.56303 101.73696 102.20698 102.57755 103.23529 104.13293 104.68821 105.07957 105.62039 106.35629 106.38838 107.44510 106.99490 106.95277 107.37882 108.15506 111.26738 113.58833 118.16302 118.71342 122.08664 119.31538 121.13062 127.58248 131.01767 139.61474 149.32512 170.12004 187.59109 225.43922 258.87824 304.98909 333.01441 357.22792 358.72665 350.77237 336.48581 323.61546 308.42188 289.37023 270.55686 253.58164 225.90433 202.36472 189.09861 173.11477 157.25399 141.99017 131.92437 123.23271 120.26758 116.57548 114.42299 112.60032 110.40810 110.89537 110.78193 112.10793 115.99755 121.08406 130.69905 145.21628 159.38374 177.79092 186.92370 206.38327 221.07260 215.06286 208.23434 177.18114 154.99231 147.56416 146.00107 138.95131 135.75574 130.90980 122.60632 118.91047 112.74401 109.29632 107.74843 106.24197 105.13138 104.52823 103.98723 103.45642 103.07803 102.82093 102.55991 102.40588 102.23407 102.00278 101.84367 101.80711 101.77625 101.57722 101.43450 101.32792 101.21734 101.15693 101.14218 101.11808 101.10324 101.08530 101.06682 101.05124 101.03846 101.01898 101.01898
100.99886 100.99886 101.01133 101.02236 101.04160 101.06037 101.07569 101.09159 101.10771 101.12752 101.15395 101.19123 101.24717 101.33216 101.44423 101.67036 102.04670 102.22243 102.80687 103.29342 103.87660 104.40190 105.41715 106.27731 107.61635 108.42575 109.37841 109.70006 111.34936 113.35552 116.13029 116.73045 120.02547 128.18149 130.82677 132.20162 135.90070 132.21169 137.30655 147.05962 154.52508 171.17564 200.73194 227.56298 268.04279 303.07199 334.16883 346.92030 351.49840 338.25570 312.18678 315.12054 301.21364 284.99927 269.08453 252.91229 227.24236 202.39465 186.11017 169.00052 157.32341 142.16922 132.73416 124.56019 117.59093 114.52315 113.22241 111.82841 112.73249 113.82575 113.28365 115.10448 118.42612 122.62266 133.21159 144.28546 161.43354 177.85879 199.07375 222.82720 236.23321 228.91782 214.38179 187.28098 165.74083 161.47180 151.58013 148.92748 141.08884 132.18725 123.97091 117.62224 112.90424 109.87947 108.54926 108.50998 107.00117 105.64473 105.19547 104.79160 104.47679 103.78940 103.47292 103.34372 102.86038 102.66912 102.28831 102.13565 102.01331 101.74531 101.51341 101.33745 101.25055 101.16981 101.14052 101.12260 101.10162 101.08300 101.06807 101.05187 101.04038 101.02300 101.02300
100.99679 100.99679 101.00869 101.02578 101.03826 101.05803 101.07606 101.09231 101.10654 101.12667 101.14175 101.17486 101.22272 101.27250 101.31579 101.48723 101.65333 101.71782 102.16955 102.46110 102.87137 103.45860 104.83687 105.91010 107.54307 109.31942 110.64406 112.39195 115.00993 119.20898 120.38090 122.88022 125.43360 132.19315 142.24983 146.49287 153.38658 155.93991 158.34804 167.50469 187.01126 196.32496 237.89771 258.33181 289.47875 312.42788 338.81612 343.34628 337.10457 315.74588 300.64719 285.89576 265.86186 267.54505 243.65856 227.79671 212.66929 189.13668 173.51858 161.25864 144.87799 135.44283 127.21588 118.33411 116.83705 116.91788 116.25445 113.97457 114.78961 117.93807 116.92650 117.06553 121.85431 130.41808 138.31274 149.24070 160.72711 175.00709 208.94234 237.70975 248.87031 246.32107 230.65151 200.11540 187.16194 178.01553 163.08753 153.83233 141.91289 130.45317 123.13222 118.01920 112.86179 112.05281 111.05382 110.32043 108.39526 108.15775 106.68433 106.24939 106.05513 104.88005 104.53146 103.92802 103.28169 102.89720 102.67600 102.48545 102.13346 101.89921 101.55933 101.39481 101.29370 101.22393 101.14244 101.12738 101.10540 101.08202 101.07153 101.05251 101.04257 101.02856 101.02856
100.99553 100.99553 101.00895 101.01990 101.04052 101.06104 101.07614 101.09031 101.10572 101.12257 101.14757 101.17342 101.19137 101.21793 101.27768 101.33835 101.48701 101.59728 101.96264 102.26025 102.84692 103.36737 104.78011 106.00347 107.09864 109.93478 112.39682 114.70006 122.22206 124.77661 127.67308 130.78467 135.67194 137.95354 148.79386 161.50081 168.25277 180.57608 184.91924 192.48209 197.35596 220.64727 256.16727 278.01329 301.91500 324.75041 343.80730 337.15149 321.40377 297.23135 284.91562 258.57893 246.87636 230.36555 212.66592 204.03505 182.42328 171.31957 153.46999 146.75053 134.48394 130.53436 123.71247 121.59651 118.65483 119.58568 116.95139 114.33660 117.22349 119.78617 121.66122 121.35733 120.51598 131.54492 143.93134 160.20514 182.29498 190.22138 220.72139 248.34371 259.18640 257.77097 242.02483 222.37936 195.64439 182.46342 164.99095 154.73373 144.26877 130.02436 123.27032 119.48527 117.28285 115.41159 114.12972 112.27992 110.45472 108.88409 108.13503 107.42906 106.68837 105.64658 104.54284 103.75182 103.38458 102.91147 102.74315 102.45311 102.12636 101.91147 101.61832 101.43159 101.33697 101.23921 101.17206 101.13924 101.11186 101.09257 101.07245 101.05212 101.04080 101.02563 101.02563
100.99769 100.99769 101.01126 101.02747 101.04316 101.05537 101.07481 101.08694 101.10738 101.13212 101.17099 101.20679 101.24126 101.29056 101.34474 101.45756 101.59923 101.84858 102.39839 102.82935 103.48684 104.28835 105.92662 107.14919 108.67792 113.44410 115.28113 119.68974 125.61662 129.56986 136.51496 138.77778 142.95857 150.54654 164.27359 174.27089 189.05906 202.73269 211.53292 224.98566 244.33853 254.29268 279.06715 310.54565 333.27983 350.82776 351.86461 336.07539 320.81291 291.09393 268.80177 255.92807 229.86008 216.16245 198.81083 187.95011 174.03508 158.09704 152.21571 145.51381 136.28901 129.76752 125.36783 123.33948 125.45366 122.72171 120.93755 119.45989 119.95023 122.74505 125.68270 128.61552 127.28772 133.90435 149.24679 165.81494 186.27630 198.17054 229.47730 248.09575 272.56930 270.88215 245.48865 227.13506 199.15268 177.74739 162.72310 152.19584 142.22335 133.36801 126.42744 122.34631 119.62452 115.86938 113.68521 111.38512 109.94804 109.09570 107.97928 107.23708 105.84862 105.15917 103.91276 103.27807 102.58285 102.44143 102.01055 101.90355 101.74765 101.73876 101.56733 101.43470 101.31987 101.26440 101.18540 101.13471 101.11264 101.09168 101.07128 101.05973 101.04174 101.02625 101.02625
101.00002 101.00002 101.01092 101.03061 101.04362 101.05761 101.07461 101.08341 101.11491 101.14158 101.19152 101.23509 101.27753 101.40431 101.54638 101.74287 101.96211 102.36212 102.86185 103.73202 104.08803 105.66881 106.69464 108.01996 111.39606 114.20949 118.00976 121.56712 127.36719 131.20451 137.98690 144.23397 150.03499 159.13392 167.78054 181.34920 196.26318 212.39859 228.49381 244.46530 264.64390 283.48748 304.25853 332.56116 343.69522 359.44850 354.67194 336.81805 319.05072 298.88586 279.29874 263.58107 244.43210 214.03211 201.16094 191.83906 176.63720 167.42535 156.69668 146.94342 139.98780 130.92942 127.60742 130.38420 128.79460 124.78483 120.47343 122.07751 125.93314 128.22612 132.68957 134.63862 133.79300 133.71645 146.93773 165.22557 198.11349 216.63992 239.97750 260.55866 276.35676 271.45168 247.14675 214.41588 186.19983 169.96427 154.40868 148.47703 138.95025 134.48554 127.19951 121.73942 117.89553 112.75757 110.49059 108.39412 108.07971 106.63445 105.66552 105.19423 104.62216 103.69087 103.02991 102.37719 101.86387 101.70099 101.68638 101.57173 101.55502 101.47542 101.38369 101.35253 101.30809 101.24865 101.18798 101.13916 101.11229 101.09538 101.07721 101.05737 101.04324 101.02335 101.02335
101.00125 101.00125 101.01300 101.02674 101.04331 101.05403 101.06730 101.09075 101.10497 101.13964 101.19178 101.26065 101.38673 101.49116 101.70751 101.93127 102.22759 102.79972 103.53551 104.27151 105.06556 106.29738 106.94517 109.24454 110.84193 114.20416 116.36765 121.02688 124.38899 129.65817 133.05938 139.64973 144.13326 156.12988 166.96524 179.09136 190.38708 205.32740 219.88974 245.79380 268.03735 286.87271 309.19389 334.93024 358.56946 364.05433 360.32482 341.38115 332.43295 313.38035 298.19005 272.50991 256.03302 236.42764 212.74529 196.31180 177.03011 167.33474 155.34906 147.19629 140.55793 132.82877 132.43553 133.55432 131.37415 123.39266 121.21908 126.14197 134.68322 140.27186 138.76314 144.75695 142.72106 138.67156 143.34058 167.13056 189.83289 208.82672 252.10552 267.24991 279.72513 267.82753 240.74719 214.64323 194.97136 165.74114 149.45725 139.44622 133.88082 131.04472 122.61371 116.81388 112.94851 110.39766 108.39012 106.09974 105.40742 104.82899 104.09575 103.53681 103.21112 102.71589 102.19396 101.81640 101.59443 101.52477 101.40771 101.36560 101.34336 101.34354 101.27689 101.24839 101.22129 101.19955 101.16866 101.13760 101.11469 101.09016 101.07728 101.05724 101.04264 101.02151 101.02151
101.00078 101.00078 101.01390 101.02368 101.03904 101.05364 101.06840 101.08909 101.10436 101.13935 101.18954 101.26946 101.36138 101.53817 101.70863 102.08120 102.39508 102.85070 103.34000 103.99998 104.43114 106.04062 106.62715 107.11657 109.40820 110.49043 112.59344 113.15576 117.84838 119.86354 122.69383 128.43250 136.55559 139.74763 150.47379 159.76545 177.48753 189.22238 198.94373 222.76508 253.66091 280.69455 305.01569 333.45763 355.76820 366.84059 367.06550 356.85257 337.51147 320.85672 301.16227 279.64062 258.05929 235.59960 212.65618 198.80629 183.61509 170.18416 157.06854 145.22270 142.56652 142.98773 146.36987 139.38583 130.15086 125.04151 123.82489 131.77069 140.10606 149.61009 149.86447 152.37638 155.15891 146.42584 145.14924 166.15121 181.08902 204.55247 242.42353 266.22266 282.25042 273.66007 246.42527 207.82108 186.53024 160.36947 149.79227 138.02060 134.30722 125.88769 120.10676 116.37861 113.14165 110.27004 109.18460 106.99889 105.62123 104.88080 103.96713 103.20865 102.80474 102.58083 101.94683 101.80012 101.76194 101.65989 101.53992 101.38177 101.31379 101.27997 101.24051 101.21335 101.18768 101.16989 101.15711 101.12494 101.10820 101.09066 101.07287 101.06058 101.04171 101.02558 101.02558
100.99947 100.99947 101.01245 101.02252 101.03842 101.05581 101.07063 101.08848 101.10157 101.13241 101.17277 101.22911 101.31112 101.43111 101.60124 101.73572 101.95531 102.21611 102.70397 103.12259 103.25122 103.77469 104.25223 105.49811 105.74887 106.37794 107.64342 108.43222 111.04696 114.31666 115.53504 117.89593 123.53618 128.39113 137.84320 144.77143 159.60843 171.75598 186.25171 205.90692 236.50702 261.66479 286.78904 332.42853 353.23118 367.48901 368.50985 354.79227 341.06127 329.60547 291.06944 277.21932 254.55346 236.49918 222.42710 205.21454 194.93640 180.42564 161.19977 149.98504 149.97323 152.57051 152.15201 144.41141 132.39965 128.36917 129.35114 140.47582 150.39399 157.84457 158.05682 166.01438 173.00682 155.02984 154.07031 160.17726 182.61751 203.05999 234.42124 262.32280 281.46490 273.02663 247.08088 213.25817 194.96116 173.70505 158.22238 146.10224 140.41455 131.28094 125.52801 122.22263 116.39707 114.74314 111.50324 110.15053 107.21937 105.91198 105.12708 103.84018 103.29835 102.91757 102.48439 102.44090 102.23688 101.90883 101.71799 101.56209 101.48676 101.33549 101.26762 101.22685 101.18247 101.16538 101.14679 101.12525 101.10538 101.09022 101.07787 101.06051 101.04262 101.03014 101.03014
100.99502 100.99502 101.00738 101.02546 101.04133 101.05112 101.07079 101.08766 101.10756 101.12940 101.15487 101.18909 101.24918 101.28686 101.43105 101.52883 101.76401 101.80786 101.95391 102.28197 102.23361 102.77188 103.42531 103.44055 103.76018 104.52458 105.49127 105.68066 107.03424 108.47095 110.12737 113.16169 116.67258 121.91542 129.53928 137.19810 149.64992 158.54680 184.31364 204.87288 225.73284 248.41909 286.66830 317.74493 344.66985 363.75613 366.72202 355.16837 337.12941 319.13476 295.92868 277.53936 268.51725 252.02263 239.10814 222.64151 206.58091 182.95904 169.77245 159.89199 165.76519 163.28333 153.01158 141.71411 142.90999 137.94538 135.24579 152.07132 165.51824 170.26853 175.05877 182.31414 185.20914 175.18216 169.03013 170.59158 188.87517 215.91988 242.18720 267.25015 285.66303 282.60550 268.57536 228.88152 198.70329 184.92078 166.98449 159.03699 146.55565 136.53225 131.79077 126.78510 121.01294 116.75138 113.13987 111.39970 109.64523 107.30579 105.93736 104.78224 104.11120 103.72768 103.33208 102.88214 102.66166 102.35088 102.15486 101.82962 101.66465 101.46582 101.35442 101.28908 101.21381 101.18242 101.14389 101.12354 101.10699 101.09149 101.07547 101.05823 101.04067 101.02440 101.02440
100.99510 100.99510 101.00488 101.02416 101.03972 101.05564 101.07113 101.09156 101.10699 101.12096 101.14156 101.16837 101.19361 101.22915 101.26466 101.29345 101.38854 101.51400 101.59861 101.60203 101.82003 101.94213 102.15298 102.77611 103.35835 104.36355 105.07567 105.85416 107.85460 110.14579 111.62238 114.32277 117.41833 125.43818 134.41760 139.75319 157.85483 168.79469 203.51982 212.63688 234.89225 257.21053 287.37288 319.79501 345.46327 365.85565 367.65359 359.66078 342.04852 330.21112 307.53417 297.72525 284.57396 262.73884 243.54289 221.79625 201.88756 182.48082 175.07376 179.85989 183.61878 171.17786 161.96245 149.92332 148.42489 145.50460 144.98376 160.46279 179.03868 187.29597 187.77133 194.21242 205.20846 190.99348 177.01882 172.87429 192.63310 222.87582 251.31447 270.88016 292.25181 291.36436 269.21694 238.61645 220.52305 194.22661 175.06151 165.87382 149.30480 136.09050 129.41855 124.22178 119.16866 116.20814 112.94639 110.12960 108.76211 106.58407 105.35430 104.67934 103.91595 103.69196 103.43581 103.19253 102.86127 102.46843 102.34988 102.02994 101.87175 101.64038 101.43108 101.34603 101.25443 101.18729 101.14756 101.12581 101.10840 101.08902 101.07011 101.05415 101.03916 101.02456 101.02456
100.99754 100.99754 101.00635 101.02981 101.04065 101.05642 101.07600 101.09098 101.10585 101.12231 101.14281 101.15954 101.18222 101.19761 101.22270 101.25974 101.28999 101.38467 101.46721 101.65328 101.88746 102.14594 102.54901 103.04534 103.97797 104.72595 106.07878 108.18250 110.64332 114.01303 117.20581 119.96629 121.69655 129.67960 141.90811 153.59448 171.04027 188.63892 205.37386 220.30154 238.04479 267.29786 281.15494 322.43022 339.70556 360.98581 369.36906 362.91889 353.89453 341.07346 318.91169 309.16678 287.62064 260.61333 242.60832 213.47403 207.11248 202.02518 211.16768 200.02392 191.91102 175.51235 166.59206 167.18431 166.55219 152.98664 158.74650 166.99944 193.45719 203.85718 214.51104 222.38768 217.59260 207.30740 187.11340 183.75108 196.69854 222.77721 246.82580 273.45140 293.04533 290.54230 279.78155 234.80144 217.41095 185.89877 177.59335 159.07384 143.77968 132.93350 124.31691 120.45157 113.67526 111.72576 108.34459 107.38184 106.10960 104.96534 103.99085 103.21974 103.45609 102.94084 102.98660 102.71168 102.54169 102.28159 102.20033 102.02045 101.89148 101.67597 101.54124 101.41266 101.27866 101.22430 101.17512 101.13191 101.10470 101.08746 101.06855 101.05929 101.03826 101.02370 101.02370
100.99546 100.99546 101.00999 101.02622 101.04043 101.06233 101.07686 101.09167 101.10841 101.12644 101.14306 101.16855 101.18202 101.20400 101.23446 101.26526 101.31195 101.42324 101.54612 101.75116 102.02804 102.46064 102.86063 103.46620 104.51516 105.81569 107.00547 109.35308 112.49969 116.02573 119.74851 123.97078 129.83580 137.34594 145.07740 160.28603 174.65717 186.71293 194.36907 208.71755 223.64859 252.84529 276.61397 304.92311 331.05607 353.49578 366.12120 365.70366 354.29364 346.04738 324.71006 301.75672 286.41329 248.11628 234.23006 225.94540 223.47451 230.45186 231.53251 219.68371 200.19872 184.49848 177.19876 184.46548 178.61520 165.34186 163.89677 180.70606 208.91911 219.45218 223.96531 229.36848 234.99804 225.60882 204.61911 204.19152 205.24121 224.05826 250.41193 279.66884 297.68597 288.46493 268.68582 238.43439 214.24763 187.41962 166.97617 153.52473 137.61362 129.98654 123.35230 116.03102 113.22819 108.59242 106.93413 105.69924 104.73923 103.85080 103.02149 102.61850 102.42089 102.32874 102.27206 102.12585 101.97514 101.99651 101.77003 101.77561 101.72874 101.59306 101.48284 101.38215 101.30261 101.23804 101.16584 101.13511 101.10213 101.08536 101.07017 101.05155 101.03801 101.02042 101.02042
101.00407 101.00407 101.01351 101.03005 101.04158 101.05617 101.07694 101.09562 101.11415 101.14228 101.16030 101.18790 101.21682 101.25480 101.30246 101.33134 101.45965 101.58743 101.72912 101.92943 102.31547 102.78598 103.45701 104.23448 104.88914 106.40773 108.06138 109.89106 112.69214 116.59735 120.13284 124.30381 129.90817 137.99417 144.08087 158.54232 166.20423 174.86847 181.22364 192.76170 216.80461 243.89231 264.92907 298.99436 324.00077 324.85939 345.81658 357.86840 360.25017 345.16052 324.33864 296.45777 275.65499 252.74340 243.07433 252.11418 256.21409 248.96134 246.47009 224.00965 202.98889 198.37321 206.83700 204.96609 185.77375 171.91940 182.45813 200.26557 220.98627 240.94403 241.41243 256.73981 248.66599 234.68081 223.49573 215.16746 223.25115 249.76262 270.89514 289.52676 297.80001 291.46580 257.52774 234.21346 213.00255 181.14162 168.15821 157.69298 138.62081 128.87314 121.61817 114.90373 111.10053 108.26101 106.79720 105.50724 104.02022 103.44340 102.68307 102.18544 101.91041 101.95563 101.86545 101.79451 101.65059 101.52099 101.56711 101.57403 101.47951 101.41992 101.37514 101.32038 101.26535 101.22077 101.14670 101.12597 101.10549 101.08807 101.06786 101.05539 101.03786 101.02408 101.02408
100.99766 100.99766 101.01056 101.02195 101.04070 101.05790 101.07848 101.09445 101.11231 101.15320 101.17553 101.22801 101.27491 101.33636 101.41532 101.49689 101.61779 101.78102 101.94071 102.32926 102.71495 103.43266 104.01999 104.84563 106.17208 107.29410 108.93169 110.39516 112.01107 115.29015 117.38784 120.56209 125.08500 129.37062 135.98695 146.02738 151.11812 158.14256 173.01204 189.80594 221.25105 232.86802 250.92019 273.23209 284.54470 308.78361 322.90971 338.37009 352.63598 342.39008 318.67371 301.11173 294.71977 277.29658 276.40169 276.20783 274.96867 274.62760 252.40115 229.01763 214.21777 209.77554 217.26911 217.12450 197.39777 183.71071 185.38056 214.52014 242.07610 260.32587 265.65629 271.68992 280.08818 256.62555 241.09949 242.48912 253.91758 266.70459 287.83468 300.34531 293.52675 282.52213 256.03969 232.79796 214.79755 184.37947 178.41096 161.04670 149.16420 136.32658 126.36519 119.64461 113.39451 108.56173 106.57330 105.14643 103.83027 103.16020 102.52928 102.13236 101.86621 101.72915 101.57425 101.50967 101.44522 101.38601 101.39403 101.39001 101.33498 101.30958 101.28723 101.26192 101.23886 101.18306 101.14696 101.12630 101.10868 101.08643 101.07102 101.05983 101.04037 101.02284 101.02284
100.99748 100.99748 101.00721 101.02496 101.04320 101.05669 101.07659 101.08765 101.13130 101.18275 101.21642 101.29488 101.35948 101.44177 101.59124 101.71339 101.83406 102.01991 102.24188 102.59609 102.76376 103.50612 104.21194 104.97646 105.84701 107.07828 108.32027 109.71430 110.04690 111.09843 113.61889 113.97724 118.07281 123.08252 129.05744 133.79326 142.23377 155.64545 170.65617 188.22477 198.59994 219.61675 231.40677 253.47005 265.36527 281.18123 305.47577 332.51045 348.22596 347.71199 332.61593 320.37045 312.19205 301.87474 295.63053 293.92134 299.76947 282.17881 258.13724 231.79933 229.95712 225.92580 241.18235 235.98719 208.01404 199.28308 204.29045 227.64267 257.44670 272.62837 288.06821 295.31325 295.93063 287.74840 266.62086 269.17594 280.58146 298.04758 307.38086 307.09588 288.02912 267.03517 231.29751 211.27247 197.21277 183.08674 173.34257 163.73001 154.66054 139.54022 130.09893 122.08939 116.18907 110.35894 106.90650 105.62679 104.84775 103.44353 102.56403 102.27359 102.07412 101.93266 101.84898 101.56887 101.51372 101.40675 101.40100 101.37072 101.27044 101.26268 101.23501 101.21615 101.18948 101.16938 101.14188 101.12049 101.10485 101.08919 101.07116 101.05653 101.03878 101.02378 101.02378
100.99553 100.99553 101.00700 101.01846 101.04154 101.06093 101.07929 101.10189 101.12626 101.17252 101.24795 101.34156 101.40614 101.50363 101.62417 101.74079 101.86414 101.98509 102.15220 102.53835 102.65430 103.26565 103.33971 103.88866 104.68542 105.27260 106.11739 106.24057 106.94622 108.03712 109.47811 111.64349 116.29573 117.87025 122.94313 131.59286 140.32620 155.86642 169.01761 182.79274 183.42014 192.41656 207.24950 212.86106 240.66783 257.97787 279.18107 318.89147 348.93475 352.96588 347.95871 336.82296 327.53638 322.78817 329.62063 321.19142 307.44040 283.61747 254.09211 242.41870 249.54806 267.61503 261.22668 247.14951 215.63941 205.64106 215.37769 244.74642 285.50602 299.45695 306.74053 315.22979 314.41098 297.36760 295.63801 296.35710 303.83497 308.44679 310.50525 305.54371 272.65823 253.22226 222.26538 194.12872 175.28793 166.72311 157.38421 154.94507 145.72790 139.53782 127.41067 122.84480 116.30204 111.53907 108.97648 106.67850 105.61611 104.38206 103.69792 103.24485 102.61140 102.47658 102.08716 101.90977 101.75821 101.60289 101.59141 101.42907 101.38792 101.29464 101.26432 101.21853 101.17894 101.15488 101.14118 101.11775 101.10172 101.08888 101.07006 101.05690 101.03902 101.02390 101.02390
100.99794 100.99794 101.01126 101.02231 101.04536 101.05829 101.07798 101.10415 101.11626 101.21239 101.23214 101.27418 101.36594 101.44426 101.49703 101.65189 101.65957 101.78457 101.90687 102.00716 102.07358 102.29998 102.50188 103.07776 103.31626 103.74816 103.99144 104.18345 105.11261 107.46252 109.36803 112.61420 118.31924 124.22332 129.37476 136.94325 145.43458 154.92222 161.75880 162.85698 161.26869 172.08863 174.36948 187.22394 214.04739 250.31975 285.43195 314.11553 345.51728 357.63007 360.28300 359.42757 352.09144 346.61692 338.92000 332.24616 308.59703 285.40575 269.98763 264.79197 288.05732 286.58085 280.00091 267.31393 236.72008 221.55220 240.04881 262.65900 291.88775 314.79455 319.84817 335.66189 335.42052 325.22069 320.95035 313.16917 313.04827 315.07177 301.72484 296.59411 265.38504 239.16498 213.51670 182.51337 166.55798 152.23064 142.11552 139.04372 138.11704 133.67493 125.21657 118.70828 114.25710 111.65296 108.86645 107.17920 106.07694 105.04567 104.30342 103.79070 103.41989 103.00204 102.78018 102.45337 102.28757 101.96082 101.84680 101.71100 101.54967 101.41745 101.31482 101.24054 101.17835 101.15207 101.13177 101.11511 101.10024 101.08122 101.06945 101.05916 101.04105 101.02481 101.02481
100.99686 100.99686 101.01214 101.02343 101.04346 101.06109 101.08153 101.10551 101.12614 101.17243 101.21069 101.25112 101.27591 101.34599 101.33522 101.42276 101.43526 101.48620 101.52257 101.65870 101.75461 101.88878 102.13813 102.52366 102.84926 103.41034 103.57524 104.21978 105.77527 108.48409 112.53827 116.13038 125.82320 130.92317 134.30734 140.61160 145.74353 148.02778 141.98345 141.76748 140.53248 146.06129 164.65298 180.48830 207.28575 227.00934 270.34006 299.44171 341.35603 355.63954 370.43787 368.81937 368.09927 360.94445 342.34510 331.22560 310.76153 291.44853 276.37172 292.38065 305.84961 310.54122 307.01555 270.90670 249.75973 236.40565 253.07399 279.53567 294.80913 331.23713 346.04230 352.44310 352.40795 346.68353 339.18935 324.59916 314.24651 292.14099 279.10373 268.10006 246.77536 223.05481 202.44657 185.01858 161.47416 143.46602 138.60517 129.96309 130.89197 123.97128 117.57832 115.31283 111.42886 109.11429 107.39676 106.29651 105.57460 104.65352 104.31532 103.93167 103.63927 103.52038 103.18538 102.94316 102.64766 102.32597 102.22761 101.88844 101.69117 101.54712 101.37300 101.28710 101.18840 101.15291 101.12779 101.11257 101.09876 101.08388 101.06940 101.05563 101.03861 101.02730 101.02730
100.99941 100.99941 101.01362 101.02506 101.04330 101.06389 101.08359 101.10054 101.12442 101.15046 101.18162 101.19406 101.20785 101.25072 101.28526 101.27523 101.31692 101.36497 101.52184 101.67590 101.79672 102.03860 102.71087 103.31100 103.56789 104.14702 104.58984 105.64914 107.87653 111.33518 114.55699 123.39914 128.50163 134.21093 136.45450 138.70606 136.78566 135.69470 130.64229 125.96666 130.21975 140.65277 151.30586 170.15584 196.37528 221.76537 255.11643 284.54726 319.60305 345.48586 361.45730 373.98554 371.51645 360.44007 346.30120 325.24801 310.39517 298.08549 298.36958 317.35102 325.36761 328.71326 313.82298 300.87292 269.88559 261.69031 271.97273 290.00156 320.21936 339.21158 352.91043 361.28685 360.13582 350.63282 340.10952 298.64197 289.11226 262.70301 240.29889 233.26616 223.25106 210.69820 190.70020 177.65209 162.96550 144.01268 134.86809 125.74467 119.22209 117.18659 114.22279 109.99747 108.32160 107.49784 105.97013 105.34550 104.20956 103.56340 103.35590 103.45004 103.25361 103.24217 103.26194 103.02837 102.83883 102.54961 102.34227 102.01403 101.80642 101.57650 101.44108 101.28714 101.23558 101.16213 101.13243 101.11497 101.10148 101.08462 101.07443 101.05728 101.03802 101.02521 101.02521
101.00438 101.00438 101.01102 101.02674 101.04396 101.05914 101.07697 101.09498 101.11385 101.13640 101.15027 101.17470 101.18903 101.21514 101.25020 101.26819 101.35480 101.44597 101.69670 101.73150 102.17569 102.77581 103.13961 104.12397 105.28500 106.17006 107.11600 108.89822 111.35757 115.58150 121.34030 125.33519 130.68997 133.20058 129.43365 129.49763 122.74117 121.29901 120.81334 120.74320 123.81631 137.20004 146.94141 163.55891 187.23110 212.71645 251.05863 271.07753 301.71793 342.36768 361.22994 371.68640 372.31339 363.64525 352.31719 330.74047 322.07680 326.37446 324.47513 331.70911 341.79059 337.25194 329.93765 308.74776 289.38863 282.34328 285.03647 309.17682 331.92686 346.07457 362.18785 362.64034 356.66770 345.06504 319.21644 297.70111 268.64454 245.11862 215.85414 210.52160 192.58106 181.88036 175.23834 161.00251 156.80667 144.86024 135.36546 128.38938 122.97798 115.96860 111.98004 108.79671 107.71909 107.06269 105.75672 104.79504 104.32846 103.47853 103.09745 102.58837 102.70000 102.76080 102.71661 102.69984 102.58117 102.33348 102.14215 101.85377 101.69337 101.45197 101.40050 101.28631 101.23481 101.16911 101.13987 101.11954 101.10552 101.08993 101.07305 101.05762 101.04323 101.02518 101.02518
101.00020 101.00020 101.01198 101.02728 101.04882 101.05925 101.07516 101.09331 101.10612 101.12805 101.14236 101.16557 101.21459 101.24833 101.29955 101.36011 101.49108 101.71029 101.96274 102.24811 102.83644 103.15512 104.48359 105.57554 106.39780 108.11014 109.96271 113.00798 115.45519 120.02643 123.09127 125.31045 125.92985 126.49580 124.15097 119.78394 116.12128 114.14453 113.94463 119.23415 123.08228 131.87538 142.47207 159.19007 179.42553 202.98005 232.71823 275.25280 295.53812 326.04709 354.28253 370.92563 374.11035 368.93177 360.73843 352.95619 345.71657 341.56649 344.08080 347.12116 356.39064 352.60156 344.61079 326.83191 321.95026 319.60683 323.23616 325.53022 342.65848 355.97700 361.65700 358.84933 339.93860 322.06083 310.75367 286.87011 245.56377 230.77151 192.45767 179.27682 170.02999 165.75952 163.14940 154.66242 146.96009 142.44560 135.71321 128.87774 124.53464 119.50700 115.50665 112.87438 110.73931 109.00917 107.40711 106.52617 105.49257 104.27918 103.40898 102.27975 102.10399 102.07901 102.06597 102.12107 102.03487 101.77718 101.73544 101.65799 101.53433 101.41662 101.35289 101.27397 101.23007 101.17290 101.14163 101.12486 101.10609 101.08796 101.07619 101.05878 101.04517 101.02600 101.02600
100.99902 100.99902 101.01372 101.03246 101.04420 101.05803 101.07580 101.09319 101.11521 101.13093 101.14464 101.17328 101.21886 101.26921 101.38380 101.51082 101.64957 101.87030 102.20875 102.49019 103.06958 103.49691 104.96845 106.49181 107.36984 109.86054 112.46345 114.09680 117.10232 119.18569 121.75880 121.05171 121.46424 118.24832 114.00725 112.79291 109.94340 111.09749 112.56048 118.60935 124.22462 135.25476 148.80442 163.68706 190.19101 218.99884 240.03645 269.41330 294.55465 324.60416 341.89803 360.84962 365.92476 365.37353 366.07114 362.42511 359.34025 354.83629 356.05148 357.07847 359.78431 353.95251 344.69119 342.23680 340.94183 335.70195 332.58074 345.98830 349.00439 357.23932 355.94686 340.63037 315.57141 297.02627 274.37244 273.12725 248.36428 221.31411 194.34752 168.01364 153.29538 148.51353 144.28138 140.36019 137.80844 131.83376 127.94219 125.29782 123.26366 120.35313 119.82201 116.59640 115.64721 113.28302 110.91367 109.58173 107.63732 105.69886 103.70660 102.71920 102.26039 102.00994 101.72106 101.75646 101.60949 101.53059 101.49587 101.47417 101.36781 101.30367 101.27126 101.24990 101.19537 101.16997 101.15103 101.11996 101.10575 101.09423 101.07294 101.06039 101.04310 101.03075 101.03075
101.00362 101.00362 101.01374 101.02972 101.04099 101.05995 101.07900 101.09306 101.10960 101.12765 101.14474 101.17176 101.22776 101.28654 101.41661 101.57225 101.73037 101.86135 102.18948 102.45663 102.83501 103.50456 104.75499 106.10425 107.71058 109.39531 111.65361 113.66024 114.86883 115.38810 116.03163 117.79352 113.72809 111.31808 109.13610 107.84066 108.03001 110.64317 114.51220 121.37864 132.08871 140.74734 157.61816 176.60399 195.08844 216.04384 244.44511 257.51670 280.73084 308.46969 327.05054 338.74406 344.74168 354.11278 356.03065 362.35478 355.02531 340.41617 342.07075 324.47558 340.08036 331.01087 334.45640 336.75746 341.98278 341.91424 348.27478 352.10074 348.44140 343.56190 336.47366 330.22876 307.56697 278.80230 259.27307 243.03412 226.76804 223.22718 197.11660 171.74447 147.57297 135.20683 129.83013 131.15793 128.21792 125.04296 120.94397 119.01212 119.62761 117.67774 120.29398 120.84058 119.66358 117.48683 114.67441 112.02057 108.40387 105.98577 104.38947 103.16403 102.57403 102.25550 101.99656 101.72667 101.55105 101.39063 101.35161 101.31187 101.29903 101.25563 101.23985 101.21033 101.19317 101.16284 101.14611 101.12507 101.10772 101.08521 101.07455 101.06006 101.04338 101.03098 101.03098
100.99913 100.99913 101.01178 101.02846 101.04026 101.06146 101.07294 101.09045 101.10938 101.12821 101.14060 101.16991 101.22875 101.29891 101.36515 101.48494 101.61503 101.67551 101.88176 102.19804 102.54846 103.45570 104.29636 105.46678 106.35398 108.57143 109.35688 109.66591 109.87955 111.57801 112.28596 110.13754 108.87264 107.44889 106.34929 106.58298 107.88787 110.46498 117.37861 123.37668 136.57827 139.99954 167.15165 181.99172 195.94761 211.78130 228.37446 242.21753 272.53412 292.57794 310.11160 307.31924 311.17288 330.85476 335.20395 347.82400 338.39181 324.85904 308.99632 303.79670 302.52200 304.52982 299.22258 311.46331 326.77372 332.81660 340.28666 337.60738 325.72249 316.09368 317.96593 305.28046 283.98827 271.35831 234.04167 230.68530 211.73333 201.55442 191.78114 166.02020 150.82104 134.17809 125.93245 121.97270 121.57287 118.97614 116.80803 112.52541 112.27144 115.29693 117.15906 119.43567 119.61681 118.81628 115.79889 113.60171 109.89511 107.27160 105.56589 103.79678 103.41479 102.70853 102.32393 101.93924 101.59752 101.45844 101.37706 101.29526 101.25865 101.23839 101.21538 101.20524 101.18060 101.16681 101.14714 101.12662 101.10814 101.08858 101.07340 101.06247 101.04368 101.02798 101.02798
100.99980 100.99980 101.01420 101.02460 101.04048 101.06411 101.07491 101.08800 101.10793 101.12707 101.14333 101.17172 101.19891 101.24969 101.28198 101.36857 101.44413 101.56080 101.76347 102.08981 102.48618 102.95109 103.40562 104.21511 104.90306 106.82505 107.38944 107.66655 107.40012 106.87669 106.75676 106.12884 105.17071 105.07408 105.79194 107.44345 109.94934 113.76551 122.21171 129.60281 138.49008 153.25934 169.42850 180.27681 182.98143 187.13915 205.53011 222.05914 257.70092 276.40638 281.54629 272.64000 281.17327 292.94789 308.70670 321.42284 316.67321 288.38932 269.04077 266.41692 266.97108 261.42890 259.17592 266.79124 291.81848 309.75352 321.56702 315.49674 304.89459 292.28145 278.64740 280.25498 262.13185 230.07305 218.41558 197.05058 186.49121 182.36777 182.70739 169.32194 153.69164 136.72818 127.75087 120.42011 117.06124 113.60736 111.70007 109.57753 108.89014 109.54691 113.71037 114.65130 117.04630 115.11205 113.60014 112.70509 109.97986 108.19427 106.27976 104.73268 103.95888 103.15521 102.85080 102.18004 101.87247 101.54532 101.42854 101.32447 101.27491 101.24314 101.21551 101.19735 101.17511 101.15510 101.14545 101.12452 101.10709 101.08875 101.07073 101.05973 101.04202 101.02739 101.02739
100.99614 100.99614 101.01364 101.02504 101.03990 101.05712 101.07492 101.08183 101.10804 101.12063 101.13884 101.15441 101.18910 101.20790 101.23856 101.30348 101.42364 101.52785 101.77383 101.99002 102.30656 102.34944 102.94851 103.37365 104.01623 104.37692 104.81755 105.13117 105.13778 105.17316 104.88154 104.06772 104.36632 104.86714 107.11686 108.82100 117.24999 119.67686 126.60804 135.89899 145.83344 153.60828 160.89638 164.63197 168.29468 171.91898 202.82869 220.16031 247.30819 258.46292 241.72946 254.62557 248.90497 265.15454 281.80823 290.62696 280.30771 263.26937 239.32880 219.26702 223.39754 217.39824 222.27941 244.67422 268.32950 281.56739 285.74085 279.77146 275.25178 256.94701 252.85752 238.78157 233.58931 225.77875 202.14640 184.12278 168.36754 165.75816 168.25701 163.67716 153.41492 141.24946 134.01991 122.52919 118.81892 112.92575 110.26856 107.86412 106.65369 107.23198 108.66015 111.28046 112.27205 111.25437 111.19895 109.85413 109.12281 107.21808 105.34095 104.60853 103.60300 103.18558 102.86518 102.35056 101.89336 101.64491 101.47854 101.37294 101.30054 101.26390 101.22053 101.19996 101.17496 101.15558 101.14065 101.11865 101.10419 101.08676 101.07523 101.05459 101.03777 101.02355 101.02355
101.00196 101.00196 101.01121 101.02513 101.04152 101.05635 101.07633 101.08804 101.10624 101.12060 101.13909 101.15738 101.17892 101.20312 101.23734 101.30168 101.37478 101.47103 101.68337 101.80789 101.93743 102.10797 102.25492 102.86364 103.28427 103.53784 103.43793 103.40684 103.37112 103.65710 103.17105 103.24622 103.90281 106.12102 108.67891 111.52214 118.57106 126.27775 131.63956 138.39977 144.02158 146.98363 151.29679 150.31809 159.04482 174.63389 196.66221 220.54457 236.45556 229.66126 223.48813 207.70818 218.24976 241.54254 268.79143 276.62323 258.61901 234.37490 206.01947 190.42895 196.32381 188.84775 192.52288 206.75905 233.31398 251.81745 262.11358 258.26794 241.08762 228.61984 217.87966 216.31826 208.72598 207.76294 190.47177 176.77567 153.71455 148.16594 156.83140 153.98042 150.47436 140.05130 135.34773 128.91099 123.62908 115.84114 112.32101 108.65793 107.57937 104.90578 106.13255 107.28831 108.19538 108.20830 108.93773 107.52705 107.10883 105.57139 104.25664 103.77908 103.15224 103.05692 102.65597 102.27954 101.83476 101.69085 101.46230 101.38931 101.30754 101.27310 101.22564 101.19579 101.16752 101.15510 101.13862 101.11981 101.10737 101.08457 101.07385 101.05253 101.03644 101.02251 101.02251
100.99830 100.99830 101.00936 101.02346 101.03445 101.05950 101.07237 101.08554 101.10341 101.12350 101.13677 101.15745 101.17546 101.20072 101.22331 101.29681 101.36225 101.41388 101.53281 101.62507 101.73911 101.90837 102.18833 102.52180 102.78326 102.85215 102.74102 102.36276 102.32264 102.30757 102.62428 103.71416 104.83675 106.70475 111.84282 115.29379 120.06079 127.67512 130.68130 133.07207 132.46673 136.22759 136.59040 141.78067 153.28721 174.32743 188.99712 208.54465 211.14338 210.31288 194.19017 190.24903 203.51466 215.60413 242.10282 243.09934 229.62259 212.04532 185.52057 164.30365 165.90143 169.61404 167.96114 189.64768 212.46318 226.58490 236.20601 226.75332 218.86405 194.61422 189.37945 189.39141 193.31839 193.75918 186.45420 159.71342 144.36289 137.26333 141.26912 146.77546 142.27175 139.53561 134.35213 131.29130 125.61294 121.47009 115.30882 111.92103 108.64693 105.72018 104.32429 104.71107 105.56667 106.70541 106.89989 106.43206 105.17683 104.15701 104.05687 103.12542 102.74850 102.49041 102.37146 101.94778 101.83108 101.54510 101.42899 101.35798 101.30443 101.26229 101.22658 101.20089 101.17302 101.16143 101.13209 101.12143 101.10010 101.08491 101.06970 101.05108 101.03370 101.02281 101.02281
100.99835 100.99835 101.00989 101.02734 101.03915 101.05587 101.06967 101.08634 101.10413 101.12039 101.13634 101.15429 101.17456 101.19898 101.22484 101.24157 101.30705 101.33845 101.44898 101.53690 101.68649 101.85647 102.13775 102.25756 102.35439 102.27149 102.06222 101.98886 102.04727 102.32716 103.20858 104.51895 106.03020 108.41749 112.95740 116.53668 122.84906 126.38647 130.63076 128.69277 124.81848 124.97975 128.73260 138.90659 155.40979 169.26765 181.74628 189.86593 199.57246 192.08147 178.88272 180.48475 188.16642 201.73693 222.26939 226.99289 205.05637 193.33106 165.19025 145.59853 149.45794 152.16665 152.32594 169.94930 195.07080 215.07570 208.54531 205.74590 202.30026 192.30562 173.19904 172.70929 172.13672 176.92061 161.50840 153.15048 144.87082 130.32847 132.38446 136.01239 134.79053 131.15152 129.81826 127.66226 125.09036 120.68244 116.35046 112.28394 109.18309 106.38521 104.31021 103.71444 103.77278 104.05459 105.22860 104.84744 104.50484 103.68733 103.05304 102.55379 102.24575 102.04760 102.07204 101.89989 101.67284 101.52206 101.39496 101.34826 101.26655 101.24669 101.21054 101.19754 101.17522 101.16123 101.13781 101.12229 101.10117 101.07933 101.06331 101.04739 101.02955 101.01578 101.01578
100.99996 100.99996 101.01200 101.02185 101.04222 101.05544 101.07216 101.08609 101.10195 101.12264 101.13510 101.15622 101.17212 101.18867 101.21229 101.23015 101.26423 101.31735 101.43578 101.56366 101.71058 101.79788 101.90578 101.91524 101.95722 101.79232 101.75082 101.97750 102.24306 103.02590 104.45310 104.93507 107.17019 108.72280 112.01204 116.03294 121.15716 123.57660 123.25619 121.31781 119.42219 123.24529 129.99729 138.10845 152.87241 158.25417 168.65671 170.58404 179.79913 177.28571 166.20501 162.82073 168.97389 189.57667 210.04237 208.61268 197.16046 167.84994 145.44699 137.37855 135.94582 137.17683 142.82570 155.55086 188.01563 195.78289 188.25338 190.08494 190.18666 177.26408 158.14499 153.67510 154.48344 164.56140 161.04330 154.00538 141.95443 129.84843 126.19071 128.15641 129.23455 126.67748 124.28596 121.74480 117.99127 118.10581 116.05703 114.11582 110.71226 106.43968 104.81210 103.24440 103.07117 103.31733 103.91650 104.14648 103.80806 103.29590 102.81302 102.39745 102.03289 101.77406 101.71934 101.65809 101.57984 101.47917 101.40982 101.31826 101.25994 101.22446 101.20337 101.18513 101.16857 101.15499 101.13555 101.12188 101.10003 101.08027 101.06789 101.04684 101.03281 101.01674 101.01674
101.00238 101.00238 101.01071 101.01989 101.04103 101.05128 101.07156 101.08938 101.10042 101.12025 101.13610 101.14986 101.16894 101.18216 101.20161 101.23572 101.29576 101.37579 101.44719 101.56174 101.63397 101.65130 101.72851 101.65044 101.60339 101.57724 101.65939 101.94053 102.70666 103.34148 104.87378 105.39618 107.06145 108.56254 110.85942 113.22036 115.59308 118.65868 119.26125 117.29862 115.68050 120.04227 127.63316 139.26325 145.41271 147.20513 150.72086 156.78196 161.15921 164.92812 154.56878 149.35732 159.42747 179.54684 191.16287 193.01358 179.90979 157.24982 134.87226 123.35708 127.04233 128.56661 137.96197 155.46434 167.30174 178.55366 171.24471 169.40187 170.53737 162.95038 154.15620 140.81952 136.09214 145.79052 149.56303 148.38646 135.53154 125.01461 120.04740 120.80531 122.73477 120.83473 119.51151 115.45018 115.47004 113.64130 113.27400 112.01982 109.90249 107.77338 105.66674 104.12496 102.94917 102.59594 103.04203 103.08297 103.14904 103.02692 102.75029 102.43902 102.05751 101.74605 101.54530 101.49364 101.45432 101.39274 101.36261 101.30124 101.25321 101.22411 101.19922 101.18715 101.16804 101.15142 101.13503 101.12124 101.09945 101.08055 101.06852 101.04502 101.03455 101.02058 101.02058
101.00423 101.00423 101.01142 101.02533 101.04199 101.05382 101.07049 101.09069 101.10358 101.11524 101.13912 101.15444 101.16776 101.18722 101.20555 101.23810 101.30268 101.37235 101.44918 101.46714 101.51062 101.50694 101.45888 101.44458 101.52930 101.66008 101.85714 102.12651 102.98359 103.49551 104.48418 104.95065 105.83892 106.90297 108.94926 112.08886 113.70781 113.94774 112.87742 111.96248 113.70594 118.48694 124.21463 132.33479 136.64936 135.87667 140.59986 143.73187 152.72169 148.60115 141.49401 138.99044 150.56802 170.49535 185.28307 183.21140 165.19728 147.26607 129.22425 118.67546 119.45889 119.91479 127.84984 144.91308 160.40021 163.81326 164.84842 159.86696 159.31663 159.02766 142.77345 133.27444 129.51827 135.55132 142.68170 144.63808 134.94532 123.82224 117.34118 113.85785 115.98811 117.67810 116.65357 113.85805 110.73742 109.89481 109.76416 110.47603 109.35092 108.13701 105.93080 104.65275 103.52240 102.55260 102.27360 102.28836 102.43398 102.43524 102.48113 102.32576 102.08850 101.78424 101.55585 101.43981 101.39308 101.35047 101.31936 101.28137 101.24857 101.22605 101.19956 101.18306 101.16323 101.14974 101.13616 101.11202 101.09718 101.07957 101.06431 101.05004 101.03301 101.01994 101.01994
101.00399 101.00399 101.01303 101.02803 101.03718 101.05207 101.07360 101.08678 101.10531 101.12271 101.13800 101.15180 101.16841 101.18833 101.21427 101.23501 101.29177 101.35320 101.39244 101.41401 101.40558 101.38830 101.41791 101.45672 101.56007 101.75948 102.09788 102.48838 103.00487 103.37956 103.83991 104.22300 105.27012 106.52061 108.50679 109.59007 109.59714 109.17074 108.51785 110.38029 111.94779 117.86424 120.86226 123.77087 127.90316 126.64307 132.59931 137.23864 140.43939 134.44262 131.01396 131.40109 144.07822 162.07012 172.53295 171.17086 159.60970 140.66820 127.26852 117.37386 113.12162 117.05512 126.74043 138.32626 151.97508 157.40568 149.87439 146.63664 146.15170 149.23302 135.52447 129.02588 123.67972 128.25686 135.67765 137.06461 131.67419 123.63262 117.10297 111.60065 111.32646 112.67368 112.89476 112.63089 110.17646 108.61083 108.21379 107.74179 107.70234 107.43800 105.87820 105.51677 104.02719 102.92586 102.19974 101.96226 102.02144 101.98534 102.08787 102.07845 102.01378 101.82797 101.61103 101.48598 101.36566 101.29938 101.27669 101.26535 101.24429 101.22048 101.19721 101.18385 101.16233 101.14768 101.13536 101.11210 101.10093 101.08083 101.06762 101.05063 101.03290 101.01827 101.01827
100.99951 100.99951 101.01123 101.02138 101.04278 101.05562 101.06912 101.08984 101.10688 101.12113 101.13636 101.15395 101.17139 101.18692 101.20955 101.23716 101.27126 101.30272 101.33399 101.33929 101.33297 101.38195 101.44382 101.57419 101.75277 101.95400 102.21510 102.51452 102.67576 102.76053 103.13699 103.71415 105.04261 106.25266 107.41896 107.69011 107.52003 107.01248 107.19372 109.35958 111.88571 114.82429 114.68023 114.97824 117.91831 124.02622 127.22534 132.93770 131.31392 131.15277 124.81763 131.80035 137.31715 155.08426 162.69813 161.91483 145.22909 134.72023 122.84812 113.25503 110.74107 113.85137 122.20338 132.87388 142.70805 147.76345 145.44247 137.78838 134.97035 137.44004 133.03763 124.18480 118.65408 122.98225 128.09682 130.55012 129.74911 123.42342 120.03789 110.62522 108.65836 109.51281 111.01398 110.40121 109.19840 107.38415 106.24426 105.49251 105.77322 106.28855 105.98533 105.58155 104.39371 103.30066 102.64929 101.92309 101.67986 101.64452 101.68346 101.75450 101.83573 101.82537 101.68250 101.52441 101.42603 101.31358 101.27766 101.25132 101.23756 101.22005 101.20299 101.18163 101.16719 101.14909 101.12845 101.11509 101.10109 101.08106 101.06786 101.05387 101.03238 101.02090 101.02090
101.00124 101.00124 101.00968 101.01811 101.03920 101.05509 101.06924 101.08948 101.10165 101.11996 101.13639 101.15378 101.16897 101.18433 101.20192 101.22691 101.25075 101.27661 101.29619 101.30989 101.33991 101.44587 101.51493 101.66822 101.79457 101.98239 102.10289 102.17505 102.34090 102.53807 102.77697 103.75467 104.74485 105.59306 105.83923 105.33361 105.13982 105.29894 107.04935 108.83904 110.05001 111.45511 112.85262 113.25953 115.17435 116.85700 121.30087 125.87626 126.02668 123.42027 117.96049 124.46582 135.15505 145.80233 151.77667 148.64919 139.06022 131.24163 121.28364 113.16962 110.16862 111.61751 117.64316 128.60464 136.65229 138.22182 139.93260 129.81836 129.87300 131.98747 127.39503 119.38902 115.61866 117.31370 121.51302 123.14510 124.28880 120.81146 116.82438 109.73704 106.91648 107.67067 108.35335 108.55712 107.71012 106.84847 105.50322 104.68816 104.39150 104.85347 104.78099 104.59476 104.15823 103.47838 102.85026 102.06263 101.81508 101.62476 101.55737 101.60042 101.64969 101.67707 101.63153 101.54289 101.45947 101.32637 101.28336 101.25182 101.23736 101.21581 101.20007 101.18086 101.16924 101.14860 101.13361 101.11496 101.09665 101.08273 101.06477 101.05233 101.03641 101.02475 101.02475
101.00485 101.00485 101.01020 101.01780 101.03734 101.05615 101.06722 101.09008 101.10183 101.11456 101.13568 101.15173 101.16727 101.18277 101.20189 101.22314 101.23508 101.26066 101.28267 101.31137 101.37834 101.46374 101.60042 101.69825 101.81307 101.84341 101.87203 101.89480 102.04305 102.42284 102.87234 103.42612 104.01151 104.09586 103.91814 103.67523 104.06304 104.80927 106.40341 107.30345 107.80157 108.62202 108.59149 109.93080 112.46098 113.33998 118.81564 121.19764 120.13877 116.70305 117.34175 123.94883 131.58074 137.76059 141.48451 137.65583 133.59990 125.67406 119.77915 112.26636 107.91362 111.12905 114.39168 121.24250 134.07673 135.04506 132.56224 125.78491 124.06376 125.20980 123.30784 116.49906 112.30108 111.07012 114.21205 117.90001 119.25915 118.60742 114.90931 109.01627 107.74672 105.70951 104.66451 105.27788 105.41120 105.58275 104.91395 104.03974 103.63382 103.58107 103.55970 103.76413 103.49842 103.15247 102.86642 102.41340 101.93375 101.72522 101.52354 101.45408 101.49586 101.58589 101.55915 101.48632 101.45051 101.35582 101.30105 101.25217 101.23188 101.21375 101.19804 101.18101 101.16246 101.14986 101.13217 101.11576 101.09704 101.08546 101.06575 101.05408 101.03700 101.02435 101.02435
100.99707 100.99707 101.00973 101.01937 101.03997 101.05077 101.06379 101.08598 101.09415 101.11303 101.13046 101.15195 101.16250 101.18531 101.19809 101.21597 101.23727 101.25570 101.27626 101.31974 101.39754 101.47725 101.59176 101.69899 101.68269 101.68231 101.63758 101.77379 102.06879 102.45291 102.89733 103.19247 103.23788 102.81889 102.97520 103.19110 104.16737 105.15639 105.85308 106.05471 106.15459 106.09731 107.14418 108.54565 110.21071 112.65745 116.11085 118.45207 117.60717 112.87041 114.66331 123.58233 128.23975 131.27548 134.67543 131.79020 127.71739 119.01081 113.80899 108.01983 107.07587 108.60695 114.01140 119.80689 127.78530 132.56106 129.88756 122.02918 117.98653 117.71104 118.64047 115.27671 111.28601 109.29946 109.88193 112.42623 114.56442 115.84131 113.27985 111.17743 108.28460 105.35502 104.03731 104.12200 104.13403 104.36000 104.38473 103.88143 103.07243 102.72698 102.60506 102.58994 102.68187 102.71511 102.56319 102.42521 102.12553 101.78336 101.58539 101.47797 101.44423 101.45063 101.47810 101.45195 101.40230 101.34923 101.29779 101.25680 101.23678 101.21699 101.19695 101.18403 101.16487 101.15151 101.13441 101.11400 101.09856 101.08597 101.06910 101.05365 101.03691 101.02373 101.02373
100.99879 100.99879 101.01007 101.01915 101.03468 101.05015 101.06307 101.08092 101.09807 101.11390 101.12823 101.14848 101.16586 101.17951 101.19571 101.21648 101.22922 101.25255 101.28175 101.34420 101.41081 101.46896 101.53469 101.56059 101.52277 101.53273 101.56554 101.77909 102.14859 102.39705 102.75490 102.84976 102.57842 102.39882 102.77113 103.11820 104.40472 105.13722 105.29072 104.63923 104.65169 105.18713 106.23256 106.95749 108.69852 110.81351 113.73260 114.51184 112.29464 109.86959 111.89022 118.44590 122.81710 123.97113 124.22550 124.11469 122.84347 115.81622 110.99377 106.68892 105.41631 107.13951 111.51250 115.31734 125.26598 127.76925 125.35211 120.00953 113.66457 114.61337 114.93359 112.34336 110.50057 106.45292 107.24164 110.18297 111.42454 111.25796 111.72202 111.29963 108.12740 106.04086 104.46065 103.01584 102.99461 103.55390 103.33896 103.37473 102.79966 102.49507 102.17452 102.13002 102.08623 102.15458 102.29949 102.17340 102.00486 101.76321 101.59411 101.49762 101.43313 101.39906 101.40135 101.39844 101.36320 101.32217 101.29266 101.26110 101.23673 101.22022 101.20072 101.18239 101.16748 101.14901 101.13479 101.11612 101.09915 101.08564 101.06646 101.05637 101.03752 101.02124 101.02124
100.99726 100.99726 101.00918 101.01858 101.03370 101.05043 101.06220 101.07906 101.09702 101.11312 101.12567 101.14608 101.16154 101.17549 101.19600 101.21021 101.22636 101.24636 101.29328 101.33511 101.40479 101.46407 101.48843 101.48842 101.45426 101.48401 101.60103 101.79449 102.16360 102.37596 102.45751 102.41023 102.12712 102.37547 102.65708 103.58278 104.29299 104.55849 104.14069 103.72906 103.90500 104.81322 105.20025 105.78986 107.25131 109.77878 112.11305 110.68109 109.66818 107.93337 110.17583 116.00068 119.43705 118.59360 118.27309 118.85367 117.35000 113.18416 108.76011 105.78830 104.51823 106.26077 110.49252 114.52186 120.83720 125.53190 122.75720 116.66249 112.21683 111.44098 111.78214 111.24044 108.37166 106.28817 105.47006 106.87540 107.73649 108.06824 109.53014 110.26136 109.42938 106.74395 105.06174 103.24116 102.28378 102.23481 102.52594 102.65714 102.51104 102.41553 102.11770 101.88505 101.79851 101.90068 101.92165 101.87194 101.81928 101.73709 101.62007 101.48929 101.43183 101.37486 101.35972 101.35861 101.32072 101.30704 101.28684 101.25789 101.23845 101.21802 101.20641 101.18196 101.16871 101.15041 101.12894 101.11559 101.09481 101.08538 101.06596 101.05621 101.03743 101.02120 101.02120
100.99546 100.99546 101.00606 101.02156 101.03652 101.04559 101.06346 101.08022 101.09231 101.10874 101.12921 101.14503 101.16188 101.18150 101.19096 101.20954 101.22606 101.24290 101.27543 101.32476 101.37556 101.40179 101.41158 101.40707 101.43922 101.51298 101.70135 101.81368 102.08828 102.16206 102.22123 101.98527 101.97260 102.26774 102.88786 103.29365 103.64510 103.74089 103.31149 103.17044 103.30348 103.91948 104.29438 105.37829 106.64923 109.46269 110.46259 108.76201 106.93444 106.95343 110.37497 113.34414 115.23523 114.39535 113.27981 114.44378 113.84748 110.68197 107.31665 104.65878 104.05146 104.95966 107.58983 111.00460 119.09844 121.08025 120.43940 116.01494 110.99301 108.91812 109.94967 110.36628 108.56921 106.62095 104.99286 104.68202 105.34473 106.15965 107.50335 109.12336 109.23178 107.37038 104.55565 103.61134 102.51027 102.10334 102.14350 102.11502 102.21196 102.16105 102.11280 101.79588 101.70388 101.62316 101.64947 101.66556 101.65349 101.62532 101.54647 101.46943 101.41270 101.36998 101.33469 101.31666 101.30254 101.28860 101.26975 101.25291 101.23395 101.21988 101.20431 101.18203 101.16926 101.14825 101.13442 101.11499 101.09880 101.08378 101.06889 101.05282 101.03650 101.02184 101.02184
101.00386 101.00386 101.00753 101.02086 101.03536 101.04955 101.06343 101.08052 101.09378 101.10981 101.12539 101.14699 101.16277 101.17472 101.19027 101.20913 101.22417 101.24580 101.26824 101.31299 101.34480 101.36558 101.36666 101.38170 101.43775 101.52706 101.64044 101.83276 101.93016 101.94122 101.90597 101.79572 101.93181 102.21751 102.67709 103.00064 103.00598 102.82629 102.58448 102.64368 103.04539 103.41311 103.73648 104.92393 106.73628 108.15957 107.94410 106.38251 105.56220 105.58855 108.64782 112.62118 113.79150 112.56780 110.86726 111.56000 111.49270 109.38826 106.24067 103.61451 103.56724 104.93952 106.65845 111.22794 115.35252 117.73840 117.46589 113.09175 109.84454 107.52646 108.16018 108.62827 108.47002 106.21001 104.53077 103.56333 103.62271 104.19082 106.26916 108.27649 108.76406 108.26602 105.67715 104.05724 102.81870 102.02905 101.83239 101.79994 101.89658 101.90993 101.78155 101.73126 101.61089 101.53402 101.51096 101.53077 101.52054 101.50977 101.46562 101.43007 101.39252 101.35983 101.32827 101.31615 101.30049 101.28257 101.26849 101.25661 101.23495 101.21393 101.19945 101.18161 101.16512 101.15183 101.13340 101.11334 101.09471 101.08455 101.06640 101.05353 101.03659 101.02243 101.02243
101.00182 101.00182 101.00746 101.02710 101.03740 101.05114 101.06689 101.07832 101.09841 101.11040 101.12696 101.14613 101.16138 101.17450 101.19155 101.21118 101.22808 101.24873 101.26528 101.29018 101.31678 101.32492 101.35786 101.38104 101.43208 101.52671 101.61371 101.73003 101.66856 101.66155 101.62700 101.69302 101.93904 102.23552 102.49915 102.69429 102.29621 102.18861 102.16222 102.45462 102.65519 102.77906 103.12714 104.49789 105.80526 106.89121 106.38677 105.02937 103.97411 105.01031 108.13600 109.92618 111.72928 109.48817 108.12649 108.76596 109.72034 107.06518 105.18052 103.48311 103.23283 104.07717 106.40777 109.84763 115.08497 116.14755 113.65839 112.16823 108.64138 106.39935 106.93704 108.05702 107.97846 106.35949 105.05116 103.24255 103.06839 103.98327 105.54381 106.69442 107.76449 107.49954 106.23123 104.33720 103.27839 102.56492 102.06107 101.76355 101.64352 101.64309 101.70372 101.69455 101.60700 101.53722 101.46293 101.44758 101.46048 101.43188 101.42158 101.39432 101.36989 101.35235 101.32994 101.31430 101.29941 101.28052 101.26665 101.25168 101.23406 101.21387 101.19706 101.18271 101.17010 101.14680 101.13193 101.11389 101.09634 101.08274 101.06549 101.05259 101.03599 101.02344 101.02344
100.99903 100.99903 101.00967 101.02490 101.03793 101.05600 101.06758 101.08306 101.09856 101.11385 101.13029 101.14686 101.15897 101.17849 101.19242 101.21515 101.22609 101.24630 101.26445 101.28519 101.29988 101.32255 101.34202 101.38205 101.40303 101.46394 101.52177 101.55793 101.54822 101.54224 101.53613 101.67249 101.89323 102.12636 102.31132 102.19985 101.96804 101.81386 101.93738 102.21573 102.35497 102.42805 102.76327 103.92967 105.25953 105.65609 104.84057 103.93413 103.75407 104.82439 106.93820 108.82365 109.51357 107.57911 106.59206 106.84548 107.59247 106.56868 104.62346 103.09236 102.93422 104.00988 106.35037 108.56046 111.23845 112.33483 112.30736 109.61251 106.79877 105.54847 105.47569 106.77009 107.36003 106.57740 104.68026 103.33296 102.74075 103.08547 104.25812 105.60701 106.73061 106.63688 105.78710 104.57331 103.51883 102.75923 102.13347 101.76168 101.61742 101.53639 101.56161 101.61137 101.60197 101.53924 101.47683 101.43596 101.41728 101.40423 101.39431 101.37993 101.36385 101.34359 101.32883 101.31212 101.29889 101.28232 101.26965 101.24711 101.23498 101.21986 101.19790 101.18053 101.16548 101.14476 101.13317 101.11591 101.09764 101.08279 101.07281 101.04896 101.03643 101.02108 101.02108
101.00452 101.00452 101.01554 101.03009 101.03861 101.05723 101.06926 101.08729 101.10013 101.11236 101.13080 101.14867 101.16019 101.17861 101.20011 101.21388 101.22964 101.24624 101.26709 101.28605 101.30212 101.31405 101.34566 101.36130 101.40402 101.43619 101.45393 101.46561 101.48305 101.47914 101.54348 101.65581 101.89259 102.03818 101.91518 101.86188 101.61539 101.66294 101.87625 102.02597 102.03364 102.47599 102.73282 104.00148 104.14806 104.65725 103.64371 103.01480 103.22709 104.22539 106.20669 107.49571 107.14162 105.70445 105.21941 106.12688 106.59356 105.91050 104.00790 103.02441 102.64310 103.90104 105.85769 108.45805 110.36610 110.54404 109.71022 107.46369 105.89003 104.24105 104.34476 105.31426 106.36446 105.85623 104.72075 103.15864 102.62196 102.75872 103.37654 103.83014 105.25168 105.50065 104.77293 103.82446 103.42212 103.01678 102.32378 101.95451 101.60605 101.49129 101.46998 101.51033 101.52827 101.49667 101.48320 101.43050 101.40477 101.38749 101.37904 101.36906 101.35616 101.34073 101.32866 101.31121 101.29693 101.27992 101.26409 101.25110 101.23274 101.21430 101.19470 101.18174 101.16503 101.14704 101.13004 101.11578 101.10302 101.08253 101.06715 101.05324 101.03625 101.02263 101.02263
101.00386 101.00386 101.01734 101.03356 101.04313 101.05815 101.07115 101.08835 101.10732 101.11883 101.13561 101.14767 101.16223 101.18173 101.19826 101.21186 101.22769 101.24941 101.26714 101.28299 101.30029 101.31896 101.33507 101.34668 101.38522 101.38926 101.39572 101.40653 101.42094 101.47651 101.61554 101.74874 101.84925 101.81951 101.68158 101.55059 101.55167 101.60731 101.76466 101.77956 101.90839 102.17019 102.89466 103.59652 103.85209 103.50118 102.57800 102.48166 103.16404 104.19443 105.55325 105.90514 105.54558 104.52842 104.45464 105.42327 106.11298 105.14099 104.06212 102.63617 102.20789 103.37445 104.26459 106.32944 108.28354 108.83699 107.52787 106.84830 105.10759 103.71413 103.54346 104.55416 105.10289 105.21036 104.40604 102.89344 102.34067 102.15034 102.82906 103.32273 104.30670 104.64457 103.93580 103.47625 103.19766 102.80243 102.44146 101.98503 101.74628 101.50435 101.43608 101.42925 101.45299 101.48194 101.46448 101.43160 101.38459 101.37480 101.36431 101.35974 101.34956 101.33741 101.32631 101.31057 101.29306 101.28032 101.26390 101.24690 101.23043 101.21456 101.19495 101.17884 101.16085 101.14669 101.13359 101.11525 101.09836 101.08483 101.06766 101.05047 101.03865 101.02252 101.02252
