25.25000 25.25000 25.25268 25.25761 25.26914 25.28123 25.28564 25.29670 25.31267 25.34024 25.40792 25.51787 25.62928 26.06032 26.53787 26.87326 27.58277 28.22871 28.27692 28.13578 27.77739 27.77061 28.75880 30.22263 31.40708 32.97048 33.94286 34.90316 35.88730 36.02264 38.60739 38.67014 39.04691 43.54778 49.55671 56.46581 60.65028 66.38372 70.37659 72.96460 70.11210 67.52656 65.85460 66.07217 71.96536 78.75087 88.32722 92.89140 92.56173 87.85195 87.95316 88.58778 90.82710 95.32915 101.90352 104.99324 108.19869 108.57343 109.71296 110.15041 112.09198 111.95948 112.54124 113.11707 112.65407 111.73280 112.51113 112.48775 111.03791 109.98631 108.97475 105.24683 104.93321 101.61073 98.60895 97.14589 96.93977 94.52367 90.64328 80.88174 73.51728 71.62748 69.19404 60.98029 56.47779 60.10387 65.58519 71.09725 72.03050 70.47589 64.15712 57.48855 53.12981 51.32389 50.07672 47.01020 46.10376 43.82541 40.88442 38.93639 36.65133 34.45702 32.87835 30.82811 30.06621 28.25411 27.31848 26.48910 26.14730 26.15141 26.15798 26.23034 25.99325 25.79632 25.60083 25.45672 25.38636 25.34581 25.31114 25.29406 25.28831 25.28300 25.28300
25.25100 25.25100 25.25349 25.25824 25.26812 25.28193 25.29089 25.29489 25.30699 25.32520 25.37121 25.44896 25.63415 25.87172 26.21815 26.70879 27.59094 28.36249 29.07921 29.54491 29.11229 29.84831 29.78929 30.36963 30.76105 32.65504 34.99846 37.53297 38.14814 41.79310 42.87272 42.55503 42.52468 42.19924 46.68506 52.32410 59.06926 66.29351 71.60767 76.31354 80.11139 77.49762 74.95294 71.25835 72.28413 78.58824 86.12121 94.24216 96.58965 94.43509 95.30839 96.32991 98.91691 99.50364 107.43737 110.09077 110.33837 111.15249 111.96675 112.47372 113.11780 113.41568 113.22585 113.74114 113.49129 113.73107 113.92878 113.79356 112.83667 112.08072 111.51408 109.80601 109.34525 107.97741 105.76925 100.99393 101.93100 98.90696 93.67101 85.21840 82.24558 77.07259 71.64814 65.13996 65.56101 68.04911 77.64924 76.39958 76.87026 70.36875 64.90234 61.62019 60.06689 58.82133 56.35261 51.08595 46.71627 45.05000 41.81510 38.21469 36.79496 34.07166 31.52948 29.81379 28.46299 27.55449 26.90756 26.26925 26.33881 26.52607 26.59792 26.41865 26.05494 25.80846 25.59450 25.44660 25.37374 25.33325 25.31470 25.29975 25.28890 25.28200 25.28200
25.25000 25.25000 25.25382 25.26121 25.26845 25.27926 25.29098 25.30350 25.30767 25.32924 25.36018 25.40945 25.56216 25.73217 25.91922 26.37895 27.28709 28.57703 30.04824 30.52131 31.45792 32.01225 32.63646 31.55472 32.09504 32.77218 34.64587 38.54813 42.43459 44.92645 48.28635 48.27720 47.59026 45.93027 46.13191 49.61522 56.61958 65.78074 72.70683 81.03888 84.19125 86.33027 81.94525 79.05444 78.36387 79.76973 87.41494 94.29418 99.34749 101.11132 100.28409 102.22550 104.52287 107.23962 109.17052 111.89007 112.40606 112.21532 112.24700 111.67661 112.28472 112.13530 111.95056 111.84528 112.26289 112.37465 112.93468 113.09325 112.81090 112.57610 112.45228 112.49614 112.46167 111.55190 111.31165 110.22997 104.29407 101.37717 97.49116 91.11175 87.68043 79.89351 73.14553 70.58450 74.50412 80.38870 82.78175 82.74537 79.13496 73.54169 68.36155 65.91438 65.54070 62.70278 58.15879 54.48590 49.15544 45.01683 41.45346 38.07812 34.80645 31.98121 29.65649 28.97857 27.96746 27.02292 26.89167 26.85588 27.13931 26.99293 26.63812 26.32223 25.92307 25.71626 25.48882 25.38019 25.35637 25.33663 25.31525 25.30151 25.29138 25.28200 25.28200
25.24900 25.24900 25.25460 25.26304 25.27046 25.27946 25.28944 25.30992 25.33159 25.36315 25.41667 25.45729 25.60237 25.69677 25.95872 26.31844 26.88285 28.18147 30.27263 31.73584 32.86234 35.24868 36.15773 36.76165 35.97595 36.33520 35.56147 37.71934 41.71478 48.11047 51.73784 53.41592 52.70563 52.04484 50.30496 49.87952 54.25694 61.55386 72.84790 80.03837 87.37894 88.91110 87.44086 87.87038 88.59859 90.63128 89.74157 95.40973 103.40304 105.44396 107.67325 108.93885 109.42702 110.01618 111.31978 111.83362 110.97804 110.97395 111.09577 110.87912 110.34239 110.39793 110.13792 109.97881 110.44242 110.60316 110.67804 111.53926 111.12112 111.28288 111.43439 111.90566 112.47537 112.98211 112.88716 112.30204 110.10160 105.79709 104.30776 95.34181 90.87553 83.94680 81.31073 79.98504 81.92642 84.30542 88.73770 86.20114 81.89122 77.25619 71.11076 67.78868 65.14494 61.34693 56.65355 51.71731 46.94415 43.78624 38.91364 34.91755 31.91823 30.29078 29.69366 29.22941 29.01966 27.94805 28.06656 27.86698 27.49420 27.08289 26.59023 26.09612 25.92179 25.71720 25.52023 25.44727 25.40081 25.35744 25.33324 25.30178 25.29163 25.28200 25.28200
25.24900 25.24900 25.25458 25.26357 25.27301 25.28164 25.30001 25.32662 25.35795 25.40466 25.50868 25.64499 25.77810 25.93641 26.35039 26.49415 27.51083 28.50737 29.49012 32.13056 33.34805 36.23784 39.45906 40.18998 40.10543 40.15550 38.92657 38.52022 40.86449 45.93283 50.47870 54.86423 58.78555 59.72748 59.73880 57.57503 56.74193 62.88369 73.79516 77.60794 85.68065 91.95587 93.71155 96.19624 94.92178 97.30707 98.83932 100.31363 105.97551 109.71052 111.25206 111.20247 111.01999 110.63321 110.85266 110.29178 110.04343 109.60171 109.06808 108.98582 109.14279 108.54740 108.41330 108.71009 109.05828 108.81426 108.72780 109.36101 109.54873 109.87616 110.26442 110.76016 111.42140 112.16178 112.59368 112.63002 112.65294 109.53489 106.56037 102.17704 94.60592 88.33304 87.75185 89.17662 90.64641 93.72049 91.32365 89.56831 82.69563 77.00105 69.93802 67.36794 60.95119 57.15539 52.52098 45.89494 42.64138 39.02215 35.03777 32.95440 31.84530 32.05723 32.81814 31.48121 30.33667 29.47591 28.48401 27.96712 27.42688 27.18996 26.61244 26.39113 26.24256 26.02757 25.83765 25.59982 25.46433 25.39752 25.34192 25.30663 25.29021 25.28200 25.28200
25.25100 25.25100 25.25720 25.26683 25.27498 25.28351 25.29551 25.33675 25.38478 25.45911 25.61036 25.78772 26.04414 26.29147 26.75602 27.34271 28.05543 29.18547 30.38422 31.55488 34.41848 37.36007 40.51582 44.63010 45.77399 45.19928 44.74549 42.69801 43.45779 45.30869 49.87482 54.47827 60.68011 65.62093 66.14012 63.74418 62.80490 62.85714 70.20914 76.32559 81.83644 90.92927 97.47440 98.65727 102.27963 102.86952 104.02355 107.51577 109.13364 111.08153 111.44472 111.38368 111.00528 109.99232 109.37252 108.77543 108.16448 108.03300 107.92229 107.60559 107.18886 106.82673 107.49434 107.19140 106.68469 107.82994 107.07968 107.32131 108.29971 108.60854 109.11942 109.24139 109.84416 110.56875 111.75839 112.11449 112.43151 111.77502 109.51187 106.22200 100.40887 96.91055 95.50973 96.58455 97.48765 97.42459 94.78980 88.15715 82.79622 76.78984 68.82005 62.18844 56.22758 51.90332 47.13234 42.18077 38.34931 36.44669 34.86392 32.97215 33.24757 34.71027 34.34539 34.59678 31.32474 29.40336 28.51231 27.98953 27.43031 27.60877 27.28856 27.29774 26.91061 26.56308 26.08201 25.72470 25.52239 25.40600 25.33648 25.30972 25.29191 25.28200 25.28200
25.25000 25.25000 25.25896 25.26669 25.27506 25.28639 25.30077 25.33294 25.37074 25.43779 25.58847 25.78090 26.08834 26.49455 27.08181 27.40757 28.79706 29.81678 30.76781 32.35451 34.59846 37.69135 41.61139 45.42386 48.73944 49.12747 50.47864 52.54114 52.23853 52.44791 53.08675 55.15136 61.61823 69.03647 72.92959 72.65661 69.43548 69.62732 71.16425 72.46073 77.35275 91.51920 98.32461 103.55521 107.22713 109.29090 109.75345 110.24645 111.30755 111.76130 111.10137 110.77563 109.58359 109.10907 108.22689 107.63173 106.72379 106.06453 105.81808 105.54222 105.13346 105.16491 104.27817 104.87559 105.21947 105.69872 106.18271 106.20965 106.09660 106.93136 107.18503 107.27220 108.48877 108.40793 109.85714 110.66432 111.73420 112.03240 110.74480 109.71707 107.48630 105.46016 103.70150 103.99375 102.61159 100.52993 94.59799 87.40807 79.79416 73.11356 67.94129 63.14525 57.13998 49.97573 45.72437 39.73782 36.06948 36.87309 35.60222 36.70329 38.60593 39.03365 37.55838 35.42334 32.97019 30.41334 29.61307 28.96993 30.10303 28.97364 28.90443 28.34183 27.01031 26.79517 26.06620 25.85242 25.55813 25.43675 25.37004 25.31237 25.29722 25.28300 25.28300
25.25000 25.25000 25.25882 25.26500 25.27431 25.28728 25.30148 25.32069 25.35581 25.40140 25.45459 25.59436 25.91876 25.98464 26.61791 27.05516 28.69095 29.72432 31.02556 32.65375 34.84120 38.42596 41.19357 46.04814 49.89419 52.57080 55.26693 56.12920 58.44030 57.17091 58.95894 60.35794 62.85265 70.18624 74.42232 77.51324 76.40696 75.75288 75.02125 75.18898 78.49728 88.53220 98.58197 105.42980 109.39358 111.64707 112.17214 112.20591 111.90121 110.89226 110.16193 109.43078 108.58932 107.85729 106.82119 105.34874 105.22361 104.32954 104.26390 103.65672 103.76533 103.66351 103.29807 103.38108 103.20376 103.07144 103.40480 103.51746 104.02964 104.71765 105.52717 106.18089 106.45344 107.41827 108.03022 109.14032 110.21000 110.92032 111.33047 111.11256 111.28289 109.73906 109.11629 108.44825 106.09759 100.98056 95.60722 86.94761 79.46120 73.81632 68.52213 65.50440 60.54910 49.62603 45.04516 42.17959 39.11298 41.43408 41.36519 41.02567 41.19871 41.28983 38.19923 36.17874 34.06662 33.46929 31.95195 31.54287 31.57541 31.20954 29.86165 28.70904 27.38955 26.67574 25.96583 25.74800 25.54206 25.43826 25.35267 25.31879 25.29554 25.28300 25.28300
25.25000 25.25000 25.25740 25.26326 25.27308 25.28939 25.30264 25.33315 25.36401 25.38458 25.41301 25.47447 25.60442 25.87148 26.04998 26.43001 27.97183 29.33840 30.90900 32.00911 34.44834 37.53324 39.75196 44.29804 47.40804 51.54568 55.38058 57.90335 62.34891 64.97981 64.34358 66.91716 68.36393 73.41714 78.39351 82.14712 85.23262 83.52218 84.52514 85.86179 86.83236 89.08705 99.02390 106.69683 110.42395 112.53208 112.82346 111.55751 111.00763 109.98600 108.94082 108.02832 106.50991 106.14251 105.30311 104.15885 103.74894 102.99388 102.24479 102.29398 101.85179 101.85897 101.64471 101.89672 101.88835 101.86022 102.08682 102.16737 102.74302 103.44844 103.85644 104.29055 104.72086 105.67750 106.56782 107.62338 109.08103 109.74606 110.56535 111.41177 112.16074 112.40535 112.22449 111.27860 106.91579 102.38076 94.72646 89.54774 79.89979 73.66789 66.02511 61.54048 58.21543 51.97755 46.32815 49.66938 47.79408 50.57798 46.35631 48.50655 45.33700 42.09424 39.28926 37.33288 38.44335 38.33479 37.38682 36.80003 33.10845 31.54479 30.06457 28.55691 27.39146 26.29768 25.77346 25.58016 25.46467 25.41918 25.34256 25.31175 25.29387 25.28300 25.28300
25.24900 25.24900 25.25488 25.26380 25.27152 25.29297 25.31491 25.36014 25.39103 25.45804 25.47309 25.52162 25.56497 25.76422 25.95996 26.37571 27.10090 27.53866 29.77603 30.47015 33.08100 33.58247 37.59467 39.78271 44.72102 47.20628 51.08592 56.02229 61.92844 65.25451 69.18393 73.36679 74.66388 75.55271 81.48980 84.70173 91.16620 91.81078 92.77131 93.18558 96.06547 96.14944 100.75789 107.31598 110.94689 112.14389 112.23696 110.80451 109.86882 108.52906 107.37197 106.29987 105.36332 104.37345 103.31783 102.85590 102.01741 101.39337 101.16553 100.70378 100.39680 100.27376 100.30988 100.01405 100.20816 100.37487 100.62061 100.51385 101.00134 101.43426 102.20501 102.92633 103.58620 104.12471 105.49687 106.14171 107.41743 108.15277 109.71899 110.46216 111.73725 112.52432 112.61491 112.41574 107.70201 100.75579 91.33540 86.51702 77.44478 69.54351 64.65439 56.84840 52.28792 52.67891 50.69144 54.19947 52.90575 59.63810 58.10926 53.72469 49.24456 44.23410 44.06000 41.97335 41.22770 42.04265 40.13809 37.85344 33.58470 31.06056 28.70014 27.37313 26.55061 25.95717 25.68655 25.58469 25.51384 25.43218 25.40048 25.34856 25.30744 25.28700 25.28700
25.24900 25.24900 25.25375 25.26278 25.27594 25.28911 25.32321 25.37214 25.44886 25.51243 25.56645 25.71966 25.71014 26.08908 26.42298 26.72438 27.10279 27.30897 28.02504 29.12262 29.55720 30.99256 32.81415 36.67979 40.79118 41.35333 46.61475 52.92849 59.66322 63.70530 66.64938 72.20181 75.87522 79.41859 83.89103 89.87021 93.94370 97.26479 97.97018 100.58131 104.28887 104.66013 108.71226 109.92748 110.89560 111.31497 110.67051 109.64019 108.61985 107.04953 106.10725 104.61713 104.00571 102.77307 101.97549 101.43198 100.84687 100.17350 99.62820 99.38322 99.11623 99.00029 98.98869 99.13767 99.03076 99.12165 99.25291 99.81619 99.65722 100.07956 100.81314 101.64145 102.07292 102.37994 103.40902 104.86524 106.40437 107.33783 108.02453 110.02170 110.39734 111.81968 112.28335 112.06967 105.59944 99.21587 92.67125 82.39570 74.52391 70.23766 65.38651 61.05342 58.70283 57.91452 61.06785 64.54719 66.20571 64.52986 63.43208 58.90468 52.03170 49.14771 48.74312 48.67339 47.58219 43.06830 41.68191 37.83235 33.26100 30.05624 28.03913 26.83159 26.03743 25.85290 25.89501 25.83780 25.75666 25.57116 25.50044 25.39446 25.35598 25.30400 25.30400
25.25000 25.25000 25.25526 25.26647 25.27392 25.28963 25.30820 25.37197 25.42746 25.51957 25.67671 25.74159 25.95146 26.57066 27.15021 27.95678 28.34214 27.98299 28.18142 27.99576 28.74607 29.84157 30.20532 32.95655 35.15119 38.61188 42.13655 46.61662 51.89526 57.39499 61.96338 66.75099 74.22856 76.56448 83.50374 90.26262 95.93813 100.77224 103.51932 104.90098 107.63370 109.59597 111.66206 111.51456 111.25149 110.22611 108.70562 108.02404 106.99837 105.95140 105.05882 103.57401 102.32292 101.28982 101.13915 100.06607 99.63996 99.01889 98.73372 98.60115 98.20437 98.03857 97.89166 97.97824 98.03263 98.22210 98.17449 98.24288 98.71931 99.16463 99.22268 99.69460 101.02488 101.54174 101.82939 103.17122 104.02428 106.13306 107.25642 108.33189 109.62351 110.98745 112.09476 111.59329 109.64703 97.85276 91.80927 83.96639 79.49679 77.23821 74.29077 70.35356 65.48349 65.90695 68.39378 70.90683 72.96230 71.37949 66.66206 60.60199 55.39464 52.86122 54.33406 52.31729 48.58694 44.76564 39.87599 35.44603 31.45892 28.58394 27.44380 26.33348 25.96185 26.38697 26.39864 26.47991 26.16907 25.79546 25.59174 25.44917 25.39625 25.32900 25.32900
25.24900 25.24900 25.25555 25.26531 25.27666 25.30168 25.33292 25.40050 25.47349 25.54498 25.73717 25.89742 26.12940 26.77587 27.46642 28.44920 29.82217 30.27968 30.48555 29.60568 29.56573 30.55215 31.23686 31.45793 32.49569 35.34253 38.66204 43.55004 44.38748 49.45694 50.19932 59.59747 63.65641 73.08897 79.79719 89.74004 91.24928 98.79664 102.52532 108.33327 111.67056 112.73882 112.85023 111.90046 110.98646 109.61861 107.96665 106.82146 105.32062 104.39666 102.77441 102.11578 101.32408 100.36111 99.67893 99.03876 98.44593 98.11988 97.94513 97.78955 97.64828 97.38618 97.32656 97.18036 97.41909 97.50742 97.49927 97.66797 97.73356 98.03746 98.58192 98.80691 99.33713 100.36199 101.06681 102.22449 102.92292 104.20192 105.81609 107.38677 108.54209 110.20869 111.39691 111.30785 109.94163 103.31459 98.53464 90.30163 87.26170 85.54694 80.96496 76.64538 74.11415 73.84382 75.49787 78.37616 77.66945 72.98409 68.38475 63.96258 60.39639 58.44203 54.98121 53.03068 47.42510 41.88693 37.18623 33.69337 29.26993 27.83936 27.13577 26.89831 27.28512 27.37307 27.24034 26.97169 26.41457 26.17824 25.76436 25.55573 25.39697 25.34500 25.34500
25.25000 25.25000 25.25598 25.26406 25.28384 25.33467 25.36925 25.45681 25.55875 25.75681 26.07789 26.54842 26.72040 27.26039 28.42826 29.78862 31.31243 32.65087 32.18129 32.79257 34.07141 35.08970 34.22704 33.09454 33.02533 33.20544 35.48394 38.09840 41.46505 42.24716 47.56478 48.45980 56.21923 66.23087 74.77072 80.34743 88.32309 92.50520 102.10315 106.94239 111.31435 113.48279 112.83849 111.16965 109.98783 108.95495 107.30612 105.82569 104.42398 102.86442 102.03667 100.51519 99.89226 99.10898 98.81874 98.39101 97.92189 97.54642 97.30403 97.06066 97.02020 96.89638 96.87601 96.85081 96.80332 96.96744 96.93403 97.04083 97.38747 97.47770 97.62419 98.01020 98.62840 99.22886 99.54112 100.92954 101.88522 103.34061 104.57337 106.07941 107.89152 108.93482 110.66554 111.32017 110.13724 107.35390 103.95522 102.78026 97.16200 94.14045 87.04754 82.71500 80.53403 81.94104 81.41952 81.92939 80.53069 75.01523 71.28072 66.19745 62.40965 58.87327 54.42444 46.76035 45.59010 39.63098 34.64905 31.90823 28.86379 27.19707 27.14051 27.90095 28.60890 28.43470 28.18991 27.63321 26.96554 26.27442 25.80676 25.58336 25.39746 25.33000 25.33000
25.24900 25.24900 25.25578 25.26917 25.28466 25.36768 25.43793 25.58599 25.80193 26.11828 26.87540 27.38248 28.14516 28.98050 30.33649 31.58307 34.11814 34.87258 36.33725 36.77509 37.88247 39.01747 39.77974 36.10093 35.01454 35.60176 36.19047 36.79244 38.83182 40.44299 43.92319 45.66248 50.39374 56.84831 64.57235 69.81631 80.48034 86.72098 94.65963 104.63013 110.88086 112.54393 111.98355 110.42726 109.17565 107.21851 106.07087 103.95619 103.26995 101.92067 100.75269 100.16304 99.55995 98.47246 98.02832 97.46906 97.24510 97.06444 96.80804 96.71751 96.59739 96.52138 96.40714 96.36913 96.52577 96.51698 96.64217 96.68643 96.87686 96.95852 97.13859 97.43213 97.74897 98.36524 99.00538 99.52399 100.87124 102.12895 103.47710 104.67590 106.70570 108.13966 109.74956 110.55799 111.03701 111.18652 107.26894 105.58427 102.98958 97.01771 95.39709 89.60365 88.67889 85.99626 84.17187 81.48327 77.11121 73.63169 70.41356 65.56725 59.41702 55.92633 49.30137 46.40385 38.72679 35.55240 32.59694 29.39952 29.11218 28.51805 28.91057 30.31836 29.77352 29.22806 28.71108 27.69633 26.89475 26.14608 25.82238 25.61102 25.39651 25.31300 25.31300
25.25100 25.25100 25.25567 25.27014 25.29005 25.38063 25.49453 25.76260 25.91843 26.37056 27.17874 27.96026 28.85415 30.68863 32.00655 33.20787 35.77855 36.79769 38.78015 41.63459 42.53957 44.13460 43.39324 43.59048 42.21304 39.75129 40.54691 43.61910 41.74703 42.78819 46.93301 49.39952 52.57549 58.10240 62.81112 67.84152 74.99021 87.95591 93.76259 103.98512 109.95921 112.09023 111.45321 109.91289 108.28343 106.41652 105.08079 103.91138 102.65821 100.89019 100.24276 99.03014 98.13420 97.76600 97.46762 96.97323 96.71283 96.69331 96.49481 96.30466 96.21417 96.15512 96.16730 96.09684 96.10692 96.13078 96.21666 96.35647 96.52085 96.56674 96.75116 97.03824 97.29651 97.80079 98.23462 98.82162 100.22312 101.16152 102.46486 103.79716 105.66592 106.87078 108.70332 109.99468 111.48459 111.98717 112.43946 109.63016 108.12611 104.17469 98.33392 94.23774 91.37184 88.07722 81.22847 75.59597 72.04281 66.96340 66.30658 61.44490 57.00272 50.21247 45.74935 40.02607 34.84717 32.65315 30.38134 29.88422 29.85675 30.44087 31.39284 31.42145 31.96848 30.82493 28.33447 27.64450 26.65575 25.99535 25.85252 25.53068 25.39468 25.32500 25.32500
25.25000 25.25000 25.25506 25.26267 25.30320 25.38116 25.54468 25.64846 26.05857 26.54355 27.42354 28.15618 29.04520 31.11332 32.86601 34.57725 35.86211 37.44906 38.42531 41.13352 45.35627 46.01524 46.91909 47.90215 48.08116 49.25646 48.23240 48.13182 49.55824 47.20478 49.41435 55.20605 60.36469 65.68577 67.66835 75.56330 81.64198 88.49344 94.63917 103.83519 109.54188 111.22991 110.08092 109.28839 107.83390 106.22514 104.16761 103.01171 101.19679 100.32696 99.09985 98.68382 97.83434 97.43152 97.05907 96.69935 96.40196 96.24380 96.16453 96.05153 95.95039 95.85437 95.87877 95.89657 95.88017 95.93897 96.03992 96.05431 96.11958 96.27757 96.41272 96.63012 97.00474 97.48606 97.76384 98.44067 99.03891 100.58214 101.92982 102.89842 104.65211 106.30766 108.01105 109.25611 110.38847 111.95871 113.17295 112.54026 110.13575 106.72936 101.13267 97.02252 91.60505 85.51665 78.65561 69.78109 63.17205 59.79680 58.35994 56.70285 52.09624 45.26296 39.72075 36.65256 33.28847 31.98347 32.59925 32.97466 33.36321 33.63408 34.73709 33.91360 32.45661 31.37664 29.37347 27.68345 26.77457 26.18082 25.86410 25.60271 25.43188 25.34900 25.34900
25.24900 25.24900 25.25679 25.26641 25.30706 25.36782 25.48189 25.69550 25.76773 26.25274 26.86386 27.91027 28.64721 29.45662 32.06565 33.05643 33.22259 33.75564 35.33007 38.40586 42.35697 45.75180 48.52773 51.14920 51.91318 55.42700 55.32184 56.13959 55.93396 54.67769 57.39027 58.60743 65.94033 69.25015 79.14897 82.03702 87.40468 96.69750 101.57850 104.87905 110.28385 110.54938 109.76750 107.97747 106.71333 104.96745 103.60599 102.03639 100.77688 99.60486 98.63583 97.91018 97.41055 96.95979 96.68051 96.46556 96.23415 96.06379 95.96005 95.83673 95.83194 95.77529 95.75526 95.74454 95.72542 95.74287 95.81510 95.88858 95.94736 96.05613 96.18004 96.35588 96.64472 96.96086 97.40805 97.87827 98.85822 99.77532 100.73631 102.32125 103.11826 105.94598 106.44353 108.46428 110.14973 111.35847 112.06064 112.29596 109.45689 104.77622 98.47813 95.36704 87.46196 80.27455 75.60885 68.70405 61.74867 59.77541 53.62543 49.88325 46.81702 43.38302 39.57331 37.07509 35.53618 34.93661 35.27531 35.88509 37.29126 36.50394 35.45388 34.04893 32.12887 30.30310 29.63033 28.16117 27.35555 26.55276 26.05743 25.67503 25.52896 25.36000 25.36000
25.25000 25.25000 25.25616 25.26544 25.29875 25.36684 25.41810 25.51295 25.58122 25.80535 26.30885 26.73330 27.59129 28.29947 29.20904 30.92866 31.24882 31.09947 32.99255 34.67288 39.79020 43.49952 47.20720 50.06860 54.80390 57.92487 61.48211 62.50946 64.41933 65.29204 65.55483 64.10674 68.41325 79.23126 85.64113 90.46407 97.55043 100.60643 105.59897 110.13076 111.40122 110.54406 109.03536 107.83285 105.79941 104.26507 102.67587 100.88648 100.12154 98.93731 97.82114 97.70759 97.03946 96.67452 96.43027 96.23892 96.06242 95.87891 95.78625 95.68940 95.67013 95.62967 95.61432 95.60800 95.61539 95.57353 95.64500 95.74702 95.77814 95.89253 96.04060 96.24278 96.42033 96.55684 96.98764 97.47882 98.25083 99.19837 100.05198 101.45894 102.61134 104.72241 106.14515 107.68732 109.61337 110.67690 111.98026 111.39080 109.08741 103.58744 98.28727 91.46302 85.78402 80.20827 75.58504 74.65689 68.48650 62.79055 56.55090 49.37488 45.02429 42.45099 41.81233 41.27349 39.03502 39.02989 38.13907 37.81408 37.63561 36.46023 35.08101 32.80320 31.71347 29.65346 29.05692 28.45560 27.36014 26.55885 26.09846 25.69749 25.56011 25.40900 25.40900
25.25100 25.25100 25.25311 25.26616 25.27881 25.32627 25.35420 25.39681 25.43617 25.62859 25.78079 26.11406 26.53944 26.99635 27.44551 28.58903 29.07492 30.46010 31.86842 34.00454 36.02309 40.61554 45.85446 49.50160 55.57379 60.74767 63.55791 67.35406 70.11467 73.32781 72.10953 73.47690 74.96871 82.50081 92.02985 97.74706 102.85831 106.58608 110.11141 111.47061 110.84630 109.98431 107.99745 106.77408 105.07803 103.73902 101.95611 100.27173 99.55399 98.37404 97.72544 97.16842 96.70979 96.51920 96.16753 96.03308 95.91306 95.78125 95.68166 95.61633 95.54413 95.51861 95.50545 95.48675 95.48925 95.50590 95.51629 95.57236 95.65065 95.71341 95.89154 95.97934 96.28266 96.48250 96.63159 97.14485 97.79442 98.39600 99.60261 100.58187 101.79963 103.73065 105.22027 107.24866 108.76184 109.93602 111.35106 111.55458 109.28432 103.96872 99.72467 93.89218 88.42677 86.27572 80.83785 78.14301 72.14852 68.53637 59.36082 52.59984 49.04296 45.64618 46.76850 45.35118 42.29096 40.28282 38.48187 36.93764 35.59108 34.02966 32.21844 31.05252 29.30018 29.17929 27.95901 27.73041 26.91671 26.40680 25.97053 25.65688 25.51587 25.41400 25.41400
25.25000 25.25000 25.25319 25.25951 25.27692 25.29692 25.31427 25.35833 25.41406 25.55099 25.83903 26.21741 26.40527 26.78529 27.33867 28.01864 29.55643 30.76442 34.45310 36.41878 38.26296 40.06813 46.50022 51.64586 55.27394 61.72228 66.42177 69.86123 75.33720 78.24921 78.25024 79.12461 82.45451 85.54334 93.51390 101.42606 105.38214 110.80721 111.97182 111.70251 111.31074 109.47670 107.67935 105.92693 104.51233 103.29591 101.80203 99.87478 98.92423 98.11425 97.59404 96.94062 96.60982 96.26166 96.02646 95.89192 95.74721 95.67946 95.55629 95.50185 95.44337 95.43567 95.42087 95.39905 95.42206 95.43067 95.46549 95.51206 95.58246 95.64660 95.75644 95.85516 96.02737 96.32246 96.55040 96.91276 97.67006 98.10324 99.01018 100.12696 101.12194 103.04344 104.52164 106.01563 108.33099 109.58437 111.04092 111.43728 110.96052 105.97819 102.29897 98.40236 94.64428 90.95245 86.32686 81.48861 75.92397 68.02544 60.20637 56.24263 54.62123 54.56451 50.32580 47.36858 44.44656 40.44626 38.18986 36.00776 33.22736 31.60173 30.22120 28.96342 27.62675 27.21909 27.33454 26.80658 26.47682 25.92717 25.71984 25.49806 25.44605 25.38400 25.38400
25.24900 25.24900 25.25474 25.26599 25.28614 25.30141 25.34568 25.40257 25.49818 25.76678 26.23167 26.90715 27.51961 27.99097 28.44796 29.87865 31.04671 32.87413 36.28290 39.81598 42.40662 44.45963 50.18901 54.52055 56.80759 64.78614 67.59774 71.70125 75.10170 78.05330 79.86417 82.40552 85.06990 90.61012 96.95303 101.24340 107.30294 111.95900 112.96406 112.19025 110.98015 109.48305 107.94191 105.90240 103.79660 102.23360 101.18161 99.66540 98.90966 97.88051 97.28340 96.86874 96.41627 96.11134 95.90901 95.81092 95.68663 95.51046 95.50035 95.42399 95.39632 95.36943 95.33861 95.33949 95.32715 95.36839 95.37360 95.44843 95.49477 95.56046 95.68201 95.78480 95.87515 96.11049 96.44312 96.74233 97.21981 97.82590 98.75340 99.51572 100.79474 102.18736 104.27060 105.42545 107.53376 109.39325 110.83453 111.74210 111.48837 109.67267 105.94883 102.60490 98.69225 93.38023 87.38454 81.53228 75.56747 68.76908 63.64724 60.43628 59.30397 56.93962 53.00535 49.40659 44.94411 40.45181 37.09634 35.66340 33.18456 31.42731 29.87419 29.28934 27.65663 27.26794 26.94416 26.24505 25.97584 25.82253 25.65301 25.55869 25.44200 25.37000 25.37000
25.24900 25.24900 25.25351 25.27313 25.30248 25.36187 25.40492 25.48170 25.69997 25.90335 26.48679 26.93923 27.75391 29.14624 30.13369 31.79905 33.88346 35.53532 37.42196 42.84108 44.69862 49.21664 51.96229 55.85288 60.54661 62.87522 65.80281 68.46419 71.56691 72.66621 76.22234 80.77301 84.11679 90.06181 95.29581 101.60696 106.42631 110.91632 112.99441 112.38582 110.66362 109.17672 107.48643 104.86306 104.00052 102.01473 100.55103 99.21648 98.40865 97.67489 97.09842 96.64558 96.40921 95.99093 95.85792 95.74146 95.60489 95.48297 95.45624 95.37427 95.33474 95.30241 95.29579 95.27514 95.28620 95.29877 95.33096 95.36373 95.46148 95.51911 95.60379 95.69976 95.81998 96.03756 96.30604 96.58474 97.15531 97.54136 98.38109 99.21337 100.63273 101.97175 103.52585 105.40215 107.28651 108.88570 110.63113 111.70028 112.46847 111.75427 107.96180 103.40361 99.51078 92.95819 87.99469 81.90645 76.14802 71.98689 67.31982 64.15289 60.92697 57.14002 54.10395 49.15331 44.85297 41.19668 38.20290 37.19755 34.88479 33.22001 31.37953 30.13797 28.27731 27.66257 27.10903 26.57375 26.28418 26.20026 25.89560 25.67067 25.51963 25.40300 25.40300
25.24900 25.24900 25.25678 25.27484 25.32764 25.38980 25.47262 25.64027 25.79731 26.08421 26.61683 27.14558 28.18358 29.32194 31.06873 32.63926 34.94442 37.94357 41.16653 44.61385 47.90245 51.45636 53.03189 56.02677 57.62511 58.28150 59.28593 61.66299 63.36565 66.51275 67.00106 73.59194 77.36785 85.54093 93.29598 100.11034 105.57642 109.61828 112.22947 111.72846 110.51498 108.91582 107.45142 105.33489 102.99411 101.74175 100.28827 98.82502 98.35837 97.43694 96.98514 96.46614 96.23217 96.02530 95.79273 95.67716 95.54354 95.44720 95.37410 95.33573 95.30814 95.26086 95.25548 95.24550 95.24587 95.26563 95.27980 95.32875 95.37865 95.45948 95.56897 95.66055 95.79726 95.92110 96.17096 96.52570 96.92015 97.34536 98.55111 99.05992 100.10115 101.81337 103.41916 104.85584 106.08816 108.50685 110.52882 112.07824 112.49239 112.24550 107.54814 102.70594 97.39224 91.57162 86.41040 79.81385 75.49782 70.42545 64.14950 59.12278 56.18966 52.10911 47.42121 44.46842 42.92692 39.73157 38.74381 37.18557 35.48924 33.70623 31.77891 30.52859 29.18842 27.79777 27.57352 27.08837 26.87444 26.41825 26.09963 25.73511 25.58924 25.44300 25.44300
25.25000 25.25000 25.26419 25.27873 25.33143 25.42030 25.56824 25.85352 26.10451 26.56116 26.84448 27.71958 28.41670 30.00342 31.53833 34.86401 36.66872 39.54655 41.92043 45.46119 47.41517 51.07670 51.41069 50.94481 52.06759 50.68665 50.83225 50.57766 54.94866 56.60809 60.86510 67.14989 75.37005 81.05098 92.04983 98.26892 105.50881 110.60713 112.76142 112.03873 110.19071 108.53048 107.07398 105.15784 103.12658 101.70547 100.17528 99.07931 97.90198 97.38479 96.83903 96.44822 96.16051 95.95124 95.74718 95.65236 95.51277 95.40668 95.35228 95.28389 95.25656 95.22652 95.20977 95.20145 95.21167 95.23125 95.25235 95.32066 95.35257 95.42055 95.50852 95.62153 95.75288 95.94380 96.06706 96.46605 96.80308 97.28319 98.32906 99.08951 99.80701 101.10997 102.84754 105.19314 106.50561 108.61524 110.11844 111.88548 112.30597 111.85591 108.54156 103.55686 97.36727 90.43127 85.43178 77.77072 72.15371 68.22975 61.23673 55.47177 51.30129 46.52364 41.47965 40.56672 37.31333 36.29592 35.16906 35.19025 34.37392 32.26560 30.61590 29.26374 28.22553 27.64156 27.45666 27.21307 26.99732 26.57299 25.99444 25.78563 25.56779 25.44700 25.44700
25.25000 25.25000 25.26645 25.28311 25.33156 25.45758 25.62508 25.97836 26.24989 26.80545 27.58946 28.23973 29.46581 30.66032 32.85323 34.01441 36.00945 37.69295 40.85595 42.44314 43.80629 45.28311 45.75059 45.89161 43.72191 43.34749 44.25026 46.70531 50.95760 56.53976 63.49397 67.91344 75.17253 81.12910 92.35520 99.54806 106.25202 111.26590 112.29563 111.90265 110.26809 108.82918 107.28800 104.58863 102.87463 101.54606 100.26999 98.85652 98.10034 97.63266 96.72688 96.45829 96.13693 95.91106 95.76381 95.58391 95.50562 95.40196 95.32412 95.27300 95.23003 95.20849 95.18627 95.18413 95.19469 95.21976 95.24013 95.28958 95.34527 95.38843 95.48472 95.60362 95.73296 95.91709 96.08220 96.33075 96.82872 97.26514 97.97914 98.90218 99.84388 101.26211 102.73875 104.78878 106.27423 108.04139 109.97264 111.67329 112.55646 111.91458 109.06488 104.64668 98.02696 92.22241 83.98415 79.02419 71.36678 64.34050 59.99799 53.78203 48.68682 43.44645 40.38411 36.41110 34.21268 33.14745 32.78606 31.91262 30.98917 30.67582 28.80816 28.03663 27.11147 26.64617 26.63842 26.59619 26.57369 26.12330 25.93474 25.66277 25.50116 25.39800 25.39800
25.25000 25.25000 25.25587 25.28785 25.34720 25.41041 25.61107 25.87883 26.19677 26.94309 27.75695 28.66655 29.89407 30.96739 31.96032 33.08569 35.06995 35.69293 36.95982 38.89737 39.22376 40.54262 41.89566 39.82326 39.62893 42.06052 44.82311 49.44239 51.45445 55.81268 62.80589 68.53339 75.45541 85.45411 93.67031 99.27085 106.64369 110.89245 112.66631 111.60161 110.20433 108.86961 106.72395 105.17658 102.94654 101.66054 100.26355 98.93752 98.03266 97.47388 96.81995 96.30996 96.13220 95.82985 95.73617 95.59251 95.49801 95.38960 95.34422 95.27675 95.22964 95.20597 95.17946 95.17333 95.17681 95.19721 95.23255 95.30079 95.34106 95.39041 95.50389 95.58754 95.70594 95.93388 96.10301 96.40646 96.81097 97.35684 97.92940 98.74525 99.51920 101.07651 102.32247 104.77966 107.26376 108.25159 110.04511 111.25504 112.37140 111.59819 108.64499 104.56225 97.67204 88.51781 79.86396 74.84231 68.24905 63.03117 59.07137 54.12139 48.34564 43.55698 39.24271 35.70489 33.31488 32.03971 31.11460 30.04856 29.58218 28.42777 27.66441 27.22246 26.72130 26.58590 26.37868 25.99378 25.97295 25.91869 25.72120 25.55958 25.42505 25.36200 25.36200
25.25000 25.25000 25.25180 25.27136 25.31985 25.40567 25.49966 25.73571 25.89796 26.29546 26.84714 28.00755 28.69302 29.83190 30.15544 30.08694 31.11067 32.87699 33.46613 32.55320 34.72221 35.17674 35.20689 37.31319 39.28347 44.77226 50.21981 54.24401 59.56140 62.93909 66.49571 73.91457 78.97974 87.69472 94.29292 99.61169 106.43723 110.09044 112.20689 111.40101 109.88361 108.65387 106.92315 104.92159 103.07017 101.38274 100.28223 98.86364 97.93506 97.44258 96.88557 96.43014 96.09736 95.88073 95.68795 95.58194 95.50159 95.41429 95.34627 95.27641 95.23931 95.20725 95.19474 95.18226 95.19358 95.19752 95.23800 95.28418 95.35109 95.39569 95.50210 95.60641 95.71233 95.95926 96.12768 96.38142 96.79672 97.40717 98.12792 98.84286 99.96280 101.17055 102.74947 104.69983 106.23664 108.23249 110.00200 111.31984 112.63617 111.54747 108.77161 102.03663 95.36474 87.71200 77.33817 70.04720 66.88034 58.93011 54.07462 51.59676 45.81881 41.96234 37.79304 35.57693 35.31103 33.38145 31.89145 30.96292 30.13907 29.65039 28.34227 28.56485 27.89275 27.01243 26.35964 25.89715 25.82868 25.66717 25.54223 25.45065 25.37998 25.33500 25.33500
25.24900 25.24900 25.25416 25.27658 25.30255 25.34413 25.39971 25.49212 25.59274 25.80902 26.25213 26.47943 27.54761 27.79951 28.07918 28.29022 28.15783 29.81973 30.18652 30.77024 30.99207 32.30527 33.43396 36.40315 41.73747 46.83053 54.18666 60.83364 66.18400 71.01153 74.43416 78.95393 80.92734 89.28992 96.26925 101.00622 105.95592 109.94521 112.16978 111.09002 110.02553 108.22174 107.30610 104.65847 103.31752 101.61203 99.97204 98.66065 97.92117 97.45681 96.82381 96.49322 96.16845 95.93885 95.75339 95.59278 95.50579 95.43266 95.38218 95.30002 95.25207 95.22169 95.20670 95.20541 95.21913 95.22261 95.26490 95.29249 95.36474 95.42845 95.53247 95.64705 95.74497 95.90165 96.20384 96.43940 96.84633 97.48070 98.22574 99.01989 99.93643 101.73644 102.61899 105.14992 106.50311 108.68787 109.53338 111.46688 113.13263 112.71522 108.48919 106.21840 95.19018 91.44240 85.40155 75.94622 64.23643 60.41520 52.71217 51.67235 48.24759 45.30982 43.63684 42.67667 40.64972 38.80329 36.44391 32.95326 31.74382 32.53681 32.77050 30.32443 29.29338 28.68053 27.78276 26.45329 26.19418 25.81913 25.58154 25.53809 25.40479 25.35300 25.35300
25.24900 25.24900 25.25709 25.26825 25.28214 25.33268 25.37665 25.42124 25.50758 25.55579 25.76663 26.06153 26.35673 26.82136 26.97823 27.61836 28.11332 29.48865 30.69460 31.43438 32.79963 35.15882 36.32449 39.62728 45.68479 50.84451 55.95042 62.34596 69.04009 73.53615 76.76846 81.47885 85.43489 88.07872 93.45345 98.83965 103.72778 108.23392 110.43703 111.15855 110.30011 108.67239 107.02700 105.47687 103.14894 101.79086 100.24883 99.23429 97.81095 97.48744 96.96934 96.48007 96.27154 95.97119 95.81190 95.64811 95.50945 95.45349 95.40748 95.34540 95.28394 95.25635 95.22824 95.22734 95.23979 95.26532 95.28301 95.32396 95.39661 95.46631 95.54184 95.66331 95.81759 95.94620 96.23707 96.55493 96.93657 97.43096 98.25027 99.26315 100.10426 101.86665 103.58926 105.17376 106.79853 108.50134 110.23702 111.76699 113.33448 113.35329 110.66255 104.99459 101.33375 93.83953 90.94733 83.94106 76.49668 64.34135 59.88235 56.67139 54.95573 51.48158 50.07479 48.25212 47.28725 42.55269 41.48810 37.68471 35.89276 34.44504 34.05554 33.31159 31.73586 30.03471 29.08608 27.92496 27.16067 26.27379 25.78659 25.65011 25.54657 25.39100 25.39100
25.24900 25.24900 25.25847 25.27550 25.29399 25.33248 25.43555 25.61199 25.61662 25.93284 25.93999 26.37399 26.73801 26.98886 27.40827 28.03380 30.02349 31.72063 32.72330 34.42573 36.59008 37.87595 41.51459 44.28528 47.30220 52.29066 56.79004 60.56635 64.97711 71.29500 73.83104 76.91559 79.38605 84.87497 86.97032 95.05818 100.00134 105.39015 108.96793 110.35135 110.37645 108.86243 107.31343 105.47663 103.81367 102.38718 100.69638 99.17143 98.37668 97.40655 97.06976 96.61305 96.32309 96.04711 95.85485 95.71348 95.61186 95.48305 95.43189 95.37267 95.31988 95.31356 95.29643 95.27739 95.30268 95.30170 95.34404 95.37819 95.42377 95.50537 95.58761 95.71347 95.80675 96.07821 96.22771 96.57731 97.01791 97.78974 98.48662 99.37654 100.48829 101.60533 104.21915 105.95112 107.25551 109.38681 110.40138 111.92885 112.76471 112.58910 110.28076 105.95620 102.38474 95.91603 90.63374 85.48918 79.23814 73.16176 66.96161 62.72933 60.95856 56.12952 53.10598 51.41167 47.42419 45.00974 41.90848 39.34727 37.75151 35.99341 34.75851 33.56555 32.35279 31.38102 29.64707 28.71948 27.80490 27.03651 26.38097 25.90388 25.60374 25.44800 25.44800
25.24900 25.24900 25.25898 25.27128 25.30749 25.35432 25.56113 25.75461 25.97578 26.41645 26.62078 27.33397 27.82015 28.40938 28.70703 29.90267 31.57886 34.08808 35.48449 37.14748 38.81695 41.45980 42.44797 44.09218 46.49022 49.23277 52.41893 55.80663 57.99452 62.51262 66.18824 70.38413 71.78723 74.31752 80.54034 89.14818 95.55367 101.30628 107.48814 109.65561 110.38094 109.39728 107.91366 105.79315 104.22945 102.32923 100.93661 100.01416 98.58621 97.76318 97.11744 96.75043 96.52638 96.17578 95.93019 95.76363 95.64355 95.58554 95.48246 95.42872 95.37809 95.35035 95.33894 95.33264 95.35126 95.36746 95.38044 95.43475 95.49520 95.57802 95.63905 95.74009 95.94788 96.14161 96.40813 96.72305 97.12160 97.75187 98.65109 99.76795 101.38647 102.28504 104.06321 106.07277 107.41774 110.01621 110.56846 112.03210 111.86181 109.23910 107.26090 102.55301 99.44479 93.99953 89.21060 84.08574 78.96752 74.24898 70.03248 65.49162 61.07599 58.18748 54.26267 50.76613 45.46216 42.29105 39.41619 37.81827 35.28585 34.47900 33.22842 32.14079 31.85299 30.99241 30.16568 29.05008 28.24627 27.22917 26.53398 26.12459 25.68047 25.42600 25.42600
25.25100 25.25100 25.25865 25.27421 25.31933 25.38087 25.57105 25.69865 26.19820 26.85638 27.40317 28.30082 29.04814 29.90299 30.60987 31.75612 33.23328 35.60788 36.86934 37.83363 37.23542 38.81423 40.00057 39.97547 41.48485 43.05045 45.63183 49.98192 50.30693 52.60799 59.80454 61.66616 65.68282 71.36007 77.73199 84.45628 93.20857 102.42336 107.15285 110.26149 110.76562 109.34024 108.21740 105.78897 104.34917 102.96686 101.28499 100.01158 99.19177 98.15897 97.41560 96.93668 96.64824 96.36009 96.08008 95.87723 95.74500 95.63073 95.58207 95.50541 95.45905 95.38684 95.40007 95.41406 95.44510 95.46914 95.48644 95.50488 95.56136 95.61972 95.75880 95.85124 96.00814 96.31736 96.55115 96.96530 97.46546 98.09738 98.94596 99.76827 101.51526 102.81199 104.82136 106.69590 108.21748 109.73138 111.56238 112.27667 111.27945 106.72292 101.54659 97.12216 92.95522 87.21979 82.34641 82.78282 76.53165 72.16413 67.14540 63.05928 59.82033 56.51032 51.63615 47.50087 43.14214 39.70907 38.18113 35.74683 32.97288 31.89125 30.44192 29.55199 29.79981 29.87101 29.00324 28.22483 27.73995 27.10731 26.41588 25.97542 25.65492 25.43700 25.43700
25.24900 25.24900 25.25804 25.26550 25.30625 25.41538 25.58046 25.83022 26.04731 26.62523 27.60900 28.67778 29.60745 30.57079 31.21940 32.02685 33.31575 34.16589 34.87328 36.47474 35.48895 36.06036 34.09559 36.65640 37.47777 39.35913 41.31437 43.29158 46.96347 51.11484 56.99289 60.38827 68.88393 72.74614 77.94656 86.26860 94.37874 102.74863 108.88407 111.48061 111.38463 109.77923 108.15366 107.07254 104.83393 103.03329 102.20712 100.74438 99.30994 98.48358 97.67187 97.21244 96.73281 96.51656 96.34882 96.01968 95.84807 95.74795 95.65404 95.60059 95.53502 95.54484 95.50549 95.48586 95.51640 95.54490 95.56185 95.59253 95.72293 95.78605 95.86331 96.02609 96.10647 96.41741 96.89088 97.18036 97.74853 98.25660 99.40148 100.49658 102.32215 103.48276 105.08681 107.13965 108.71078 110.32734 111.50701 111.71771 109.65197 105.75759 96.63200 90.71314 83.82327 78.79992 76.01497 75.09807 74.88979 69.42450 65.93168 62.14810 59.83448 56.79782 53.68148 50.33271 45.05747 41.84416 39.27013 35.58767 34.09049 31.87700 30.63909 28.63269 27.67771 27.74971 27.89414 27.28575 26.95625 26.69808 26.11512 25.82462 25.57518 25.40100 25.40100
25.24900 25.24900 25.25895 25.26737 25.29832 25.33861 25.50507 25.71176 25.82416 26.86222 27.09890 27.65445 28.85619 29.40909 29.54761 31.01964 30.82022 32.05960 32.28337 32.00356 32.37687 32.59413 33.96495 36.14808 39.52745 42.59614 45.56334 51.42748 51.70215 55.73361 60.61533 65.57930 73.37912 80.71467 85.24214 90.74570 97.07730 104.17393 109.45083 110.86788 111.30854 110.10911 108.88419 107.30484 105.85210 103.73293 102.38282 101.35060 99.90995 98.98948 97.98483 97.55446 97.03062 96.69369 96.38964 96.24744 95.96360 95.87934 95.81015 95.70979 95.67736 95.63501 95.61961 95.62702 95.65885 95.64119 95.67010 95.72865 95.80296 95.91479 95.97590 96.19582 96.40022 96.61156 96.99160 97.37460 98.32921 98.91313 99.88529 100.88230 102.67217 104.15585 105.62373 107.82999 109.03120 110.07076 110.83963 109.43922 107.29060 103.95610 96.98679 87.94159 80.06626 73.76348 67.14701 67.20214 64.89936 63.20885 62.95199 58.72676 57.03790 56.97127 55.25931 52.47941 50.50939 45.11340 41.79947 39.47007 36.85118 34.32231 31.47877 29.04213 27.45054 27.02670 26.54176 26.37964 26.16215 26.00827 25.88486 25.75175 25.51227 25.37000 25.37000
25.24900 25.24900 25.25926 25.26768 25.29194 25.33965 25.41456 25.56811 25.74525 26.18718 26.81276 27.35452 27.51034 27.97043 27.27822 28.26731 28.70751 29.22970 29.39517 30.13247 31.64972 33.57366 35.59228 41.10386 43.15066 50.15589 52.51327 56.92900 57.93626 62.57734 68.56505 72.72606 80.48157 85.34683 88.51991 93.17373 97.41821 103.57174 107.04216 110.35521 111.01749 110.77815 109.21447 108.20222 106.70851 105.50093 103.17028 102.10568 100.43831 99.62153 98.62042 97.81399 97.45276 97.11345 96.75567 96.49764 96.22170 96.04409 95.87927 95.87874 95.81100 95.76325 95.76840 95.74789 95.75713 95.76855 95.79397 95.86314 95.91601 96.08065 96.25859 96.34748 96.67653 96.95901 97.34638 97.95488 98.48314 99.67305 100.56000 101.89939 103.41890 104.93348 106.36304 107.66941 109.38746 109.93354 110.14885 106.44684 104.30834 98.22795 93.53820 89.61884 79.55111 72.09172 64.67642 59.75946 59.05873 55.39029 53.41241 50.75870 51.44681 52.34209 53.07056 50.71912 50.36822 48.40214 45.85092 41.86988 38.89616 36.07390 32.26181 30.58860 28.03124 27.10096 26.23636 25.98385 25.92866 25.80505 25.68276 25.55239 25.43791 25.35400 25.35400
25.24900 25.24900 25.25976 25.26808 25.28912 25.32299 25.38444 25.45403 25.64375 25.94168 26.37753 26.56668 26.45922 26.69515 26.73887 26.88306 27.59432 27.94728 28.98761 30.98724 32.81516 35.50721 40.60614 46.10026 49.62142 54.56662 58.20628 63.23047 66.28911 68.34376 72.23895 79.83982 83.26558 86.62723 88.09915 90.93382 93.57224 96.47527 104.69558 106.84930 109.98623 111.07295 110.38411 109.05933 107.46673 106.21908 104.86854 103.30349 101.84512 100.39829 99.64673 98.34696 97.69654 97.37229 97.09130 96.70048 96.55082 96.29449 96.13363 96.09348 96.00935 95.93366 95.87129 95.95861 95.93215 95.98343 96.01867 96.00336 96.16993 96.24742 96.45900 96.71642 96.95582 97.29655 97.71345 99.11671 99.40992 100.30329 101.56643 102.80115 104.23790 105.71078 107.23881 108.39221 109.45276 109.18066 107.49672 104.84346 97.18357 92.70368 88.63857 83.62672 79.87378 71.99577 65.33575 60.75451 54.16610 49.71968 46.50519 44.28697 41.99919 42.74203 48.41741 48.06483 47.89211 48.45957 47.28041 43.03557 39.86720 35.76334 33.41016 30.43812 29.39548 27.64037 26.77211 26.32837 25.91239 25.59586 25.52086 25.43765 25.36932 25.31300 25.31300
25.24900 25.24900 25.25746 25.26759 25.27635 25.29739 25.32658 25.37214 25.48230 25.66055 25.73539 26.02700 25.90171 26.14004 26.89179 27.06066 28.43047 29.02411 29.98752 31.15675 35.44985 39.15490 41.65630 46.73319 52.40814 56.23144 61.97076 66.26713 69.99558 72.65838 76.56316 79.56803 82.01791 84.58373 80.76883 83.83411 85.77103 90.44176 98.29784 106.03934 108.89286 111.46336 110.90835 109.86121 108.38747 107.20550 105.53965 104.41391 103.11240 101.34020 100.24208 99.61119 98.25558 97.72783 97.45932 97.00954 96.72646 96.68774 96.41320 96.28158 96.22443 96.10116 96.08886 96.08053 96.08300 96.14883 96.18478 96.30869 96.38996 96.53158 96.88633 97.10076 97.44896 97.80020 98.50271 99.20601 100.30714 101.03826 102.44890 103.26415 105.24544 107.07895 108.35211 109.99452 110.38644 109.16428 105.33157 101.04583 95.97562 87.24680 79.69999 78.17609 73.72146 69.90732 63.49498 61.34213 54.88404 48.02024 45.27161 40.15792 39.03745 38.69187 39.34322 42.41440 44.17421 46.17693 45.88742 43.19564 40.63478 34.25645 32.38257 30.28427 29.14867 27.76186 26.91910 26.38923 26.04924 25.75408 25.51851 25.41105 25.34146 25.29600 25.29600
25.25000 25.25000 25.25756 25.26590 25.27915 25.28891 25.30324 25.32923 25.36404 25.47906 25.54675 25.78329 26.46644 26.68758 27.80922 28.73080 30.01615 31.15942 31.97903 34.20573 37.49028 39.55486 44.50189 47.17454 50.44093 55.00662 61.22668 66.49962 69.14652 70.34191 74.82087 73.43303 73.70287 76.64344 75.38546 73.08218 81.49233 88.32045 92.48274 105.19551 109.26796 111.71202 111.74431 110.88119 109.12724 108.01691 107.08299 104.96907 104.05535 102.73322 101.28187 100.01210 99.35173 98.21545 97.86099 97.64132 97.29942 96.93406 96.83460 96.58261 96.54173 96.37015 96.34828 96.32874 96.39651 96.52092 96.66041 96.64592 96.75787 97.01614 97.42966 97.53206 98.09226 98.58872 99.04941 100.03429 101.47124 102.07333 104.17000 104.75903 106.12838 107.43935 108.98652 110.50017 111.32320 110.05637 105.88832 98.90447 94.18267 86.58690 76.08526 69.63394 66.91676 63.66462 62.71976 59.12553 55.47165 49.98631 46.44838 40.00986 36.36359 34.34107 34.28972 35.56903 38.21677 39.05845 41.60189 42.15765 39.01914 35.97573 32.86849 30.41891 28.82529 27.53408 26.68394 26.25906 25.90169 25.66668 25.56535 25.42748 25.36518 25.30000 25.30000
25.25100 25.25100 25.25679 25.26700 25.27565 25.28547 25.29650 25.34113 25.43496 25.54468 25.77087 26.18284 27.01915 27.62901 29.19737 30.56679 31.62066 32.74298 34.10208 34.74439 36.49929 37.28524 41.61421 45.33099 46.82420 52.66863 59.23652 63.40832 66.31441 64.60368 65.56896 65.25583 66.74995 67.54135 67.95652 69.40330 76.56926 86.18470 94.56245 101.62888 107.37836 111.18249 112.44314 111.90343 110.32961 108.74601 107.90028 106.18292 105.09154 103.38735 102.45564 100.95641 100.11015 99.67555 98.65292 98.22357 97.86274 97.37000 97.22646 96.96520 96.84566 96.83517 96.86601 96.70690 96.75496 96.84594 96.84586 97.08837 97.20397 97.37816 97.76226 98.32990 98.97677 99.41458 100.42380 100.71738 102.03313 103.28117 104.91759 105.97559 107.46466 108.64836 109.68803 111.20721 111.92533 111.23044 107.64564 99.45442 95.15488 86.01358 78.48161 68.30866 62.31137 58.49988 57.00526 55.56271 53.05238 48.80591 44.73505 41.33192 35.37996 33.58886 31.25504 31.33456 32.98686 35.69944 37.94830 39.14263 37.12117 35.07279 33.03953 31.68798 29.78733 28.21548 27.13119 26.17107 25.81289 25.70202 25.49899 25.41534 25.34015 25.30400 25.30400
25.25000 25.25000 25.25418 25.26576 25.27466 25.29203 25.32401 25.38564 25.50369 25.71017 25.99103 26.52890 27.47690 28.30696 29.70549 31.22066 32.30001 32.54786 33.31392 33.89682 34.11286 35.78739 38.90064 43.38174 47.19818 52.45583 56.96822 60.73228 60.72550 59.16113 57.08997 59.62881 57.22538 59.45565 64.71202 71.95575 78.37533 88.10113 94.80631 102.42099 107.00981 109.31543 111.88568 112.47243 111.66240 110.25805 108.66017 107.68464 106.00117 104.72234 103.64066 102.32972 101.09024 100.15832 99.91789 99.05273 98.70385 98.45672 97.79385 97.92927 97.36311 97.40165 97.23470 97.32041 97.24067 97.35884 97.48385 97.41227 97.75731 98.02970 98.53276 98.98863 99.58439 100.30421 101.07629 102.06298 103.63542 103.82341 105.60201 107.15215 108.29603 109.53132 110.94965 111.85517 111.90436 110.92269 106.66770 99.97161 94.92087 90.77611 79.87111 71.49598 67.14901 60.05923 55.25039 50.48417 48.07182 44.41516 43.07781 38.62170 35.70397 32.32455 30.48867 29.63486 30.70330 31.40803 33.36211 34.41989 34.45877 32.95557 31.93343 30.47304 29.92408 28.46057 27.81202 26.96506 26.14154 25.74805 25.53361 25.40103 25.32468 25.29200 25.29200
25.25000 25.25000 25.25411 25.26586 25.27484 25.30251 25.33442 25.41574 25.58265 25.85561 26.09190 26.58183 27.50596 28.52083 29.22890 30.33902 30.89903 30.66489 30.68549 31.66532 32.63273 36.48338 38.94428 44.55476 47.87806 54.14428 54.81571 54.62920 50.82407 52.60860 52.46477 50.91353 53.94053 64.00985 67.82287 75.96988 81.48939 89.53789 95.17063 96.90270 101.78541 105.43262 111.36229 112.55478 112.38562 110.81795 109.46934 108.55039 107.02923 106.36248 104.59608 103.71099 102.82986 101.33034 100.95226 100.04953 99.63140 98.92014 98.80302 98.41334 98.25133 97.93007 97.97680 97.87311 97.86733 98.07133 98.09499 98.26103 98.64999 99.04291 99.19286 99.81484 100.59171 101.10526 102.48151 102.75432 104.28563 105.79040 106.51371 108.45487 109.51708 110.39592 111.79577 112.28096 111.51047 108.50494 105.35843 99.06610 94.05463 89.15664 85.31126 76.82640 73.66054 67.82204 59.88411 54.01559 47.83091 42.84325 38.60082 37.04184 34.60647 32.95305 31.81031 30.62849 29.11540 29.49072 30.60882 32.07892 30.93785 30.62339 29.73954 29.49079 28.96455 28.54577 27.68562 27.01572 26.38427 25.88907 25.58611 25.43316 25.33441 25.28900 25.28900
25.25100 25.25100 25.25713 25.26310 25.27541 25.31361 25.34925 25.41097 25.58316 25.89550 26.17974 26.60091 26.85638 27.56446 27.97128 28.96417 29.08287 28.98760 29.62691 31.39459 33.33215 37.10889 42.46083 46.97438 48.86153 51.71816 52.37701 50.00298 45.87131 43.37577 47.22993 51.79906 59.32447 65.88607 74.82623 80.52375 84.85256 89.11347 91.51473 92.65049 96.65189 103.21915 108.30552 112.15722 112.88317 112.19529 110.82446 110.17695 108.95948 107.77379 105.89305 104.93477 104.05908 103.18770 102.14011 101.48531 100.35325 100.52045 99.90493 99.32638 99.11827 99.01665 98.74357 98.88036 98.78236 98.84646 98.82538 99.06581 99.38141 99.82919 100.45612 100.59583 101.61173 103.64074 103.91289 105.07890 105.74395 107.52915 107.75919 109.42209 110.56182 111.82797 112.40855 112.46383 109.51685 103.81194 99.49491 95.61929 90.36147 86.68585 83.80875 80.79219 76.37201 73.43347 66.66346 55.67203 51.59796 45.32835 41.44642 39.66915 38.21777 36.86986 36.06603 32.60708 30.24936 28.21580 28.48426 28.59111 28.70034 28.21328 28.03416 27.35108 27.46066 27.36437 27.28966 26.81721 26.38931 25.93721 25.56978 25.46084 25.34704 25.28900 25.28900
25.25000 25.25000 25.25775 25.26367 25.27475 25.29491 25.34896 25.37214 25.53873 25.66215 25.91298 25.86472 26.31627 26.51453 26.87766 27.11506 27.82667 28.39982 30.35949 32.03187 35.46436 39.92115 43.25466 45.47064 47.35285 46.77919 45.48703 44.46550 41.20973 42.76556 48.44208 55.06620 62.92939 70.18668 76.64521 78.56779 82.98607 85.05488 85.84244 89.79490 95.32937 102.10768 107.02284 111.58167 113.00280 113.32903 111.90668 111.01612 110.16483 109.01535 108.31579 106.13772 105.48530 104.33618 103.60702 103.05639 102.34425 101.25927 100.76853 100.92405 100.45555 100.43542 100.11992 99.75758 99.65758 99.82572 100.27140 100.36363 100.61250 100.98111 101.39343 102.31293 103.14220 103.99979 105.66488 106.42979 107.41421 108.47851 109.41963 110.29930 111.60898 112.28364 112.16941 109.86201 106.81506 100.35538 94.39513 89.80073 85.29128 82.06284 76.85657 77.12710 76.20706 73.53946 68.09739 62.22716 54.80326 50.00287 47.65303 45.53531 44.48235 41.82677 38.24471 35.37132 31.09636 28.79915 27.79451 27.47433 27.16805 26.72446 26.53922 26.34034 26.33546 26.28139 26.22534 26.28137 26.14149 25.79191 25.64392 25.43073 25.34430 25.29300 25.29300
25.25000 25.25000 25.25338 25.26350 25.27317 25.28924 25.33763 25.36731 25.43803 25.49928 25.48157 25.73825 25.62707 25.93681 26.20227 26.67751 27.48535 28.41146 31.19734 33.32028 36.25043 40.09167 40.37559 42.54174 42.70899 42.56300 40.11594 38.87549 39.05693 43.62678 50.64556 58.20251 62.29082 69.13118 72.07908 73.44649 75.08760 79.23850 82.82607 88.59503 95.58911 100.56629 106.37307 108.55622 110.61630 113.32661 113.20303 112.03521 111.21671 109.92674 109.13304 108.36471 107.13204 105.89220 104.74827 103.37169 103.62623 103.30030 102.28163 101.91722 101.54187 101.94714 101.71602 101.41646 100.96518 101.17246 101.28067 101.64925 102.23263 102.23855 102.78562 103.74530 104.85037 105.92332 107.13570 107.61379 109.02040 109.77961 110.51907 111.42238 111.78841 110.40590 110.56799 108.75108 105.43769 98.69126 90.70860 83.18452 78.74875 74.32517 70.62037 69.36099 69.73949 68.39698 68.29859 63.55979 59.62709 55.89074 55.12182 52.14951 49.71091 43.71700 42.46015 39.96087 34.22675 32.33376 30.64847 28.20280 27.37333 27.05543 26.69702 26.40783 26.01179 25.76056 25.83434 25.75556 25.72725 25.70572 25.55535 25.40729 25.33873 25.29500 25.29500
25.24900 25.24900 25.25292 25.26237 25.26943 25.29198 25.31198 25.32471 25.36248 25.41608 25.44712 25.61481 25.75968 26.10224 26.30135 27.02773 27.92542 28.74163 31.10988 33.03725 35.83874 37.58469 37.81890 37.63607 36.17755 36.60675 36.76109 37.88311 41.13785 47.65076 52.09529 56.33226 57.97963 62.46617 66.13223 66.37928 70.77762 77.86600 81.69635 86.57264 92.07002 97.87587 100.86294 105.48419 108.12782 111.54395 112.48538 112.60267 112.03398 111.30679 110.35362 109.54109 108.55054 108.07498 106.54628 105.57186 104.55875 104.80750 104.39402 103.78208 103.25156 103.16513 103.51780 103.04239 103.33457 103.55327 103.06444 103.56862 103.73706 104.85884 104.96708 105.33286 106.14391 107.19087 107.72627 109.41712 110.12354 111.17424 111.73572 111.68563 110.27321 109.34045 105.66042 104.66905 99.93426 95.38787 87.98725 80.57028 73.59478 66.90628 63.05013 61.59671 60.82417 63.45489 63.05745 64.44700 62.83257 60.66945 58.20231 55.28182 52.83569 48.03855 45.02341 40.61869 39.08675 34.86627 32.89709 31.26853 28.73835 28.42424 27.59599 26.88863 26.35696 26.15483 25.62210 25.61944 25.52896 25.45666 25.45451 25.38788 25.32379 25.29000 25.29000
25.25000 25.25000 25.25563 25.26651 25.27282 25.28145 25.29531 25.31230 25.33483 25.42349 25.52551 25.79423 26.04704 26.55271 26.90157 27.06471 27.74644 28.28124 30.36920 31.98554 33.11298 34.71865 34.80033 32.95704 32.90311 33.85441 34.93953 39.02118 44.30708 46.76661 51.18565 52.05830 51.98268 55.43508 60.47001 65.74677 74.25421 78.25109 84.21882 86.32455 85.74635 89.96456 94.68663 101.03309 105.69630 107.44719 110.57576 110.50236 111.50319 111.78679 111.36602 110.66420 109.94560 109.14364 108.50044 107.77864 106.89137 106.09028 105.52038 105.84304 105.04252 104.76941 105.20104 105.15556 105.17488 105.31898 105.26570 105.16590 105.33385 105.49905 106.36370 106.35335 108.33981 108.68876 110.49574 110.87687 111.22958 112.59308 112.54783 110.58926 107.89001 103.02201 101.05876 97.64922 95.90856 90.99441 83.61013 72.75694 67.12007 62.08137 57.38203 55.38220 52.82254 52.24394 58.32497 60.39855 61.60368 61.46607 60.15567 56.84117 53.20222 47.94116 43.70086 41.71419 38.62142 36.26670 34.16153 32.54150 30.32819 30.08518 28.72129 27.98408 27.10254 26.46351 25.97661 25.72417 25.45774 25.38119 25.35422 25.33929 25.30462 25.28800 25.28800
25.25000 25.25000 25.25816 25.26399 25.27495 25.28183 25.29279 25.30755 25.34287 25.48053 25.60649 25.89278 26.10634 26.42164 26.85128 27.05100 27.23709 27.48422 28.37273 29.96106 31.02514 30.94481 31.12917 31.32420 31.87104 34.30659 36.87369 39.96786 42.47838 45.45229 47.78667 47.29966 51.56166 55.02631 61.73451 69.34688 75.12453 80.24061 81.69855 82.27093 81.40215 85.97997 90.40082 94.73835 100.30517 101.17042 104.47903 105.11129 108.65181 111.14399 112.16046 111.95186 111.56262 110.37742 109.75631 109.12474 108.63818 108.26674 107.58606 106.88288 106.95458 106.83818 106.98979 107.27126 106.91211 106.71142 107.12138 106.69208 106.81418 107.53651 108.23180 108.50925 108.89407 109.96362 111.13457 111.85372 112.46986 112.76705 111.94110 110.26203 104.72738 98.62333 94.59905 91.06658 87.93303 87.05369 80.02024 73.02758 66.85037 57.71438 54.00217 50.51381 48.07123 46.84018 49.64373 54.99836 55.45626 57.54455 57.13616 54.04443 48.78810 44.59961 41.12951 38.75436 37.54550 35.62132 34.34419 32.10118 31.08538 30.04594 29.24409 28.17692 27.43673 26.95472 26.32033 25.93852 25.55330 25.38722 25.34109 25.31447 25.30087 25.28500 25.28500
25.25000 25.25000 25.25803 25.26367 25.27444 25.27998 25.29429 25.32180 25.34890 25.46830 25.64896 25.76131 25.94332 26.09843 26.13897 26.16612 26.21095 26.49503 27.02939 28.16557 28.73740 28.86720 29.79896 31.25966 33.16186 35.84175 37.56430 38.90728 39.45795 39.53600 42.14824 45.14623 51.51361 55.55818 66.45212 72.21853 75.59611 78.86924 78.41156 76.23449 76.00222 80.84461 87.06434 92.62753 93.65184 93.00858 95.19122 98.88630 103.70081 108.49801 111.58546 112.56072 112.45857 111.68442 111.58609 110.63144 110.27336 109.93621 109.64300 109.19894 108.49681 108.57073 108.43394 109.03576 109.40206 108.73837 108.99567 109.13697 109.20010 109.29574 109.43786 110.32478 110.36355 110.88333 112.05363 112.82764 112.94006 112.29544 108.41557 106.82173 102.67378 95.77210 89.05049 83.18254 84.32163 82.35615 78.21601 73.69628 64.96507 60.02761 54.11862 50.63127 44.83965 42.49107 44.54766 47.01631 50.64749 54.10634 53.74104 50.63384 45.74202 40.17262 36.16231 35.09393 34.01579 32.24796 31.76802 31.01240 29.62248 29.41706 28.68464 28.30146 27.37653 26.81621 26.36665 25.96956 25.61345 25.43039 25.37219 25.30920 25.29557 25.28600 25.28600
25.25000 25.25000 25.25825 25.26649 25.27539 25.28187 25.29377 25.32703 25.36211 25.39610 25.53850 25.64837 25.72344 25.73763 25.85236 25.85279 26.02377 26.30231 26.94417 27.35594 27.96583 28.44890 30.40024 31.57188 32.69399 34.30123 35.31801 35.91645 35.95399 37.59180 41.92418 47.41588 52.79575 59.76023 66.82673 73.42816 72.93385 71.71288 69.90773 70.11788 73.54069 81.65923 86.36375 87.18087 85.71505 84.29111 87.65031 90.20567 97.93121 102.23340 109.38271 112.03062 112.61820 112.67895 112.52925 112.50684 111.82208 111.48183 110.95837 110.67970 110.22613 110.34706 110.72155 110.45258 110.72463 110.80218 110.13432 110.40766 110.48696 110.41539 110.81029 111.32494 111.42444 111.66004 111.57005 111.84820 111.94414 109.51926 105.92964 100.83961 96.44639 94.07357 83.57586 80.44704 76.56083 77.28838 77.33750 74.33910 69.45644 64.82153 57.18651 52.61651 47.39785 41.29044 39.18035 40.11578 44.97354 48.79147 51.58186 49.39345 45.75168 40.78336 36.04820 33.45519 32.39473 30.93221 29.69729 28.71116 28.08315 27.70419 27.43536 27.20293 26.81470 26.40746 26.19825 25.76633 25.55174 25.40921 25.35634 25.31938 25.29621 25.28700 25.28700
25.25100 25.25100 25.25828 25.26829 25.27331 25.28262 25.29849 25.31610 25.34958 25.38643 25.43835 25.51354 25.51838 25.53914 25.65184 25.69886 26.34060 26.94706 27.36109 27.87245 28.52797 29.13864 30.19038 30.80139 31.44879 32.08548 32.63689 33.67959 36.39818 40.17741 44.49323 49.19185 56.07023 63.22264 66.57351 67.59905 65.87857 62.84680 62.11575 69.24071 74.33537 82.55203 84.23643 82.30392 77.84636 74.89103 78.01928 84.12458 91.97467 101.54317 104.08190 108.26329 110.00764 111.46160 112.05378 113.38145 113.41600 113.01134 112.44883 111.86248 112.13078 111.37145 111.60383 111.88966 111.66415 111.57381 112.13026 111.67346 111.32496 111.13966 110.86993 110.50293 110.28101 110.94387 110.47990 107.87128 106.77725 105.39441 103.34335 97.75575 92.61611 88.82029 80.11670 74.65165 73.36087 73.22271 74.05992 72.44517 70.19091 65.95144 56.76612 54.49741 48.00783 41.99345 37.32152 36.92554 42.00976 44.58130 46.93868 47.41591 45.70969 42.41412 37.38816 34.40086 32.24353 30.07520 28.65254 27.95402 27.63913 26.89547 26.61881 26.17666 26.14040 26.11687 25.84458 25.58300 25.52110 25.38223 25.33766 25.31325 25.29517 25.28500 25.28500
25.25100 25.25100 25.25641 25.26261 25.27752 25.28506 25.29417 25.31322 25.33705 25.36647 25.39858 25.40168 25.44559 25.52849 25.74433 26.11502 26.93513 27.49973 28.19385 28.71614 29.07981 29.14956 29.29592 29.26508 29.86465 30.64525 32.07505 34.72578 39.51938 42.75783 48.50425 52.40914 58.88155 62.23936 63.32607 60.65557 59.50040 57.56274 58.87660 66.99219 74.50886 79.23512 77.44760 73.43486 69.79609 70.66906 71.79978 81.08975 88.78189 96.40599 103.43570 105.58493 106.14906 107.88267 109.78798 111.97941 113.41887 113.63089 113.14549 112.89766 112.98729 112.60825 112.22707 112.04944 111.89950 112.26489 111.96314 111.32304 110.47282 109.36269 108.95971 108.11726 106.25640 106.43763 105.27086 103.87144 102.26833 101.54305 101.19861 94.78078 89.10063 83.40341 80.27565 72.21194 66.86288 66.39649 66.49495 65.98969 64.93075 63.97840 59.87179 53.69456 49.09892 42.03195 37.52128 35.52223 36.13127 38.99648 40.23806 41.81561 43.24971 42.90892 40.28628 37.31114 34.86226 31.33982 29.56799 28.08059 27.67883 26.95900 26.32562 25.90898 25.75643 25.62532 25.63255 25.53235 25.41886 25.35353 25.32672 25.31069 25.29116 25.28200 25.28200
25.25100 25.25100 25.25487 25.26032 25.27464 25.28608 25.29401 25.30857 25.32144 25.34708 25.35606 25.37481 25.42853 25.56180 25.79815 26.29441 26.93678 27.64685 28.20463 28.60909 28.85787 28.49505 28.41931 28.80937 29.87925 32.73817 33.31341 38.09900 39.99862 44.97964 48.10797 53.73686 56.20999 58.11042 56.89368 52.55007 51.26665 51.52874 58.90972 67.05822 72.93107 75.10373 73.01807 68.79134 63.07465 58.82534 65.59064 77.17870 87.26721 93.49445 99.59954 99.90602 102.71942 103.29630 105.87228 107.50179 109.72539 110.38915 110.56641 111.73083 111.25100 110.13114 109.30280 108.56132 109.00849 108.77418 110.91800 108.27424 106.95755 105.06379 102.84456 99.97377 101.41496 100.40908 99.96392 96.42647 94.62296 95.81134 95.31335 91.59665 85.08779 81.05186 76.55092 72.51812 65.45160 61.39131 59.96366 58.01641 56.30308 57.31040 56.59940 54.27567 50.39223 44.36626 37.03456 33.33022 33.68706 33.62084 35.69730 38.06839 39.27609 40.43455 39.93419 37.86836 35.84968 32.18043 30.29627 28.91670 28.11720 27.24072 26.63460 26.08909 25.80971 25.54306 25.47540 25.43197 25.35802 25.33772 25.31305 25.30487 25.29008 25.27700 25.27700
25.25000 25.25000 25.25624 25.26194 25.27225 25.28561 25.29312 25.30698 25.31530 25.32239 25.34415 25.37881 25.44124 25.58279 25.85574 26.34022 26.61922 27.06279 27.33739 27.19199 27.70238 27.68922 27.85989 28.98597 31.18899 34.06511 36.22119 38.54874 40.61530 44.30808 48.23992 50.37107 51.96773 50.77624 49.18805 46.62577 47.91137 52.48294 58.42744 65.81734 69.38549 67.78037 62.21716 60.27157 56.68468 56.00834 64.80146 72.27301 84.34475 89.08907 93.04664 94.23494 93.63416 97.19431 100.73056 102.58432 105.37772 106.00775 107.07517 109.12180 109.40574 105.81245 102.46502 102.28680 107.02034 104.08715 104.23916 103.03807 100.98659 99.70346 96.23843 92.17481 90.77510 90.07793 90.21161 90.28949 88.77733 88.59101 91.70463 89.10106 86.30922 77.79822 71.26396 69.65686 64.96885 60.61137 56.08206 52.29603 50.61028 50.33012 50.58153 51.57018 48.19236 43.17566 38.33826 33.54889 31.89884 31.48009 32.98693 34.32910 35.92313 38.16526 37.43839 35.27423 34.77740 32.66106 30.54890 28.64892 27.91394 27.42483 26.67803 26.14114 25.74395 25.58274 25.41532 25.36580 25.34042 25.32510 25.30466 25.29667 25.28824 25.27700 25.27700
25.25000 25.25000 25.25932 25.26477 25.27437 25.28162 25.28945 25.30163 25.30682 25.31766 25.33073 25.38947 25.44928 25.64279 25.81269 26.16399 26.57316 26.61193 26.50944 26.37766 26.52587 26.92242 27.66471 30.07606 31.55289 34.51989 36.01110 37.63293 39.55368 42.59640 45.13029 45.65226 44.94369 41.99012 43.36312 43.29440 48.41896 55.59245 59.90390 63.87083 62.21402 56.82382 53.41001 55.09202 52.00371 58.50763 64.83189 74.03299 81.00584 87.40144 88.90560 89.61065 90.05858 90.66343 97.48260 98.20341 100.10044 98.45524 99.13821 98.65967 104.39672 101.21839 96.70242 94.03826 94.94584 101.38925 101.10966 95.44545 91.39728 89.61525 88.28263 84.31633 81.02592 82.91516 80.99054 82.67064 79.89733 81.93343 87.44089 87.74620 83.29358 75.23749 69.19257 65.14159 63.44020 59.74910 57.30181 52.72252 48.25886 45.50618 44.97603 45.45542 45.90979 42.87910 41.10525 35.93642 33.26071 29.50447 29.82388 30.83919 32.99860 33.51428 34.57250 33.66566 33.01227 31.66202 29.71963 28.06201 27.28309 26.75020 26.17076 25.99819 25.74103 25.57058 25.43181 25.34038 25.32116 25.31161 25.30286 25.29482 25.28715 25.27800 25.27800
25.25100 25.25100 25.26021 25.26540 25.27182 25.28036 25.28691 25.29705 25.30812 25.31694 25.33083 25.37804 25.46208 25.57751 25.74898 26.00854 26.12116 26.12001 25.91812 25.90659 26.20550 26.79198 27.82761 30.13249 32.15055 33.47745 34.67054 35.37502 37.12035 39.43869 42.50060 41.78401 39.03355 37.91444 40.41482 42.41088 49.63232 56.64049 58.73686 58.77718 54.19707 48.79948 48.64413 46.69906 51.19215 58.42320 67.14492 74.56415 79.58529 81.68574 82.62058 83.96249 83.44119 84.83214 89.21731 92.42972 95.13505 93.01012 94.09054 95.84531 96.17509 96.22124 91.50268 86.98052 87.71875 94.32105 96.21878 93.00976 82.66912 82.04731 78.89736 73.91578 70.98043 69.22683 73.03188 76.96576 75.10717 75.36728 79.77863 84.58784 79.33729 74.32393 67.63541 59.21314 59.05446 59.36727 56.31986 55.56650 49.46472 45.33021 41.43936 41.31154 41.04166 39.46751 39.86619 37.77560 34.70690 30.96511 29.32810 29.08469 29.46207 31.20826 31.08804 31.34517 31.07865 30.46501 29.54600 28.03699 26.89220 26.31519 25.92669 25.66648 25.60027 25.50018 25.41923 25.35625 25.32184 25.31093 25.30168 25.29701 25.28853 25.28000 25.28000
25.24900 25.24900 25.25815 25.26418 25.27107 25.27994 25.28592 25.29484 25.30598 25.31703 25.32825 25.36318 25.41849 25.49270 25.65674 25.81806 25.69436 25.66158 25.70438 25.79365 26.38511 27.21500 28.17453 29.71000 31.34744 31.77244 32.18872 32.70122 36.53841 38.48717 39.03698 37.73830 34.91982 36.80423 38.84458 45.42486 51.88292 56.46261 56.30124 52.19325 48.06034 44.63483 44.20762 47.56814 56.02755 63.02016 69.68970 73.14833 75.05053 74.86621 75.16235 78.47103 77.95037 79.34919 85.21422 88.04223 86.50870 86.97107 87.20984 91.95352 91.80328 91.61169 86.35483 81.22617 81.24958 89.73755 92.83026 87.69867 79.79976 74.49365 68.47375 64.45148 61.45542 62.54851 63.55783 66.10027 67.94748 68.88099 74.27445 80.11769 79.60201 72.87099 66.24829 58.05377 50.90019 49.95304 53.78959 54.23041 50.29486 46.08982 42.01886 38.09372 36.10548 37.19471 36.99193 36.60612 35.02916 31.94799 30.25874 28.58224 28.06338 27.88742 28.12009 29.68298 28.84587 29.66626 29.14035 27.81779 26.80174 26.07265 25.82186 25.50631 25.44567 25.40882 25.37571 25.34720 25.32012 25.31304 25.30265 25.29794 25.28940 25.28200 25.28200
25.25000 25.25000 25.25264 25.26369 25.27263 25.27764 25.28649 25.29540 25.30336 25.31493 25.32960 25.35093 25.38854 25.46796 25.50955 25.55891 25.56799 25.46222 25.56215 25.84702 26.44728 27.20563 28.13331 29.14289 30.15130 30.38311 30.90851 32.11645 35.24025 36.17949 36.70123 34.06874 33.30522 34.96022 40.17289 44.25959 50.63120 53.46399 52.53241 47.12440 41.32828 39.43260 43.54459 52.01562 57.65257 65.83299 68.31405 68.36953 66.65310 68.74165 71.56428 70.85141 70.14064 74.10200 79.98039 82.24353 80.38307 78.37348 77.86378 83.30616 85.37310 87.65178 79.57523 74.97889 77.18767 79.81215 85.38012 84.84693 76.19104 65.96893 61.92338 57.64225 52.74620 54.14086 56.18956 57.20968 58.84879 65.83517 71.41134 77.73555 78.65376 73.20322 62.55391 57.37972 50.65391 47.13195 50.11902 50.90509 50.74121 46.09790 43.55103 37.46493 35.27027 33.10653 33.24930 34.14809 34.39998 33.36587 31.29195 29.27221 27.63763 27.18439 26.50398 26.85581 27.55646 28.09671 27.92081 27.28939 26.59540 26.16367 25.82332 25.52475 25.43117 25.36708 25.35337 25.33769 25.32237 25.31213 25.30437 25.29624 25.28800 25.28000 25.28000
25.24900 25.24900 25.25168 25.26136 25.27148 25.28041 25.28695 25.29622 25.30380 25.31316 25.32082 25.34339 25.37223 25.39548 25.42821 25.46230 25.45505 25.48331 25.60991 25.98313 26.35717 26.99541 27.51953 27.67134 28.58879 28.91595 30.06485 32.48802 33.69540 33.95429 33.60571 32.01841 32.52785 33.76580 38.53767 44.09636 47.22562 48.20623 46.14259 39.80692 38.24528 38.53420 43.77544 52.92305 60.38867 63.66584 62.84703 62.04160 60.39799 60.90614 62.93807 67.09851 64.64059 69.68947 77.44393 78.53590 73.88786 73.80960 74.78744 76.51041 78.65520 77.92393 74.67702 67.94806 67.67751 71.29195 79.59496 80.42818 75.66968 65.93548 57.28088 52.12545 48.87687 47.26824 49.33074 49.99076 53.74790 62.32020 70.74456 76.27746 76.81415 75.31646 65.29372 56.22168 49.48767 43.79807 45.79230 47.29665 48.86277 47.54585 44.75725 40.36766 35.85487 32.76352 31.00052 31.88831 32.58268 33.23479 31.97484 30.45710 28.65814 27.52186 26.61990 26.08827 26.30250 26.84405 26.99656 26.90644 26.38294 25.87918 25.69286 25.52176 25.42403 25.37282 25.34222 25.32825 25.31618 25.31092 25.30283 25.29633 25.28725 25.27800 25.27800
25.24900 25.24900 25.25321 25.26427 25.27207 25.28132 25.28969 25.29560 25.30660 25.31302 25.32194 25.33580 25.35569 25.37277 25.39990 25.40128 25.41807 25.50099 25.63638 25.82754 26.15224 26.19357 26.80699 27.03873 27.41447 28.61121 30.09102 31.78896 32.25326 31.94668 30.51270 30.34594 32.76099 35.63869 40.20505 43.68920 43.19059 42.64751 40.58930 37.12741 35.17685 37.81515 43.78620 52.88740 57.95191 60.73870 56.22106 52.53427 52.05354 55.72773 57.54606 57.72348 61.57664 67.77163 72.19067 72.91253 70.85190 65.93076 69.64628 73.29333 71.42918 69.76987 67.88324 63.67770 63.72538 68.42260 75.71101 78.31639 75.17741 69.19728 58.49316 49.53798 44.95616 41.81700 42.45186 47.42850 51.78460 61.76255 68.78491 71.85383 72.61918 70.41622 66.37158 57.29135 50.11265 43.16920 39.13670 40.84052 45.68725 46.02111 45.97998 42.86639 37.64449 34.10343 30.66950 29.68029 30.75671 31.30351 32.10179 30.90619 29.60863 28.35262 27.21923 26.37592 25.96608 26.21863 26.25669 26.15326 26.03652 25.78226 25.60659 25.49784 25.43308 25.36215 25.33951 25.32755 25.31678 25.30947 25.30160 25.29496 25.28761 25.28000 25.28000
25.25100 25.25100 25.25403 25.26069 25.27215 25.28404 25.29041 25.29767 25.30530 25.31488 25.32361 25.33495 25.34335 25.35917 25.36476 25.38119 25.40659 25.47687 25.58929 25.69580 25.74954 25.93629 26.25439 27.02179 27.67640 28.95298 29.89869 30.94511 31.31317 30.75309 29.12568 29.55034 32.81925 36.15461 39.83140 41.83753 40.54389 37.59504 35.47928 33.79080 35.49724 38.93031 44.57172 51.24038 57.33762 56.80850 50.37352 48.14389 49.15076 49.42655 49.78715 51.83141 59.33019 66.67649 70.58943 68.02072 64.50851 60.99524 66.39001 68.82225 69.18785 64.39794 60.03091 56.23776 54.99780 60.78771 75.05729 77.86589 75.88606 69.86174 58.28668 50.53062 42.97033 40.80150 40.59511 44.40078 52.08579 58.67206 63.26236 67.12478 69.42014 67.49937 64.72308 58.17830 50.68231 43.41263 37.04128 36.54087 39.18710 43.32704 44.43870 44.33000 40.99217 35.64873 31.81625 29.10849 28.48712 29.66930 30.75049 30.81759 30.13458 28.79848 27.86094 26.46759 25.99829 25.78518 25.78170 25.68731 25.72134 25.66189 25.53237 25.45091 25.39762 25.36145 25.34214 25.33057 25.31806 25.30978 25.30512 25.29336 25.28730 25.28000 25.28000
25.25000 25.25000 25.25472 25.26400 25.27137 25.28315 25.28914 25.29834 25.30451 25.31206 25.32309 25.33345 25.34217 25.35114 25.36476 25.37504 25.39960 25.43800 25.50742 25.54442 25.55903 25.65671 26.35436 26.81635 28.20565 29.00541 29.66598 29.91943 30.35458 29.06162 28.53244 28.70704 32.81420 35.56192 37.62316 38.33648 35.14832 33.68238 31.45386 32.51771 35.21467 43.75432 46.57480 53.05305 52.50750 52.65610 45.67700 42.98826 43.29342 44.01256 43.74658 48.48675 55.20631 64.50096 68.36427 67.02069 61.42425 57.72201 60.92757 63.25821 63.45673 57.59504 53.28837 53.03541 52.14794 56.15341 63.14192 75.56648 75.07934 66.36946 60.31188 51.63228 42.77181 37.91801 38.32354 45.03639 49.51378 56.17598 57.72863 59.76180 63.84056 63.14703 59.69438 53.41841 48.86499 44.00575 37.26229 34.57012 35.50899 37.48956 40.95588 42.76861 40.00159 34.75123 32.36246 28.70401 27.56996 28.43391 29.11254 29.78282 29.54396 28.86358 27.97547 26.79339 26.10186 25.73660 25.51893 25.50986 25.46903 25.45814 25.44824 25.40498 25.37336 25.35699 25.33928 25.33182 25.32381 25.31077 25.30259 25.29566 25.28571 25.27800 25.27800
25.25000 25.25000 25.25737 25.26808 25.27341 25.28163 25.28786 25.29607 25.30743 25.31413 25.32353 25.33088 25.33995 25.34993 25.35747 25.36722 25.38343 25.39612 25.41607 25.46880 25.54499 25.80497 26.25735 26.64614 28.09068 28.38442 28.62578 28.40967 27.65695 28.08872 27.89442 29.45618 31.49288 33.63071 36.03518 34.57983 32.27873 31.48238 30.04287 32.04511 36.74872 41.60364 48.68267 51.80541 51.03132 47.79251 40.78834 38.77062 40.23128 38.78056 42.18174 48.30978 55.62066 60.88417 64.37087 62.44253 58.35816 54.23004 56.25836 60.62963 60.55306 53.63154 48.99322 45.08688 47.96589 51.33667 61.22197 68.17121 71.66511 65.41037 59.25060 50.26885 42.14503 36.97256 36.64008 42.39400 47.25556 52.03093 53.88713 55.48614 56.71734 59.26693 56.07348 52.05432 48.17642 41.66329 37.50546 33.23863 31.91788 34.19678 36.60859 39.02890 37.66044 35.14996 31.72179 29.22121 26.78425 27.07717 27.60850 28.01073 28.61992 28.17804 27.63389 26.84466 26.12376 25.81168 25.57418 25.46504 25.41002 25.39854 25.39550 25.37828 25.35833 25.34908 25.33969 25.32946 25.32036 25.31340 25.30359 25.29294 25.28588 25.27600 25.27600
25.25100 25.25100 25.25716 25.26581 25.27468 25.28151 25.28931 25.29491 25.30284 25.31429 25.32109 25.32969 25.33641 25.34522 25.35201 25.36103 25.36623 25.38888 25.41884 25.47366 25.63087 25.95354 26.29976 26.70290 27.07488 27.40042 27.72266 27.12214 27.06053 27.22539 27.71744 29.68915 31.63208 33.50585 33.95151 31.31343 30.12437 29.03641 30.05877 34.27472 38.51144 43.31014 48.04853 49.29730 48.01750 44.07509 39.46229 35.10966 35.82542 36.56626 40.54484 45.93918 54.67836 58.99923 61.49489 58.86751 52.78550 50.71306 54.07075 57.16845 57.78873 50.76669 45.00753 40.73195 41.34021 49.03365 57.37378 66.81890 67.67855 63.78890 55.94164 49.93400 42.83876 36.20274 34.93610 39.95797 45.50208 48.30740 49.14692 50.31384 53.60717 52.71953 53.48004 48.10876 44.16075 40.04946 36.79791 32.17763 30.13985 30.65688 33.07014 36.89548 36.96119 34.22646 31.03524 29.10883 27.38330 26.42143 26.30908 26.62686 27.12126 27.30130 27.11678 26.47243 26.01152 25.68650 25.57868 25.47357 25.41588 25.38763 25.37252 25.36166 25.35290 25.34476 25.33650 25.32887 25.31947 25.31393 25.30453 25.29518 25.28464 25.27600 25.27600
25.25100 25.25100 25.25591 25.26481 25.27331 25.28033 25.28739 25.29565 25.30218 25.30891 25.31794 25.32619 25.33426 25.33898 25.34797 25.35264 25.36253 25.37701 25.40725 25.51518 25.57612 25.80901 26.04809 26.40036 26.43854 26.37602 26.37311 26.32028 26.59520 27.44125 28.55889 29.68927 31.20440 30.93599 30.78303 29.83580 28.88613 29.18365 31.18922 35.03575 39.68718 44.69277 46.35714 46.00489 41.36642 39.38555 35.60472 32.40331 33.22714 33.09359 43.97728 46.17198 50.45173 56.74171 58.05293 53.07797 47.95228 45.48050 48.96045 54.68950 54.23111 50.12522 43.36976 38.21964 38.74358 49.56011 55.64218 64.28526 63.17211 58.55955 53.36483 45.90557 40.84018 36.22108 31.98130 36.53211 43.46795 45.75597 45.83062 46.11286 46.98761 50.64765 48.98099 45.18269 41.20067 37.01935 34.16005 31.37275 29.14966 29.49304 30.26361 32.58076 35.27678 33.62490 31.36353 29.52312 27.53752 26.39362 25.97654 25.93904 26.60701 26.61870 26.56351 26.23228 25.88782 25.63396 25.49376 25.45962 25.41697 25.39011 25.37263 25.35904 25.35031 25.34289 25.33579 25.32929 25.32023 25.31057 25.30516 25.29615 25.28561 25.27700 25.27700
25.25100 25.25100 25.25857 25.26383 25.27364 25.28125 25.28622 25.29330 25.30252 25.30815 25.31625 25.32305 25.33314 25.33792 25.34441 25.35325 25.36035 25.37398 25.39802 25.44892 25.54499 25.66222 25.83694 26.06344 25.93530 25.75327 25.85750 26.24608 26.71164 27.99798 28.99778 29.64442 29.32699 29.04518 28.55556 27.46435 28.45043 30.16366 32.70533 36.98844 40.45589 45.18267 44.53538 43.31066 39.06051 35.81873 32.62309 30.36232 30.62320 32.07885 37.02415 46.82450 51.31656 54.61046 52.14306 48.85418 43.75007 43.88467 46.20963 50.48099 51.34335 43.12742 39.70204 36.36526 39.92895 45.23055 53.66114 60.45282 57.45556 53.57918 47.45731 43.93724 37.38838 33.76172 31.35172 35.52514 41.63189 44.36695 42.16172 41.34616 43.18862 45.41780 45.11309 42.62783 38.16135 34.75694 32.37322 30.15679 28.26010 28.65054 29.90388 30.71465 31.89158 32.46052 30.69602 29.62640 27.77508 26.74987 25.89525 25.77948 25.96423 26.22440 26.22944 26.04324 25.75250 25.55556 25.46819 25.43171 25.40903 25.38431 25.36822 25.35908 25.34928 25.34324 25.33310 25.32762 25.32013 25.31161 25.30361 25.29789 25.28863 25.28000 25.28000
25.25100 25.25100 25.25935 25.26441 25.27025 25.27772 25.28484 25.29307 25.30028 25.30731 25.31457 25.32545 25.33232 25.33780 25.34394 25.35238 25.35960 25.37088 25.38417 25.41855 25.48695 25.56272 25.70183 25.67886 25.65435 25.62613 25.80639 26.16706 27.03290 28.00989 28.25926 28.40553 28.11150 27.56696 26.93076 26.81755 28.36553 31.49973 34.31217 36.46976 39.70317 42.55317 41.29446 38.55775 36.34029 32.56800 30.98672 29.57070 29.63883 31.15788 35.47849 42.08331 48.90143 50.95530 48.10379 42.22015 38.59716 40.47313 44.59731 47.30760 45.20996 40.88613 36.03729 33.80490 38.02089 47.58267 55.02805 57.64901 56.06720 48.27744 43.40031 38.02217 35.57705 32.00977 30.70067 35.42802 39.42632 42.38365 40.51863 37.68232 39.68530 41.95488 41.40561 39.11507 36.95486 33.76586 31.40229 28.80351 27.85501 27.50746 28.76717 29.42652 30.67649 31.16705 30.36634 29.00373 28.36081 26.84201 26.11326 25.73206 25.73051 25.75840 25.80810 25.79377 25.66125 25.54897 25.43780 25.41114 25.39309 25.38273 25.36868 25.36023 25.34836 25.34161 25.33312 25.32687 25.31909 25.31259 25.30455 25.29453 25.28879 25.28100 25.28100
25.25100 25.25100 25.25664 25.26169 25.26997 25.27850 25.28515 25.29017 25.30085 25.30635 25.31218 25.32603 25.33221 25.33909 25.34385 25.35281 25.36022 25.36934 25.38170 25.40245 25.43475 25.47943 25.52602 25.57015 25.55202 25.59501 25.90686 26.35270 27.08801 27.74428 27.97559 27.64572 26.89488 26.39981 26.42819 27.23930 29.06353 31.56927 34.74858 36.98223 39.21136 40.31301 38.72157 35.11712 32.56336 30.97134 29.61574 28.85541 29.86399 32.51691 36.71964 42.89465 47.21566 48.13239 46.22999 39.38349 36.21617 38.32600 42.95600 45.35671 41.16738 37.80633 34.45521 33.89439 38.04749 42.22610 51.73016 55.86722 54.95511 47.18488 42.18462 36.11152 32.44309 31.14213 30.63969 34.36595 36.99124 39.98275 37.61660 36.14211 34.77621 36.21548 37.44132 37.24520 35.42719 34.09405 31.23513 28.62643 27.73548 26.84257 27.54624 28.27952 28.56431 29.22494 29.00003 28.36947 27.83534 27.12902 26.06340 25.74900 25.57605 25.61168 25.59756 25.58524 25.56314 25.48761 25.44153 25.40761 25.38494 25.37690 25.37020 25.35962 25.35058 25.34022 25.33444 25.32722 25.31970 25.31057 25.30379 25.29607 25.28665 25.28000 25.28000
25.25100 25.25100 25.25232 25.25985 25.26789 25.27706 25.28360 25.29262 25.29877 25.30593 25.31390 25.32207 25.32940 25.33924 25.34793 25.35269 25.35994 25.36739 25.37702 25.38332 25.39871 25.43070 25.45549 25.44899 25.49044 25.61345 25.97518 26.41513 26.73425 27.18667 27.07868 26.75920 26.20487 26.11958 26.47007 27.28694 29.40332 31.85999 33.45526 35.81755 37.12332 37.61588 36.36543 32.60573 30.25748 28.76811 28.63813 28.79900 31.47152 34.38758 39.55331 42.65880 46.62186 43.51002 40.47006 36.98126 34.66636 38.19417 40.64197 42.01393 38.06583 33.98902 32.01569 32.04703 37.47292 41.78652 48.24101 52.09918 51.44217 47.25735 42.05138 36.62561 32.52160 29.99290 30.24180 33.13467 34.37806 37.26966 36.39668 34.33669 32.92116 32.96040 33.14336 34.07199 33.95438 32.84319 30.74412 29.00392 27.65574 26.64985 26.12451 26.77866 27.33598 27.96178 28.08413 27.77913 27.25685 26.78494 26.07687 25.67084 25.55157 25.48694 25.49395 25.48209 25.47504 25.44907 25.42139 25.40203 25.38571 25.37537 25.36613 25.35975 25.34923 25.34115 25.33302 25.32697 25.32022 25.31067 25.30519 25.29508 25.28592 25.27800 25.27800
25.25000 25.25000 25.25222 25.25724 25.26689 25.27406 25.28493 25.28909 25.29752 25.30521 25.31419 25.32501 25.33357 25.33931 25.34749 25.35450 25.35965 25.36666 25.37349 25.37995 25.38788 25.39249 25.40775 25.43365 25.49623 25.60012 25.67427 25.92417 26.39212 26.46788 26.69352 26.13598 25.96522 26.10156 26.85341 27.77463 29.13812 31.08026 31.59513 33.62966 35.62239 36.46020 34.78942 32.23769 29.44590 28.05741 27.73673 29.41270 31.91636 36.52189 41.54341 43.68531 44.69091 42.01239 37.19526 34.17142 33.47167 36.25454 38.27240 40.04489 34.72927 31.90502 30.28807 31.17599 37.78751 41.70017 46.76282 50.78968 49.83030 48.41216 42.36746 37.11932 33.96155 29.87048 29.11038 30.25907 32.37506 35.00412 36.82757 35.09443 32.82188 30.80144 30.40944 31.13649 32.46582 32.41072 30.73311 29.35252 28.20604 26.80654 26.11258 26.09433 26.43672 26.92217 26.80914 26.65338 26.49187 26.38656 26.07345 25.72783 25.52920 25.46323 25.43110 25.44273 25.42218 25.41603 25.40649 25.39433 25.38129 25.37050 25.36409 25.35747 25.34788 25.33842 25.33377 25.32838 25.31794 25.30999 25.30252 25.29507 25.28514 25.27600 25.27600
25.25100 25.25100 25.25163 25.25759 25.26464 25.27275 25.27838 25.28807 25.29638 25.30741 25.31383 25.32202 25.33183 25.33915 25.34642 25.35332 25.35928 25.36533 25.36952 25.37553 25.37656 25.38487 25.40020 25.42671 25.46284 25.50834 25.58524 25.62452 25.81678 26.03985 25.81634 25.79940 25.68463 25.76910 26.48601 27.46692 28.88353 30.07065 30.33203 31.57838 33.52227 34.36569 33.84323 32.08035 28.87201 27.64048 27.35331 29.67897 32.14853 36.25485 38.35878 41.54701 41.12379 38.03690 34.26785 32.04441 31.57640 34.77969 36.32679 36.00872 32.51268 30.02144 29.80756 32.11056 36.32770 42.44540 46.70611 48.32598 46.64531 45.15606 42.17331 38.59094 33.26232 31.27240 28.86990 28.64611 30.82461 33.36566 35.38215 35.26332 33.46483 30.83741 28.84057 29.35161 30.65058 31.69878 31.10769 29.63749 28.26385 26.71362 25.99453 25.93065 25.99012 26.21801 26.32087 26.21261 26.19069 25.89857 25.84532 25.63585 25.54293 25.44626 25.41187 25.40492 25.40759 25.39908 25.39135 25.38024 25.37703 25.36887 25.36243 25.35431 25.34705 25.33899 25.33105 25.32617 25.31817 25.30912 25.30183 25.29395 25.28482 25.27900 25.27900
25.25000 25.25000 25.25304 25.25593 25.26387 25.27159 25.27925 25.28710 25.29467 25.30401 25.31400 25.32313 25.33068 25.33889 25.34456 25.35159 25.35476 25.35966 25.36390 25.36657 25.37093 25.37477 25.38473 25.40098 25.40602 25.46153 25.46843 25.52698 25.53719 25.63594 25.58686 25.49606 25.51840 25.84784 26.42623 27.08428 27.89730 28.29787 28.44525 29.90558 31.17588 32.26191 31.96746 30.22967 28.60330 27.17855 27.32772 28.91419 31.75744 35.31884 37.52614 37.73205 38.13156 36.13347 32.02028 30.17554 30.82529 33.16900 34.98223 34.66189 32.63219 29.05501 30.08551 33.18566 36.96602 41.01779 44.91247 44.35579 44.03435 40.87530 39.79566 37.81512 34.04623 30.95909 28.39208 27.81466 29.07529 31.11632 32.83048 34.31226 33.54899 30.75763 28.78536 27.83939 28.91715 30.21047 30.21688 29.93314 28.62556 27.27553 26.15703 25.79471 25.78137 25.86184 25.77306 25.75768 25.73999 25.72479 25.64555 25.55535 25.48367 25.42128 25.39452 25.39004 25.39040 25.38599 25.38345 25.37827 25.37054 25.36391 25.35674 25.35307 25.34415 25.33667 25.33083 25.32075 25.31636 25.30898 25.29900 25.29238 25.28402 25.27700 25.27700
25.25100 25.25100 25.25312 25.25573 25.26169 25.26972 25.27668 25.28630 25.29006 25.30130 25.30794 25.31971 25.32900 25.33489 25.34160 25.34860 25.35073 25.35564 25.35788 25.36165 25.36417 25.36795 25.37214 25.37603 25.38224 25.38684 25.41472 25.43327 25.48242 25.48317 25.47502 25.52841 25.61248 25.92827 26.43180 26.75429 27.34146 27.21094 27.73433 27.91491 29.57922 29.92104 29.17246 28.42847 27.37714 26.64027 27.39743 28.83517 31.47602 32.88937 33.94974 35.47604 34.49097 31.90554 30.35008 29.31972 30.95066 34.13997 34.65833 33.39588 30.34117 29.35068 29.95245 32.23897 36.06467 40.49136 42.34963 43.33181 40.55051 37.63129 36.80450 36.25624 34.19201 30.31348 28.32140 27.06912 27.52458 29.25718 31.00908 32.59874 32.52527 29.81852 28.46973 27.03332 27.40938 28.89423 29.29731 29.17761 28.22674 27.27372 26.31570 25.70865 25.60942 25.54886 25.49646 25.56171 25.54120 25.49634 25.47193 25.46038 25.41944 25.40500 25.38363 25.37978 25.37530 25.37506 25.37517 25.36966 25.36339 25.35954 25.35302 25.34846 25.34144 25.33460 25.32627 25.31874 25.31246 25.30614 25.29812 25.28996 25.28250 25.27600 25.27600
25.25000 25.25000 25.25107 25.25568 25.26084 25.26604 25.27394 25.28159 25.29076 25.29520 25.30617 25.31248 25.32374 25.33129 25.33832 25.34322 25.34741 25.34930 25.35431 25.35410 25.35574 25.35694 25.36042 25.36216 25.36249 25.36131 25.36518 25.37936 25.39958 25.39878 25.41448 25.48884 25.63280 25.80570 26.15778 26.19176 26.63050 26.45061 26.92472 27.69979 28.22077 28.23599 27.89757 27.04817 26.53607 26.58909 27.76327 29.07592 31.07137 32.58974 31.64495 30.09386 30.92841 29.77962 28.66461 29.04689 31.47301 33.44691 33.45581 31.54364 29.60916 28.55998 29.22867 31.39179 34.28474 37.80306 40.73935 41.04569 38.11792 36.05791 34.86863 34.63686 33.43626 30.58141 28.69621 26.93456 26.77177 27.85407 30.28368 31.27880 31.35280 30.15281 27.93407 26.59579 26.72249 27.52972 28.26978 28.36985 27.88466 27.03060 26.36655 25.97593 25.62068 25.48413 25.42412 25.39659 25.43396 25.42255 25.39662 25.41519 25.38622 25.37917 25.37666 25.36856 25.36395 25.36302 25.36030 25.36097 25.35777 25.35281 25.34894 25.33906 25.33629 25.33066 25.32404 25.31672 25.30880 25.30236 25.29584 25.28924 25.28141 25.27400 25.27400
25.25000 25.25000 25.25032 25.25494 25.26022 25.26555 25.27072 25.27723 25.28534 25.29204 25.30063 25.30858 25.31996 25.32499 25.33338 25.33807 25.34271 25.34482 25.34580 25.34837 25.34900 25.34890 25.34901 25.35223 25.35272 25.35268 25.35399 25.36074 25.37359 25.38295 25.40997 25.46073 25.55783 25.63892 25.78552 25.87286 26.05142 26.20252 26.62716 27.17115 27.51081 27.40169 27.19730 26.30617 26.01126 26.49593 27.51998 29.47383 31.08406 31.11757 29.69903 28.92415 28.61736 27.94953 27.76074 29.30121 31.13718 32.31221 31.09933 30.36052 28.56237 27.35812 28.31782 30.99442 33.63493 36.75657 39.05661 39.12032 36.21233 33.49981 32.11283 32.98049 32.32472 30.49989 28.15127 26.70177 26.30064 27.66780 28.52488 29.54371 30.04016 28.45485 27.54245 26.41086 26.16002 26.82004 27.41110 27.64757 27.30192 26.70869 26.29242 25.89831 25.68177 25.48706 25.41680 25.37805 25.37221 25.37968 25.36782 25.36314 25.36850 25.36532 25.36308 25.36001 25.35673 25.35247 25.35419 25.35221 25.34818 25.34531 25.34343 25.33702 25.33092 25.32166 25.31854 25.30731 25.30215 25.29985 25.29331 25.28466 25.27956 25.27200 25.27200
25.24900 25.24900 25.24991 25.25366 25.25851 25.26217 25.26864 25.27503 25.28097 25.29027 25.29827 25.30588 25.31471 25.32001 25.32723 25.33227 25.33572 25.33793 25.33893 25.33860 25.33942 25.34173 25.34292 25.34216 25.34234 25.34137 25.34477 25.34621 25.35377 25.37462 25.39138 25.40551 25.45214 25.51746 25.61784 25.63438 25.64439 25.89904 26.35832 26.57990 26.80937 26.61038 26.37416 25.84730 25.96302 26.32832 27.58749 29.13921 29.85521 30.12929 29.20574 27.71519 27.23715 26.76957 26.98891 29.33233 31.24026 32.05469 30.58928 27.72792 27.23033 27.10169 27.91821 29.96002 33.03595 35.34580 36.74986 37.20529 35.89143 32.16660 30.56358 30.36491 30.33331 29.41009 27.48799 26.65081 26.04840 26.62981 27.77550 29.04089 28.95352 28.30339 27.06651 26.23085 26.06947 26.02704 26.35758 26.56197 26.47799 26.23926 25.96832 25.83599 25.60294 25.50359 25.43312 25.37710 25.35999 25.36036 25.35625 25.35212 25.35207 25.35230 25.35410 25.35229 25.34798 25.34588 25.34345 25.34182 25.34185 25.33745 25.33191 25.32649 25.31831 25.31352 25.30409 25.30346 25.29812 25.29319 25.28775 25.28412 25.27720 25.27000 25.27000
25.25000 25.25000 25.25024 25.25266 25.25684 25.26125 25.26568 25.27046 25.27605 25.28483 25.29218 25.30217 25.30846 25.31858 25.32177 25.32523 25.32755 25.33138 25.33312 25.33201 25.33318 25.33407 25.33309 25.33449 25.33382 25.33434 25.33709 25.34161 25.34482 25.35126 25.35610 25.36847 25.38948 25.42886 25.42442 25.45192 25.53603 25.63253 25.97354 26.26123 26.30962 26.12627 25.64649 25.61296 25.84574 26.43698 27.36445 28.42596 29.06349 29.28836 28.39621 27.25206 26.69176 26.29440 27.25484 28.52252 30.08534 30.79692 30.05300 27.48544 26.41263 26.56146 27.94316 29.57828 31.38464 33.88980 34.82358 34.51076 33.11388 30.71834 28.99266 28.27600 28.42534 27.84827 27.37332 26.25317 25.80241 26.25173 27.03281 28.07570 28.11207 27.84342 26.79689 26.31249 25.89350 25.67006 25.83745 26.00805 25.82220 25.77321 25.65957 25.55944 25.50818 25.43103 25.39524 25.36659 25.34928 25.34699 25.34425 25.34530 25.34238 25.34420 25.34215 25.34289 25.33811 25.33726 25.33700 25.33431 25.33142 25.32845 25.32563 25.31713 25.31163 25.30684 25.29686 25.29255 25.28958 25.28524 25.28483 25.28067 25.27464 25.26900 25.26900
25.25100 25.25100 25.25141 25.25226 25.25423 25.25718 25.26070 25.26605 25.27202 25.27792 25.28809 25.29150 25.30068 25.30928 25.31591 25.31971 25.32142 25.32465 25.32285 25.32585 25.32622 25.32675 25.32648 25.32674 25.32644 25.33169 25.33353 25.33488 25.33703 25.33640 25.34027 25.33524 25.35936 25.37535 25.37936 25.37085 25.39857 25.48991 25.66566 25.86576 25.90565 25.69083 25.55925 25.58397 25.90968 26.35391 27.41253 28.01953 28.22991 28.17197 27.55553 26.83899 26.33883 26.12047 27.01773 28.11187 29.56268 29.95512 29.15613 27.43023 26.21391 26.62082 27.39111 29.12551 30.43517 31.54009 32.24984 31.93152 31.18762 29.95057 28.58308 27.11761 26.79111 27.08210 26.61643 26.00788 25.78908 25.97803 26.42875 26.56279 27.41437 27.24849 26.73957 26.17018 25.77920 25.62300 25.52574 25.63005 25.63244 25.52954 25.47840 25.43714 25.41537 25.39446 25.36899 25.34918 25.33726 25.33816 25.33800 25.33489 25.33319 25.33642 25.33482 25.33209 25.33210 25.32781 25.32715 25.32790 25.32478 25.32059 25.31728 25.30741 25.30243 25.29111 25.28935 25.28351 25.28301 25.28084 25.27870 25.27662 25.27272 25.26800 25.26800
25.25100 25.25100 25.25132 25.25171 25.25243 25.25519 25.25803 25.26187 25.26637 25.27270 25.27881 25.28908 25.29511 25.30182 25.31064 25.31166 25.31297 25.31371 25.31867 25.31716 25.31911 25.31878 25.31800 25.31662 25.31710 25.32060 25.32533 25.32609 25.32916 25.33021 25.32781 25.32793 25.33253 25.34585 25.35325 25.34556 25.35865 25.37291 25.45745 25.60874 25.61891 25.52832 25.45646 25.61533 25.82940 26.34806 26.89668 27.44974 27.55382 27.38287 27.00804 26.14004 25.86580 25.98909 26.77604 27.61866 28.46099 28.65151 27.91326 26.94854 26.29287 26.47432 26.92174 28.27077 28.95713 29.47737 30.08549 29.64891 29.26084 28.43310 27.60429 26.82232 26.16304 26.09851 26.15296 25.93981 25.63663 25.61551 26.02427 26.40810 26.52273 26.42444 26.24347 26.09577 25.77749 25.54029 25.42373 25.51225 25.48763 25.44540 25.39952 25.37306 25.35910 25.34404 25.34742 25.34145 25.33281 25.32858 25.32776 25.32775 25.32536 25.32882 25.32801 25.32907 25.32404 25.32225 25.32130 25.32041 25.31682 25.31318 25.30809 25.30103 25.29468 25.28636 25.28124 25.27801 25.27752 25.27486 25.27486 25.27335 25.27030 25.26700 25.26700
25.25100 25.25100 25.25065 25.25112 25.25184 25.25385 25.25520 25.25838 25.26347 25.26719 25.27378 25.28218 25.28948 25.29498 25.30058 25.30544 25.30511 25.30696 25.30820 25.30975 25.30948 25.31115 25.31173 25.31113 25.31206 25.31399 25.31778 25.31574 25.31805 25.31834 25.31848 25.31713 25.31912 25.32517 25.32370 25.32522 25.33920 25.35476 25.35504 25.39077 25.41401 25.39962 25.41980 25.56562 25.68258 25.99381 26.05745 26.77876 26.82096 26.61963 26.35093 26.05800 25.69515 25.67819 26.33628 27.16511 27.75644 27.58471 27.07536 26.12613 25.87077 26.03495 26.69998 27.30620 27.64834 27.70496 28.32286 28.05234 28.11430 27.50152 26.99622 26.47287 26.08096 25.72557 25.70742 25.70043 25.51947 25.51714 25.76156 25.90366 26.00844 25.97186 25.88819 25.72063 25.59354 25.48182 25.39663 25.37461 25.38978 25.37540 25.34985 25.33453 25.32969 25.32870 25.32735 25.32647 25.32138 25.31865 25.31779 25.31862 25.31752 25.31612 25.31869 25.31340 25.31466 25.31248 25.31063 25.31239 25.31145 25.30480 25.30086 25.29267 25.28548 25.28026 25.27426 25.27178 25.27050 25.27072 25.26947 25.26895 25.26767 25.26600 25.26600
25.24900 25.24900 25.24981 25.25006 25.25093 25.25229 25.25343 25.25596 25.25995 25.26339 25.26768 25.27668 25.28160 25.28918 25.29424 25.29830 25.29869 25.29952 25.30197 25.30209 25.30210 25.30257 25.30552 25.30647 25.30352 25.30724 25.30834 25.30989 25.30707 25.30880 25.31115 25.31074 25.30981 25.31277 25.31357 25.31116 25.31198 25.31776 25.32081 25.33008 25.32671 25.36281 25.38577 25.47526 25.59361 25.71580 26.00002 25.95040 26.29458 26.26270 26.03451 25.80045 25.57628 25.59435 26.15232 26.50710 26.91033 26.87725 26.19384 25.83969 25.60983 25.71019 26.20588 26.64244 26.97994 26.90103 27.07266 27.18194 27.19365 26.82321 26.33702 26.09042 25.89365 25.70601 25.57658 25.49665 25.45726 25.44448 25.50961 25.65396 25.69015 25.67537 25.56487 25.55021 25.47252 25.37677 25.33440 25.33690 25.32700 25.33151 25.32882 25.31934 25.31780 25.31572 25.31528 25.31918 25.31306 25.31106 25.31062 25.30808 25.31031 25.31052 25.31192 25.31087 25.30937 25.30658 25.30445 25.30321 25.30420 25.29957 25.29165 25.28646 25.28050 25.27312 25.27010 25.26603 25.26502 25.26509 25.26478 25.26553 25.26489 25.26400 25.26400
25.25000 25.25000 25.24980 25.25011 25.25041 25.25138 25.25226 25.25411 25.25699 25.26066 25.26422 25.27091 25.27649 25.28394 25.28499 25.28863 25.29169 25.29408 25.29250 25.29556 25.29602 25.29485 25.29595 25.29887 25.29938 25.29817 25.29996 25.29752 25.30090 25.29929 25.29867 25.29986 25.30404 25.30234 25.30400 25.30228 25.30285 25.30347 25.30285 25.30620 25.31306 25.32797 25.34950 25.40955 25.42721 25.53465 25.64521 25.78216 25.82039 25.82217 25.70825 25.62644 25.47586 25.48918 25.62582 26.10892 26.37684 26.34614 26.03786 25.59458 25.49422 25.68982 25.79997 26.14381 26.23682 26.38097 26.51308 26.40215 26.35198 26.15059 26.03749 25.80829 25.67986 25.54073 25.48335 25.44298 25.39223 25.37639 25.42576 25.46407 25.45770 25.45579 25.43908 25.39026 25.36736 25.34346 25.31286 25.30251 25.30943 25.30599 25.30521 25.30530 25.30669 25.30637 25.30655 25.30571 25.30592 25.30263 25.30213 25.30359 25.30285 25.30346 25.30208 25.30174 25.29931 25.29905 25.29659 25.29521 25.29534 25.29219 25.28787 25.28082 25.27625 25.26921 25.26346 25.26255 25.26130 25.26134 25.26145 25.26077 25.26146 25.26100 25.26100
25.25000 25.25000 25.24977 25.24988 25.25008 25.25057 25.25121 25.25242 25.25555 25.25735 25.26147 25.26684 25.27142 25.27499 25.27947 25.28235 25.28108 25.28401 25.28476 25.28456 25.28377 25.28815 25.28737 25.28845 25.29206 25.29252 25.29125 25.29057 25.29066 25.28915 25.29199 25.29282 25.29425 25.29685 25.29355 25.29433 25.28931 25.28981 25.29072 25.29296 25.30252 25.31497 25.32472 25.33858 25.36735 25.42006 25.45563 25.48898 25.57721 25.59794 25.60691 25.49947 25.41990 25.42583 25.48443 25.74053 25.93861 25.89391 25.75215 25.53037 25.44244 25.50088 25.61136 25.64395 25.66655 25.70481 25.84687 26.04650 25.91451 25.81312 25.61833 25.61163 25.51200 25.44533 25.42422 25.37653 25.34257 25.32718 25.33921 25.35221 25.36286 25.35657 25.34559 25.33745 25.31537 25.30465 25.29829 25.29506 25.29771 25.29699 25.29275 25.29612 25.29409 25.29440 25.29712 25.29744 25.29461 25.29429 25.29398 25.29606 25.29597 25.29831 25.29536 25.29654 25.29445 25.29118 25.29000 25.28794 25.28672 25.28453 25.27910 25.27538 25.26874 25.26439 25.26121 25.25818 25.25804 25.25820 25.25742 25.25854 25.25815 25.25800 25.25800
25.24900 25.24900 25.24955 25.24959 25.24965 25.25012 25.25049 25.25129 25.25297 25.25500 25.25613 25.25989 25.26607 25.26771 25.27177 25.27317 25.27473 25.27787 25.27940 25.27915 25.27720 25.27754 25.28144 25.28291 25.28274 25.28299 25.28516 25.28465 25.28254 25.28237 25.28185 25.28488 25.28692 25.28835 25.28775 25.28433 25.28247 25.28307 25.28445 25.28735 25.28853 25.29130 25.29526 25.30539 25.31494 25.32817 25.35393 25.35569 25.42072 25.41317 25.43716 25.40425 25.36745 25.37454 25.43419 25.51284 25.61134 25.64754 25.53618 25.44416 25.37906 25.39923 25.47352 25.50668 25.48870 25.52883 25.60737 25.63149 25.59710 25.53469 25.49078 25.44390 25.40034 25.37241 25.35603 25.34605 25.32659 25.30710 25.30902 25.32415 25.32804 25.30835 25.30637 25.30107 25.29076 25.28779 25.28803 25.28568 25.28506 25.29040 25.28713 25.28583 25.28626 25.28679 25.28698 25.28765 25.28895 25.28893 25.28882 25.28653 25.28644 25.28641 25.28713 25.28618 25.28492 25.28277 25.28118 25.28221 25.28121 25.27736 25.27497 25.26963 25.26640 25.26181 25.25726 25.25527 25.25458 25.25470 25.25519 25.25563 25.25523 25.25500 25.25500
