25.25100 25.25148 25.26094 25.26802 25.27821 25.28868 25.29325 25.30521 25.32073 25.34267 25.41681 25.50200 25.59743 25.88101 26.18147 26.59396 27.33803 27.83552 27.66962 27.52899 27.48016 27.19362 27.40553 28.54094 29.83639 31.68549 33.06899 34.14271 35.96121 35.92613 37.30586 35.16504 33.49211 37.42044 42.70826 50.28046 55.42316 63.41089 67.22863 67.40791 62.28778 57.55650 55.44742 56.40377 63.33339 71.40668 80.96176 83.89780 80.23459 75.68261 81.96174 82.50154 87.87450 92.33672 98.36328 101.20363 102.91433 101.91768 104.87253 106.66028 109.07787 109.00085 109.03696 109.13033 108.92690 107.03410 107.60012 107.38488 104.66601 102.05018 101.72419 97.62267 96.52573 94.00912 92.96892 90.69030 82.52292 74.67887 67.36859 62.27651 62.61203 56.73623 49.90499 50.05515 51.07261 57.35431 62.07835 66.10904 61.09791 55.99658 52.27975 50.75164 49.19168 47.50204 45.99670 40.81582 39.10792 37.00143 34.20206 32.49687 30.34775 29.07643 27.97422 26.72357 26.52195 25.84013 25.75304 25.85547 25.97138 26.02030 25.90590 25.73105 25.56457 25.46454 25.37693 25.33947 25.31771 25.30799 25.29718 25.28737 25.28217 25.27577 25.26700
25.25000 25.25000 25.26114 25.26865 25.27936 25.29174 25.30185 25.30611 25.32067 25.32850 25.35188 25.41081 25.51441 25.61040 25.79252 26.30954 27.16361 27.82804 28.36035 28.79482 29.04423 30.22531 29.50338 28.93270 28.95382 30.86306 33.51324 36.62912 37.79829 41.51644 41.50423 38.72364 37.02426 35.69009 38.60739 43.66987 50.96264 61.96532 67.35566 71.01072 73.45290 66.95728 67.21253 64.16236 64.08992 70.60495 78.58751 86.26936 87.14702 87.41409 92.11548 91.34698 94.97257 96.19171 104.79040 106.69092 105.84253 105.76454 107.28054 108.83998 109.28901 109.45814 109.38424 110.04818 109.87950 109.88118 109.71153 109.21127 107.35336 106.49987 106.09866 103.88494 102.99268 101.10951 100.09074 91.17948 87.63103 82.79916 75.21805 67.07290 67.29099 55.44105 51.61340 59.33667 62.56336 66.30049 73.41215 69.15684 63.44864 59.31070 57.21201 55.70434 52.33124 50.01472 47.02309 41.75082 38.85826 36.26080 32.10891 29.96829 29.26504 27.76073 26.61194 26.24570 26.06348 25.94690 26.22130 26.36225 26.22945 26.04312 25.73145 25.64768 25.48635 25.39629 25.33801 25.33212 25.31918 25.30738 25.30030 25.29040 25.28217 25.27595 25.26600
25.24900 25.25864 25.26302 25.27203 25.28014 25.29104 25.30353 25.32568 25.33650 25.35126 25.37696 25.41696 25.49062 25.57245 25.72655 26.13315 26.75971 27.80059 29.28771 29.88650 31.18144 32.21879 32.62787 31.30406 31.50184 30.55547 32.50225 36.78901 40.59319 43.57716 45.73053 43.76694 43.59333 41.38969 39.14849 40.59568 49.71198 59.66383 66.81813 74.45447 76.51170 76.37767 74.79311 73.73136 71.70084 71.94655 80.80481 88.60450 93.17287 94.89146 96.57843 98.12443 100.55242 104.41805 106.60086 108.18507 108.45612 108.11061 108.18524 107.75768 108.00729 107.76711 108.08032 108.17507 108.71526 108.61155 108.57298 108.71937 108.85589 108.98309 108.40833 108.23626 107.94335 106.03928 104.68478 100.35105 91.80508 86.03835 79.82284 73.06748 66.04546 58.82451 60.60999 62.98036 70.00107 77.24721 76.68657 72.49033 66.61318 60.08427 56.84777 54.54045 51.23983 48.04799 42.32138 39.39130 35.82545 33.03701 30.64791 28.81526 27.66766 27.08331 27.39075 27.00758 26.67112 26.69576 26.67238 26.57007 26.23249 25.89135 25.63440 25.51400 25.49989 25.40598 25.39488 25.35776 25.33234 25.31451 25.29864 25.28809 25.28152 25.27415 25.26600
25.24900 25.25076 25.26185 25.27289 25.28047 25.29074 25.30241 25.33481 25.36604 25.41356 25.48567 25.52933 25.68873 25.69575 26.10573 26.38563 26.77735 27.70215 29.64628 30.96162 32.48270 35.15253 35.70525 35.94863 34.69461 33.32813 32.64366 34.86483 38.15601 43.44340 46.93259 48.84836 49.18915 48.16071 45.01069 41.59020 47.85650 55.85856 65.82907 72.87122 79.43991 81.07299 79.79894 82.12166 83.41429 85.23855 85.58348 93.22378 98.94595 100.91042 103.15551 104.91651 106.32626 107.23508 107.91387 107.89292 106.85080 106.69056 106.77473 106.88489 105.99057 105.89437 106.12982 106.14211 106.78324 106.71542 106.29837 107.07997 107.60666 108.28517 108.32310 108.79466 109.12073 109.00138 107.36713 102.60608 99.38175 91.02633 87.01782 74.24227 68.78565 70.58797 73.22907 74.14990 78.45896 79.41636 79.38343 72.65268 65.64254 58.29059 50.49564 48.73379 47.14018 42.54002 38.11416 35.11218 32.59616 31.24954 28.83147 28.00660 28.87076 29.00796 28.67341 28.30111 27.62301 27.02279 26.68420 26.31589 26.02033 25.82761 25.79366 25.83644 25.83289 25.56898 25.48931 25.37833 25.35410 25.31304 25.29830 25.28810 25.28171 25.27490 25.26600
25.25100 25.26064 25.26593 25.27387 25.28353 25.29350 25.31761 25.35337 25.38715 25.45934 25.56245 25.69947 25.83588 26.04946 26.52272 26.70974 27.75160 28.44468 29.27695 31.66790 33.05679 36.23967 38.50832 38.44128 37.53006 36.85185 35.97364 36.49664 37.21864 40.56811 45.27710 50.93399 55.71536 55.17377 52.13323 47.33692 47.59886 54.78008 63.31480 67.07847 76.57663 86.50749 88.63388 91.42452 90.15687 91.26381 92.98763 96.24286 102.60434 106.29705 107.60300 107.52770 107.65941 107.04875 107.06303 106.33419 105.81442 104.89854 104.47431 104.68480 104.51410 103.80568 104.31235 104.79596 105.28971 104.96351 104.11353 104.99969 105.95636 106.63634 106.93745 107.63090 108.52990 108.76007 108.36187 106.62049 104.50985 96.70538 89.75104 83.88715 78.63693 78.57424 83.75939 85.53267 86.32567 84.53298 76.95796 71.75750 61.54648 54.96844 47.92895 45.97878 40.89667 37.49569 34.15759 31.60066 30.07938 29.31140 29.02920 30.89532 31.28940 31.48305 31.11585 29.13647 27.56251 27.17221 26.60551 26.57009 26.60978 26.54520 26.30223 26.22171 26.02405 25.76759 25.56419 25.40831 25.35014 25.31352 25.30016 25.29100 25.28213 25.27531 25.26600
25.25000 25.25956 25.26590 25.27702 25.28534 25.29214 25.30599 25.33891 25.37566 25.46573 25.57809 25.73768 25.97738 26.30286 26.63106 27.24536 28.26519 29.03267 30.22686 31.40409 33.94451 36.79688 39.52883 43.09934 43.82400 42.56098 42.09891 42.21144 41.41038 40.97744 45.32382 51.57223 58.19284 61.16467 57.77105 53.32300 52.50935 52.49954 56.42446 63.63872 74.84410 85.71869 92.43218 94.27837 98.54766 98.19649 99.29684 104.89977 106.73924 107.94749 107.58763 106.86082 106.58827 105.61757 104.95646 104.35656 103.80335 103.17014 103.15201 103.34380 102.49641 102.25945 103.54028 103.16210 102.94828 103.80928 102.54688 103.21727 104.46246 104.91729 105.40574 105.59921 106.71758 107.63166 108.34936 108.13410 105.94351 101.95451 96.92687 93.58925 87.28517 87.41739 91.08133 92.71868 89.29337 83.00653 75.53873 66.66845 59.70161 55.21044 49.02721 46.54212 39.90836 37.22221 33.02499 30.56949 30.92023 30.34469 31.39356 32.98281 32.58374 33.23951 30.92685 30.12123 28.25733 27.44905 27.71700 27.80505 27.06220 27.39484 26.93544 26.66335 26.23065 25.88380 25.58557 25.43801 25.36947 25.32421 25.30123 25.29190 25.28226 25.27579 25.26600
25.25000 25.25935 25.26597 25.27431 25.28198 25.29217 25.30151 25.31906 25.33885 25.37950 25.44110 25.58069 25.67257 25.85089 26.25317 26.64861 28.33796 29.10816 30.51706 32.24278 33.89577 35.86792 39.95282 43.25893 45.56233 45.50090 47.87025 50.09708 49.14156 48.99843 49.60778 51.54771 58.49282 65.30954 66.86144 65.40746 61.64857 61.99151 60.79252 61.18205 70.25779 86.03473 93.46469 99.38561 103.94308 105.15150 106.19566 107.27528 107.86996 107.73717 106.83055 106.04093 104.75137 104.49259 103.66572 103.00276 102.36096 101.50327 101.58320 101.74028 100.95563 101.26781 100.84503 101.33690 101.83108 102.03748 101.78906 102.39916 102.17433 103.08224 103.44091 103.56420 105.10813 105.28006 107.47054 107.89715 107.54045 106.49335 102.71328 100.15940 97.83653 97.74348 98.35897 96.06088 87.78689 84.07629 73.97017 66.28053 59.78682 55.76921 53.34705 48.04298 41.46931 35.93874 33.22747 32.39751 34.96078 33.94515 34.25721 36.25431 35.88788 33.62593 30.68989 30.02305 30.24190 29.50539 29.46843 28.87794 28.98259 28.00730 27.30656 26.60139 25.88982 25.68948 25.51981 25.44737 25.37274 25.32277 25.30675 25.28841 25.28295 25.27510 25.26600
25.25000 25.25000 25.26353 25.27175 25.28082 25.29086 25.30203 25.32470 25.33321 25.34399 25.34240 25.41550 25.56385 25.49610 25.83447 26.29789 27.50476 28.06919 29.09473 30.52389 31.79095 35.12041 38.04531 42.67515 44.62131 46.74077 49.98720 52.21924 54.18537 53.06733 56.49791 57.38446 59.94051 67.97951 71.29747 71.56263 69.31370 68.64557 67.24499 65.05670 69.83814 82.43141 91.90895 99.97932 105.16941 107.74237 108.34761 108.30373 107.62263 106.61730 105.69349 104.74330 103.57662 103.01296 102.36819 101.23798 100.84155 100.02654 100.65433 100.60421 100.27871 100.18477 100.16324 100.40500 100.42475 100.16103 100.07111 100.37006 100.96373 101.51831 102.40082 102.69409 103.25727 104.78636 106.06391 106.88332 107.57217 107.72579 107.48934 104.92578 104.64626 102.95024 100.99347 96.63705 90.48121 83.24409 75.36946 65.84123 60.00924 55.50094 51.39923 47.22932 40.75982 36.23982 35.67279 37.97092 40.17689 38.14144 39.62024 38.29021 36.63938 33.77647 32.28624 33.43292 32.63428 32.38306 31.39698 29.87603 28.90254 28.06570 27.20814 26.23914 25.70447 25.53222 25.41089 25.37997 25.32862 25.30658 25.29818 25.29194 25.28282 25.27516 25.26600
25.24900 25.25708 25.26561 25.27268 25.28328 25.30023 25.31171 25.34475 25.36619 25.38689 25.40589 25.40116 25.46498 25.53635 25.60185 25.78981 26.66765 27.59679 28.60573 29.14024 30.16004 32.76527 33.94761 37.51961 40.46846 41.92279 47.68075 51.88337 56.89805 59.69217 61.92905 63.97667 65.87033 72.19387 77.13632 79.56684 81.81995 78.39667 79.77158 81.51966 79.10266 83.95220 92.56327 100.44189 105.89137 108.50451 108.56161 107.37974 106.55605 105.55014 104.24546 103.31081 101.93988 101.29424 101.02923 100.56293 100.00106 99.26151 99.33072 99.73988 99.27735 98.95496 98.94658 99.23623 99.50729 99.09435 99.42534 99.63845 100.38064 100.73025 101.01673 101.07826 102.00159 103.45847 104.36162 105.22123 106.54022 107.28126 107.96172 108.13302 107.75731 106.10612 102.08717 93.91967 86.09127 80.86408 71.37654 63.57686 52.75275 47.68304 43.33205 39.21175 37.71148 40.34201 42.79270 49.81217 48.13267 47.54604 43.48559 41.59291 37.83395 37.03100 36.78165 35.99311 36.95529 35.36533 33.62361 30.90095 28.78931 27.46201 26.59240 26.01191 25.64977 25.47579 25.40556 25.40251 25.36941 25.36119 25.31792 25.29704 25.28502 25.27500 25.27500
25.24900 25.25103 25.26179 25.27390 25.28421 25.29990 25.32306 25.36760 25.39793 25.46279 25.48073 25.49213 25.63555 25.91162 26.06087 26.09807 26.03691 26.24415 27.55330 27.52777 28.20129 28.42575 32.14576 33.62801 36.00287 37.60039 44.99783 50.15189 53.58133 56.61778 61.26086 63.57408 68.48218 72.87747 80.12085 83.13827 87.50904 87.95287 88.78141 88.11940 88.65696 89.71953 96.09541 102.59833 106.55434 107.97068 107.86504 106.17684 104.70633 103.44990 102.68744 101.62580 101.18185 100.54994 99.51117 99.60825 98.97061 98.42775 98.55036 98.86220 98.64447 98.33577 98.08341 98.18325 98.46864 98.25890 98.68245 98.70910 99.15985 99.32192 99.61608 100.57711 101.32657 102.21250 103.10229 103.49738 104.76376 105.41797 107.26941 108.15524 108.52534 106.68563 98.99227 92.73169 81.94981 72.85170 62.64943 57.08378 51.57848 51.08040 48.43857 44.13679 47.01864 49.16137 48.03533 54.46076 51.20680 53.20171 49.56796 44.39043 42.85797 41.37028 42.33691 40.52041 37.71084 35.80387 34.21793 30.23806 27.76182 26.60822 25.94330 25.61239 25.46654 25.59615 25.60551 25.53183 25.47209 25.41090 25.36395 25.31806 25.29487 25.28558 25.28900
25.25000 25.25000 25.26233 25.27301 25.28319 25.29015 25.32100 25.35757 25.41137 25.47219 25.51352 25.68442 25.71904 26.32557 26.57782 26.61158 26.58684 26.36064 26.19566 26.69819 27.01498 27.31600 29.06979 30.78029 33.23677 35.65825 41.27167 43.96032 47.42095 51.45501 54.03601 58.77170 62.68838 70.13334 77.48675 83.96425 88.85991 92.47715 93.78511 96.88541 99.63969 97.96444 103.83856 106.05656 107.06901 107.03726 105.94539 104.55637 103.49796 101.94004 101.26470 100.25889 100.28030 99.73451 98.96021 98.75682 98.50934 97.98549 97.75999 98.05104 97.97621 97.75823 97.66622 97.83265 98.00327 97.90678 98.15102 98.32835 98.44428 98.67703 98.81093 99.54732 100.03750 100.67288 101.35685 102.14497 103.83032 104.76154 105.43398 108.12198 108.58807 105.83196 101.95648 94.86116 77.83442 70.99115 62.90244 62.29264 61.72615 58.21530 54.18955 51.43818 52.89801 55.98020 59.00179 63.82119 61.69616 56.92499 52.14766 49.36151 46.73220 45.97371 44.74277 41.14327 38.29107 34.39165 31.70270 28.58739 26.92214 26.16647 25.67738 25.58418 25.87292 25.84077 25.97632 25.69359 25.62542 25.49435 25.40081 25.33140 25.31294 25.29575 25.29800
25.24900 25.25806 25.26534 25.27624 25.28386 25.30429 25.31801 25.35277 25.38797 25.50554 25.68199 25.75418 25.93477 26.63908 27.25347 27.83513 28.10938 27.93044 27.31848 27.69128 28.36496 28.49681 27.74067 28.66806 30.45060 33.73171 36.67051 37.69735 38.92343 44.43924 48.79079 50.48373 59.42893 63.38701 71.32175 76.65945 83.58709 88.17898 98.19553 101.22103 104.14573 104.55257 107.41888 107.66517 107.29455 105.75589 103.95079 103.13097 102.25599 101.35403 100.41180 99.49027 99.07506 98.78878 98.69436 97.99817 97.90423 97.61901 97.58177 97.57785 97.61473 97.53801 97.36460 97.44990 97.57724 97.62826 97.65919 97.57080 97.87754 98.20057 98.08006 98.14881 99.54565 100.05102 100.13014 100.92974 101.67660 103.34936 105.07597 106.57324 107.51426 107.34782 104.02145 94.49844 87.57694 76.60275 72.95908 69.92418 67.70099 66.04414 63.30977 59.64044 58.93212 63.46594 66.29338 67.13519 64.72165 59.71630 55.42996 51.84682 49.67462 47.35594 43.30091 40.34794 36.27546 32.51282 29.40273 27.38621 26.39971 25.84408 25.81392 26.28248 26.32075 26.61918 26.38017 26.04082 25.81460 25.61307 25.41647 25.34629 25.32429 25.30196 25.32400
25.25000 25.25642 25.26530 25.27677 25.29748 25.34520 25.39153 25.44358 25.55717 25.66185 25.94824 26.18734 26.43686 26.86154 27.59527 28.52322 29.72113 29.85001 29.55278 29.99481 30.26642 29.71279 29.27579 28.28338 28.97813 30.89592 32.97779 34.10834 34.95687 39.13829 38.95979 43.66127 50.14129 58.27741 61.93849 71.19431 71.22962 82.68227 90.64526 100.19892 105.86039 107.70228 108.58923 107.79072 106.63476 104.85839 103.46695 102.24648 100.91741 100.20964 99.06609 98.55829 98.38816 98.28369 98.05998 97.72627 97.48209 97.36598 97.40750 97.31330 97.32562 97.34079 97.25300 97.25601 97.33815 97.33312 97.35275 97.39530 97.56220 97.60868 97.81364 97.89971 98.43782 99.07324 99.32515 100.03224 100.96156 102.12385 103.86826 105.39087 106.44194 107.36917 105.55117 99.16250 94.47525 86.62761 82.01287 76.83477 76.92882 74.88426 69.05018 67.54057 68.60108 70.54365 70.56308 69.84543 66.61578 60.25951 57.39422 51.77539 48.98665 43.72876 40.25484 38.42134 33.78145 30.90062 28.63709 27.35278 25.96149 26.10702 26.68110 27.20265 27.27777 27.20569 26.67824 26.20249 25.84827 25.65246 25.42351 25.36428 25.31482 25.29199 25.31500
25.24900 25.25613 25.26713 25.27865 25.31366 25.39949 25.44466 25.55581 25.68019 25.94301 26.41101 27.06886 27.44558 28.22932 28.83811 30.16512 31.60483 32.00695 31.50277 33.28542 34.70198 34.16635 32.22241 30.55196 30.93307 30.25447 31.46003 32.09042 33.30423 34.92459 36.03361 39.24751 43.45979 49.44198 54.83080 58.00137 66.63166 76.74704 89.87964 98.08085 105.29887 108.63316 108.28979 106.60627 105.11937 103.58370 102.25033 101.33894 100.59479 99.42979 98.82759 98.24056 97.77408 97.67355 97.67767 97.56912 97.38650 97.28712 97.24191 97.16349 97.19298 97.20341 97.17502 97.15929 97.17412 97.21038 97.18631 97.24096 97.41301 97.35154 97.45891 97.74273 98.03552 98.36466 98.37450 99.21700 100.24443 101.59145 102.65307 104.03836 105.96035 107.10866 106.44794 104.20364 100.47622 92.86166 91.06835 91.80500 88.45519 83.99605 74.98568 75.04997 74.02489 72.25990 69.83455 65.98036 62.83047 57.60237 53.40067 47.46769 45.64479 42.31044 36.96544 30.99507 31.36923 28.72678 27.24866 26.46778 26.35349 27.23410 27.61850 28.13050 28.00002 27.26696 26.75880 26.26929 25.91875 25.58899 25.39292 25.33550 25.30412 25.29065 25.28200
25.25100 25.25742 25.26606 25.28341 25.31212 25.42240 25.53351 25.73702 25.97831 26.30643 27.04679 27.59700 28.55718 29.65083 30.81743 32.06165 33.49794 34.23392 35.73795 37.06035 37.86669 36.77810 36.42198 33.97465 33.72669 34.96405 36.55048 35.27785 35.86028 37.54870 40.31461 43.15293 43.56277 46.50737 48.46799 57.32688 66.58019 75.59513 85.05066 96.82442 105.18639 107.83726 107.65457 105.89451 104.46673 102.40766 101.52880 100.04770 100.00776 99.35547 98.69485 98.25519 97.82008 97.40819 97.37138 97.28185 97.23847 97.19054 97.15708 97.13252 97.13223 97.13750 97.12297 97.10038 97.11256 97.11563 97.13213 97.18522 97.20348 97.18878 97.39412 97.58072 97.61027 97.86350 98.01722 98.58407 99.62603 100.61495 101.85911 102.92503 104.91666 106.35555 107.28029 107.11236 105.32041 104.42547 98.69433 96.75368 94.08136 86.19950 85.27389 81.03638 74.61747 71.10606 61.68978 57.10713 54.03833 53.55605 50.91141 44.39919 38.03668 36.90738 32.64831 30.94562 28.17578 27.09279 27.19371 27.70059 28.12670 29.08919 29.24465 29.62501 28.64604 27.05183 26.68385 26.05618 25.67378 25.51376 25.38663 25.34088 25.31090 25.29119 25.28600
25.25000 25.25000 25.26384 25.28338 25.31374 25.42502 25.53930 25.80664 25.97719 26.40917 27.04650 27.58068 28.65699 30.41155 31.36050 32.01701 32.87797 33.48852 35.39438 38.55525 39.51238 41.31180 40.49176 41.60618 41.37648 39.53886 40.46412 41.06420 38.06933 40.11813 45.72748 49.61905 49.43407 54.09624 57.69276 62.12638 65.47529 78.62538 85.47215 97.39791 104.36648 107.62055 107.23148 105.40308 103.70430 102.01839 100.84637 99.77962 99.26153 98.84491 98.49680 97.71703 97.37828 97.30821 97.23507 97.16856 97.15531 97.14802 97.12881 97.10902 97.09896 97.10361 97.10399 97.08674 97.08679 97.08548 97.08370 97.11109 97.09366 97.13998 97.26008 97.35395 97.32353 97.48398 97.79752 98.20794 99.26272 99.95709 100.97760 102.12337 104.07004 105.30838 107.15524 107.92509 108.07791 107.18718 104.91514 99.87126 95.24637 89.86957 86.31809 77.81089 72.90933 63.76361 55.22375 49.24646 46.95162 45.69474 45.71586 40.15125 35.97214 31.87430 31.35436 28.92983 28.35104 28.25329 28.54362 29.44853 30.70530 31.10778 30.45621 29.90312 29.07255 27.66694 26.35990 26.06336 25.80968 25.59899 25.45298 25.37273 25.32823 25.29548 25.32800
25.24900 25.25808 25.26678 25.27657 25.33255 25.40535 25.52983 25.54385 25.79740 26.23516 26.76107 27.18257 27.83627 29.43081 30.55995 30.40767 30.93107 32.01428 33.13745 35.93239 40.82572 41.87507 43.71008 44.96136 46.27368 47.72322 47.33597 45.06992 45.99697 43.77959 46.61323 53.47499 59.76769 64.89113 64.41286 71.29618 76.54509 80.37832 88.36896 99.92021 105.74293 106.76450 105.73563 104.86689 103.12752 101.75057 100.25521 99.55835 98.36033 98.22018 97.82184 97.59243 97.31779 97.27487 97.20300 97.14692 97.13612 97.11878 97.10957 97.10588 97.09429 97.08262 97.07928 97.07116 97.08013 97.07966 97.06514 97.04092 97.00452 97.05993 97.12979 97.12576 97.20234 97.50517 97.78860 98.30186 98.86186 99.44475 100.50065 101.61266 103.57131 104.99775 106.38728 107.70632 108.72459 108.45071 105.02806 98.96668 90.59547 87.13708 78.10244 72.06017 65.40341 58.88158 52.67811 46.76692 45.31612 40.69288 38.91302 37.16810 33.80228 32.19929 30.87126 30.68874 30.25602 31.17054 32.24009 32.75555 32.53437 31.92776 30.80229 29.91866 28.70502 27.91115 27.03608 26.42097 25.99274 25.71745 25.54296 25.41105 25.33943 25.30595 25.35300
25.25000 25.25000 25.26524 25.27909 25.31862 25.35857 25.41023 25.44829 25.50716 25.78065 26.00964 26.53831 26.82128 27.50403 28.42645 28.03893 28.20366 28.78861 29.97555 33.35831 37.26199 40.06299 43.24320 46.88705 49.07870 53.11416 53.47720 53.14353 52.78092 49.70649 52.49648 56.48289 66.07950 69.20228 76.57963 78.92732 85.09978 92.59540 98.05691 101.92516 106.68498 106.41276 105.43786 103.50657 102.16803 100.62076 99.97861 99.36570 98.55868 97.90679 97.50020 97.31475 97.20632 97.17269 97.15061 97.13630 97.12423 97.11946 97.10726 97.09502 97.09186 97.08615 97.06364 97.05812 97.07627 97.07609 97.06683 97.01416 96.96647 96.91720 96.96981 97.00595 97.17195 97.35533 97.66871 97.88886 98.45035 98.98168 99.87774 101.50221 102.28328 104.27243 104.62150 107.02595 108.66991 107.68268 105.52772 97.46180 88.34868 82.60100 73.67448 68.47727 61.41529 58.64272 59.04031 54.87965 51.17653 45.36284 38.22978 34.86960 34.44683 34.86049 34.17437 33.69245 34.04929 33.79205 33.45120 33.17330 32.25438 31.63837 29.72778 28.94650 28.23134 27.48516 27.13288 26.50467 26.09600 25.79441 25.55982 25.41921 25.36813 25.31591 25.36200
25.25100 25.25100 25.26382 25.27725 25.29518 25.31524 25.32257 25.31894 25.38018 25.48336 25.60717 25.65919 26.10083 26.52294 26.71866 26.93561 27.97754 28.61417 29.87987 31.27732 36.08384 38.27113 41.18912 45.67940 50.58729 54.81839 59.07603 60.38973 62.02119 60.56480 60.58909 61.32383 67.14851 78.90962 84.66632 86.70789 93.81112 96.83873 101.86235 106.74577 107.62761 106.45991 104.45769 103.25088 101.65768 100.39514 99.31372 98.49509 98.30155 97.82640 97.40570 97.32819 97.15555 97.14052 97.12986 97.11564 97.11529 97.11571 97.11103 97.09789 97.08704 97.07731 97.05805 97.04727 97.06913 97.06252 97.06932 97.04661 96.89730 96.57558 96.80427 96.97549 97.15742 97.20520 97.39692 97.53012 98.03817 98.76312 99.59049 100.77932 101.63362 102.98203 104.09145 106.22512 108.05792 107.95700 104.13344 99.13621 92.07652 83.95454 78.10698 74.55564 73.46411 66.22139 64.55053 62.31709 55.41685 48.35255 42.46554 37.44622 39.00622 39.50448 38.32574 37.94849 36.01214 34.78799 33.32203 31.40518 30.48918 29.73472 28.69081 27.46255 27.57005 26.98213 26.68361 26.36333 25.89909 25.61033 25.50583 25.40625 25.37247 25.32585 25.44300
25.25000 25.25000 25.26111 25.27457 25.28119 25.29414 25.30209 25.35013 25.41829 25.50557 25.71477 25.91816 25.94067 26.07246 26.51998 27.36848 28.72694 30.63915 31.42986 33.16042 34.16613 37.94971 41.56522 47.30884 53.44365 59.46552 62.37664 65.42937 66.67099 67.01416 66.42063 68.56063 72.35741 81.48371 89.14695 93.93821 99.72350 102.84613 106.52807 108.04793 106.95733 105.75336 103.27260 102.06689 100.83782 100.07330 99.03403 98.20493 97.92275 97.56978 97.40231 97.26487 97.16750 97.12615 97.11085 97.10084 97.10674 97.10978 97.10736 97.09977 97.08227 97.05867 97.01693 96.99075 97.03301 97.03329 97.04509 97.03674 96.98569 96.38615 96.53918 96.83486 97.05567 97.08396 97.16970 97.50319 98.03864 98.45075 99.24350 99.66304 100.41182 101.85535 103.32790 105.81921 107.13898 107.90396 105.02588 102.82830 95.29789 89.85342 89.11304 81.29840 77.80379 73.18785 69.19759 63.92841 54.17497 49.40543 42.74996 41.78241 45.27049 42.48208 41.53244 39.37215 36.34155 34.21980 32.20167 30.29229 28.77186 28.17288 27.25656 26.56048 26.41751 26.71486 25.99705 25.91474 25.62400 25.51711 25.43069 25.39031 25.35803 25.33553 25.42600
25.24900 25.25812 25.26374 25.27218 25.28996 25.30950 25.33686 25.38781 25.53288 25.69387 26.02170 26.39490 26.49943 26.67673 27.58126 28.37851 29.67761 31.27385 35.08305 36.93820 38.21113 41.07511 47.26480 51.64795 55.02354 58.97376 62.00601 64.66546 65.76352 68.58415 69.07605 72.69288 78.54671 83.85095 89.63266 97.23756 102.01670 106.84020 108.29424 108.09800 107.46071 105.43136 103.29836 101.66128 100.49410 99.62010 98.82148 98.10062 97.72598 97.44311 97.31431 97.18457 97.15495 97.12602 97.11034 97.09500 97.09298 97.09993 97.10082 97.09712 97.08317 97.06765 97.00699 96.87567 96.92065 96.77800 96.91316 97.01723 96.87737 96.17935 95.11819 96.21588 96.85286 96.83308 97.07685 97.42329 97.93743 98.07424 98.37720 98.97642 99.79605 101.71318 103.25331 104.68349 107.06085 107.91949 107.26221 104.79264 101.05042 95.62384 92.54494 85.35667 80.88684 75.84428 67.69970 62.13716 55.16448 49.57820 48.12085 49.04339 48.47777 46.27001 42.37668 39.41476 36.42948 33.55683 31.97444 31.46094 29.07572 28.32605 27.29596 26.59695 26.13228 25.78699 25.68422 25.62423 25.54426 25.50963 25.43941 25.37840 25.35479 25.34203 25.35000
25.24900 25.25242 25.26517 25.28392 25.31390 25.32776 25.39957 25.46646 25.59466 25.92543 26.44582 27.06317 27.61009 27.88001 28.72214 30.67191 31.65386 33.23430 36.61082 39.64981 41.94443 44.20759 50.11584 51.81254 52.08053 54.16581 57.35332 59.11626 60.05553 63.67488 65.43190 72.81964 76.85331 82.02196 86.84842 93.06947 101.22699 107.10895 108.58957 108.21164 106.78453 105.06916 103.46303 101.99255 100.41578 99.34427 98.45909 97.89947 97.69474 97.40378 97.27003 97.18368 97.13258 97.11859 97.11164 97.10159 97.08310 97.07836 97.09100 97.08912 97.08499 97.07576 97.03718 96.79075 96.47745 96.35905 96.40975 96.84216 96.65415 95.13323 93.95411 96.36013 95.87453 96.38389 97.05569 97.24021 97.54654 97.73467 98.12299 98.66797 99.92309 101.59600 103.17576 104.23141 106.44601 108.23425 108.26452 107.65046 103.84052 97.49532 92.38052 87.40366 83.39793 76.43798 69.14855 63.36218 59.77241 56.35019 52.86357 51.29003 47.75008 45.10383 41.09421 39.60081 37.18758 35.03416 33.81787 32.55277 30.16766 29.04041 27.75144 27.32980 26.44399 26.16701 25.84495 25.85181 25.81214 25.62593 25.48590 25.43824 25.37536 25.34067 25.33300
25.24900 25.25820 25.26641 25.29629 25.33286 25.40308 25.46845 25.56635 25.79478 25.91890 26.43350 26.91169 27.73370 29.09259 30.21132 31.83527 33.33597 35.21952 37.55673 41.90189 43.39057 46.55132 48.23648 49.98636 47.88679 48.60615 50.56289 51.62159 52.72153 53.38018 59.07141 64.53932 66.24453 73.29599 82.25668 91.08007 98.92404 105.44164 108.43603 108.27359 106.37535 104.48794 102.66548 100.97487 100.41698 99.09783 98.27715 97.62358 97.43027 97.27798 97.20914 97.15426 97.13384 97.11330 97.10602 97.09570 97.08509 97.06187 97.07152 97.06887 97.06542 97.06364 97.04749 97.00290 96.70719 95.89829 95.37860 96.23737 96.20737 94.10156 93.89421 95.69602 94.80358 96.23430 96.85601 97.16358 97.43470 97.59378 98.20612 98.75959 99.84197 101.10589 102.43923 104.39694 106.54782 108.10859 108.86935 107.74616 103.32347 97.77902 92.86618 85.99573 80.00249 70.80882 66.33978 61.68537 59.60745 54.57129 50.45585 46.77240 43.71537 40.12813 37.43787 36.36721 34.44321 33.64005 33.20214 32.25628 30.67635 29.49532 28.29076 27.62043 26.85156 26.58668 26.44351 26.16419 25.95606 25.78272 25.59763 25.46010 25.39382 25.34177 25.42900
25.25000 25.25920 25.27027 25.29478 25.35119 25.42713 25.53993 25.75149 25.95519 26.29463 26.79132 27.18314 28.36759 29.50730 31.34257 32.93506 34.36103 36.55695 39.11969 41.69949 42.41517 43.00043 44.15945 43.15336 41.85411 40.13443 42.12255 43.07071 43.67071 46.64122 51.37692 59.29147 64.72446 72.01522 82.09786 91.30678 98.81498 104.39737 107.86733 107.79002 106.31674 104.56720 102.74845 101.04215 99.68370 98.95344 98.15333 97.60312 97.50287 97.23270 97.17727 97.13761 97.12824 97.12129 97.10967 97.10172 97.09105 97.07739 97.00927 96.95410 96.92914 97.01398 97.02617 96.98785 96.89312 96.10888 93.96188 94.88580 93.77492 91.19013 91.94763 91.91582 93.29704 95.57217 96.81767 97.22251 97.47240 97.62484 98.63221 99.06700 99.61294 100.88950 102.35365 103.70481 105.14357 107.78282 108.45451 108.11504 103.64397 100.04079 89.07526 82.87968 75.39626 68.80365 64.38885 56.62172 51.37620 47.69351 43.17589 38.92433 36.86226 34.90061 33.27088 32.03987 32.26567 31.49115 31.43241 30.56931 29.34999 28.88102 27.43477 26.87438 26.53003 26.46766 26.38967 26.22067 26.05121 25.70560 25.58024 25.45471 25.38676 25.33183 25.47800
25.25000 25.25805 25.27784 25.29697 25.36653 25.46924 25.65280 25.94582 26.15218 26.64524 27.12416 28.05881 28.68264 30.04493 30.94406 32.39695 34.22801 36.14660 37.40333 38.15333 37.87899 40.98488 38.47550 37.27762 36.48180 35.09387 36.88428 40.30246 45.83260 51.46762 55.48449 60.71348 68.85264 74.77268 86.41368 92.57828 99.67268 105.74957 108.23217 108.04795 106.10432 104.43856 103.01757 101.33375 100.11292 99.27236 98.43525 97.94808 97.53246 97.31657 97.19532 97.14056 97.12652 97.12176 97.11166 97.10530 97.09235 97.07852 97.04210 96.95923 96.72046 96.57194 96.81057 96.51841 96.43871 96.02632 94.56095 91.15712 89.63636 91.65031 86.61361 87.06155 91.38554 95.74697 96.02634 96.94508 97.22347 97.58212 98.34047 98.90810 99.49550 100.43532 101.84345 104.04086 105.70117 107.97466 108.58561 107.84398 103.62678 97.40822 91.80326 84.63556 78.84028 71.74898 65.90215 58.18003 52.46080 46.84789 41.99907 38.42579 34.69114 33.34176 30.68008 30.18265 28.95857 28.45104 28.14552 28.52977 28.10984 27.14323 26.78498 26.16399 25.92210 26.01560 26.12942 25.94981 25.87065 25.67120 25.47851 25.42090 25.36041 25.32194 25.41600
25.25000 25.25000 25.27411 25.30025 25.35056 25.47732 25.60052 25.85045 26.14899 26.65427 27.29085 28.00138 28.71187 29.26526 29.34554 29.91985 31.01009 32.53946 32.96707 34.43070 33.21622 33.84800 33.52318 32.26798 33.73668 36.83631 41.16919 41.62274 44.34072 48.65346 54.63803 61.73764 70.96065 77.26468 87.61028 94.35311 101.11321 106.87482 108.30976 108.22604 106.31052 104.59109 102.89589 100.74808 99.71275 99.01177 98.29482 97.70328 97.46728 97.37940 97.19668 97.15290 97.12200 97.11396 97.10839 97.09566 97.09263 97.08635 97.07105 97.03278 96.80716 96.16927 95.52800 94.72503 94.81234 93.17077 94.28244 92.94178 87.45202 87.06903 79.97339 81.62955 86.30909 92.91384 94.47120 96.23091 97.26759 97.71657 98.03999 98.65883 99.46721 100.74723 102.09737 104.07751 105.55281 107.50913 108.73347 107.24428 102.40795 94.32197 89.71916 83.05589 75.53865 63.67137 58.65490 54.31692 51.61382 46.76604 43.87210 39.67548 36.49436 32.76595 30.71897 28.84269 28.52464 27.72186 27.37406 27.18547 26.75364 26.36270 26.25025 26.05209 25.81009 25.75550 25.62322 25.61386 25.63615 25.49195 25.44328 25.37696 25.34333 25.32080 25.31200
25.25000 25.25000 25.26692 25.29515 25.34711 25.41082 25.48764 25.63124 25.77116 26.42982 26.94458 27.30475 27.65206 27.68128 28.09286 28.32065 29.82151 29.95066 30.05248 30.73616 30.24972 31.12555 32.35407 32.93432 37.90290 40.81409 43.79102 48.79587 49.64512 52.95756 59.32169 63.45018 70.56241 79.99267 87.68371 93.80615 101.72504 106.06401 108.55251 107.90717 106.34366 104.71435 102.64669 101.31447 100.05829 99.06164 98.23951 97.68444 97.38859 97.25208 97.17350 97.13843 97.13045 97.11795 97.11123 97.10267 97.08676 97.06845 97.06351 97.03731 96.87536 96.58845 95.87353 95.79308 95.25585 92.29393 89.57987 93.90537 92.52567 88.66487 73.07855 75.97788 81.61025 90.21230 93.73569 95.78269 97.01364 97.52230 97.96596 98.54097 99.11579 100.56047 101.74321 104.01451 106.48441 107.64155 109.00728 107.70366 102.24986 93.82563 85.21543 77.22692 68.04903 61.88393 52.66090 48.73639 43.42919 41.17207 41.26337 37.55504 32.57411 30.46537 30.99127 30.44143 30.41440 29.03147 28.22741 27.22763 26.81451 27.19147 27.35424 26.93913 26.28429 25.92148 25.60696 25.49434 25.44816 25.43527 25.38316 25.35367 25.33031 25.31680 25.30800
25.24900 25.25837 25.26664 25.28150 25.30606 25.33264 25.34863 25.44865 25.55967 25.73667 25.79868 26.25969 26.50628 26.77995 26.51575 26.52499 27.31690 27.81078 27.95118 27.97956 28.93073 29.15608 31.20533 35.81874 40.23715 45.31560 50.04811 53.92677 59.09103 61.30696 65.21447 70.82526 76.22741 83.74794 90.02647 94.48196 99.02652 103.25964 107.37903 107.83198 106.27815 104.76868 103.04585 101.57437 100.18052 98.83418 98.27284 97.73211 97.49003 97.33838 97.20845 97.15698 97.13370 97.12420 97.11640 97.10218 97.08679 97.06315 97.02262 96.97038 96.93894 96.72924 96.63976 96.48863 95.63048 94.98524 88.27313 85.14775 85.39205 88.96147 73.07395 75.87346 86.78370 92.31831 95.13892 96.06614 96.71011 97.49718 98.15651 98.99913 100.20185 101.16233 102.22941 104.28565 105.53525 107.71166 109.45589 108.61834 104.46532 97.05587 91.52003 79.75857 74.09194 68.68087 57.56281 51.17714 46.31470 40.33469 39.03593 36.50284 36.73364 35.67218 36.90499 34.08652 32.67111 30.77652 30.22113 29.50596 29.36348 29.37979 28.13257 27.79110 26.87992 26.32219 25.91159 25.74375 25.58194 25.44004 25.40208 25.36381 25.33903 25.31784 25.35900
25.24900 25.25678 25.26554 25.28179 25.28754 25.31276 25.36283 25.38258 25.37518 25.43885 25.54032 25.64629 25.97998 25.89890 26.24363 26.69200 26.98890 27.68600 28.53021 29.44752 30.71850 31.88995 33.64779 37.13507 42.18393 47.02485 53.56046 58.04204 61.59994 64.88442 69.62913 72.29421 73.62398 82.85488 85.69104 89.24456 94.42168 101.11216 106.49534 107.48942 106.49655 104.40992 103.36351 101.08834 99.99905 98.84405 98.09232 97.58171 97.42220 97.33126 97.20374 97.15952 97.13796 97.12417 97.11331 97.09949 97.09816 97.08829 97.08575 97.05861 97.04301 97.01091 96.99808 96.98363 96.71854 95.84953 94.72196 90.55198 79.54227 76.57810 68.05258 65.27177 78.49872 88.00364 93.09339 94.06509 95.76628 97.38352 98.21635 99.05731 100.03517 101.92508 102.29022 105.01010 106.20301 108.40135 109.18752 108.81422 105.87985 100.52868 92.17470 89.99200 80.99125 76.13179 69.77471 60.66148 49.26441 47.71302 46.70725 44.83504 41.46571 41.64381 40.50496 38.71297 36.53787 35.06753 33.22579 31.06053 30.56155 30.67660 30.27278 28.77326 27.79241 27.43171 26.88841 26.05313 25.80973 25.61646 25.50543 25.46341 25.35991 25.32767 25.42300
25.24900 25.25794 25.26693 25.28051 25.30558 25.37589 25.43524 25.46949 25.53787 25.57527 25.78123 26.03716 25.96443 26.02314 26.91542 27.84619 28.62718 29.19638 30.51072 31.87544 33.59678 35.65169 37.63563 40.18417 43.57205 46.63506 50.81687 55.13187 58.52001 61.80588 65.13046 66.43181 68.68547 71.67303 77.83161 81.77107 88.76118 97.04058 102.69910 106.76815 106.74148 105.07297 103.17026 101.58238 99.77181 98.83982 98.14798 97.90888 97.49999 97.39081 97.24379 97.18140 97.15147 97.12749 97.11147 97.10690 97.10410 97.09677 97.08660 97.07972 97.07168 97.06149 97.02961 96.97283 96.55015 95.64527 95.22316 92.65987 81.24561 71.57395 68.92638 65.43050 67.94915 73.87827 81.97860 85.08051 92.46031 95.14381 96.48828 96.63907 98.63534 101.39503 102.82438 104.63171 106.30431 108.16295 108.68475 106.25795 101.50243 99.91877 94.36404 90.13245 86.02745 78.07026 74.28265 66.29649 59.50676 54.42854 52.60660 49.68698 48.30936 45.61795 43.78640 41.03898 38.69829 36.14557 34.69451 32.78644 31.86049 30.97681 30.32796 29.75566 28.97698 28.13385 27.41769 26.78959 26.33040 25.86073 25.64320 25.45566 25.38807 25.33794 25.41400
25.24900 25.25691 25.26718 25.29289 25.32074 25.37079 25.52555 25.74239 25.75489 26.23550 26.37356 26.70257 27.13693 27.13709 27.95015 28.87313 30.86441 31.85026 32.30125 33.73867 35.33121 36.54454 37.00180 40.02716 41.85292 44.27589 46.27631 47.77740 49.35928 55.13380 57.03604 56.21751 59.25772 66.17714 69.13098 77.36403 84.61741 93.73753 100.62000 104.58078 106.83974 105.32221 103.64905 101.68646 100.32883 99.91164 98.69712 98.07980 97.77183 97.39284 97.25943 97.18661 97.14558 97.11865 97.10745 97.10495 97.10260 97.09572 97.07023 97.07272 97.06116 97.02022 96.84391 96.23181 93.59867 93.08040 87.45497 84.93612 81.05669 79.01564 84.36161 74.06597 64.36083 60.35361 64.06932 76.22926 84.40622 88.29733 90.98065 91.66849 95.01774 96.31758 102.47128 104.82515 106.48518 108.25676 107.80993 103.50448 96.55375 95.79816 90.27155 86.78477 82.61323 77.52881 73.44220 67.93391 62.80702 60.85869 57.01382 53.03894 50.45527 47.23213 43.58980 41.20862 36.69772 34.42855 33.42959 31.92301 30.35900 29.55399 29.12588 28.92857 28.74002 28.32301 27.37040 26.93907 26.47874 26.06186 25.67448 25.50384 25.38204 25.34479 25.37600
25.25100 25.25990 25.26800 25.28563 25.33294 25.39324 25.63748 25.85434 26.01582 26.60201 26.90828 27.60496 28.17250 28.34241 28.84355 30.41699 31.77403 32.77625 33.38141 33.94051 34.55834 34.80473 34.23679 35.33789 35.69849 36.97356 38.81223 41.77802 41.96902 47.31919 50.01590 49.79969 54.52136 60.43926 65.93197 75.81220 83.93598 92.16642 101.70958 104.75157 106.98295 106.09227 104.36853 102.30508 101.33508 99.88749 98.90406 98.59124 97.86624 97.57214 97.27109 97.20066 97.17507 97.12543 97.11885 97.10379 97.08769 97.08629 97.06176 97.01655 96.93470 96.90850 96.69064 94.87802 93.46891 91.54304 88.48797 87.33283 90.18532 87.70385 82.23378 78.33829 81.30400 75.55222 70.10329 57.94574 73.35035 81.56269 81.61183 76.34531 86.41458 96.06010 100.62247 103.77367 106.01131 106.33140 106.65146 99.28281 92.84059 84.84407 82.54448 76.67393 73.21687 71.96122 71.20724 66.03158 63.52865 59.74288 55.06419 52.03683 48.01832 44.51105 39.97425 37.97369 35.03180 32.37537 31.09467 30.01346 28.65612 27.82924 27.50647 27.94466 28.06531 27.50494 27.09853 26.76045 26.36675 25.91052 25.70200 25.53593 25.38760 25.33461 25.38000
25.24900 25.25790 25.26751 25.28750 25.34022 25.42098 25.59848 25.69981 26.05851 26.72255 27.12236 27.92357 28.51601 28.83234 29.28721 30.52790 30.93978 31.34732 31.58789 31.28703 30.61054 30.28155 30.38051 31.40275 32.42766 32.62850 34.77613 37.47790 39.96926 42.70101 47.35947 53.89375 60.53485 61.60284 69.46358 77.16639 85.65994 96.17530 101.58155 106.01374 107.13969 105.89747 104.22881 102.29337 101.45118 100.21453 99.46682 98.80842 98.24622 97.70001 97.41680 97.27456 97.18266 97.14538 97.13477 97.11656 97.10411 97.09167 97.06634 96.97764 96.86845 96.54854 96.10404 96.05949 96.15897 95.06357 92.52656 93.87574 91.61555 87.07340 90.52282 91.36306 89.83416 90.62892 81.97744 63.22802 65.90383 67.87261 62.16937 65.15891 83.60632 91.47674 94.19181 100.68767 104.06735 103.69384 101.34377 96.81577 92.46722 78.83257 72.81944 68.82722 65.05003 61.30647 61.92116 62.80443 57.96460 55.91497 51.68702 51.28829 48.91236 46.60744 44.12256 39.17957 36.30438 33.84539 31.80278 30.48470 29.56277 28.26920 26.86085 26.62971 26.68242 26.75932 26.42955 26.19381 26.02266 25.81296 25.57216 25.44882 25.36427 25.32447 25.39600
25.24900 25.25817 25.26635 25.27595 25.31962 25.41343 25.48512 25.64010 25.84086 26.31525 26.92736 27.37084 27.71654 27.83628 28.18995 28.33876 29.16506 29.13803 28.74847 29.48691 28.57741 29.33645 31.86135 33.77630 35.00642 37.91168 40.00179 42.16008 44.16484 49.70835 55.62645 59.07354 67.14704 70.01705 76.21372 83.34827 90.55087 96.23317 102.37913 106.80577 107.50476 106.34253 104.43233 103.46249 101.67755 100.83823 100.34907 99.22390 98.30360 97.88687 97.53979 97.29178 97.21868 97.19844 97.17268 97.12435 97.10755 97.08069 97.05197 97.06626 97.03628 97.01788 96.93855 96.86027 96.26303 95.23512 95.43768 94.75237 91.46978 92.07487 95.26809 95.76455 94.36771 92.90364 83.10501 71.86494 56.25772 61.23020 56.36647 60.51873 76.30592 79.80291 83.52133 91.05251 92.33190 94.87253 88.94096 87.84484 82.97577 80.25592 70.32015 62.88780 56.02209 52.60309 53.34796 54.08911 54.62991 49.87237 45.53554 45.76910 47.81062 46.41060 45.28196 42.89067 39.40407 36.00963 34.21864 32.06897 31.18220 28.90315 27.64960 26.29707 25.96426 25.88958 25.94965 25.73814 25.72887 25.66869 25.48966 25.40053 25.34350 25.31485 25.34100
25.24900 25.25307 25.26509 25.27672 25.30703 25.33242 25.43555 25.54401 25.63434 26.38266 26.40784 26.47208 26.68062 26.41716 26.46556 27.39651 27.33199 27.68247 27.41861 28.13615 29.33343 31.37837 34.30407 35.86493 40.92411 44.28196 46.99931 50.58430 50.23366 57.28057 61.78892 66.34889 72.14173 78.34337 81.64535 84.74234 91.40525 95.52028 101.21468 103.10907 106.36434 106.85593 105.84931 104.17199 102.93349 101.37903 100.33646 99.54111 98.84493 98.32954 97.59606 97.49064 97.41248 97.30019 97.18506 97.14942 97.09885 97.08733 97.09200 97.07804 97.06227 97.03598 96.99394 96.87668 96.80082 96.74640 95.72945 94.77813 94.31282 94.34496 95.76674 96.78518 96.35436 94.09771 90.37618 81.17249 74.16678 72.80805 59.06459 53.61199 60.96648 55.48847 66.60918 70.34570 77.45003 75.31061 70.17158 67.64209 72.70780 71.64209 71.32870 64.31119 55.45842 48.99747 45.47375 46.28521 44.88819 42.48764 41.57737 40.99277 42.79921 44.56640 44.21962 43.06557 41.99248 38.69208 36.95308 35.18870 32.25620 30.13838 28.19908 26.81632 26.29701 25.80608 25.62325 25.48163 25.44422 25.43258 25.41958 25.39641 25.32988 25.30485 25.32800
25.24900 25.25653 25.26598 25.27632 25.29885 25.32818 25.35275 25.44111 25.58844 25.81940 26.01454 25.86599 25.84482 25.75991 25.95889 26.44635 26.21244 26.80656 27.59863 29.02921 32.24100 34.75416 36.92744 41.38407 43.84663 50.90339 52.72149 55.43916 56.49677 62.70915 67.88996 70.69491 73.22723 76.22308 78.07270 79.00639 82.51551 88.87279 92.81256 100.90275 105.50924 107.05443 106.41314 105.32599 103.94079 102.93414 101.01343 100.23039 98.99159 98.42208 97.69768 97.76007 97.70559 97.49836 97.30102 97.18775 97.11253 97.11574 97.09547 97.08515 97.06005 97.03511 97.01249 96.87939 96.90721 96.81105 96.17882 96.26304 96.51653 95.80353 96.63231 97.27139 97.36367 96.77969 94.59955 86.76636 87.79141 77.56623 71.03220 59.61385 50.20381 44.03570 46.94975 54.41333 59.10056 56.23728 55.10634 48.77269 58.09012 56.13068 60.46032 61.56881 56.28792 52.68235 48.10938 41.34013 39.76680 37.24251 34.79283 33.59179 37.57443 38.11588 39.71397 38.84194 40.79694 40.35091 38.20002 34.89379 32.15447 30.32154 28.31541 27.59876 26.54521 26.14630 25.82915 25.62898 25.45222 25.38893 25.36905 25.33784 25.30477 25.29491 25.32300
25.24900 25.25845 25.26623 25.27318 25.28775 25.30242 25.32824 25.37536 25.46668 25.49906 25.51686 25.43722 25.62304 25.89602 26.21184 27.11038 27.09971 27.45340 29.08338 31.86422 33.29892 36.56732 41.46118 45.35695 48.54125 53.55983 56.60031 60.81673 62.43724 65.57413 68.20548 69.28683 71.71211 70.22599 68.67035 69.36802 74.05877 78.82753 91.50763 97.55309 103.84490 107.57350 107.63123 106.35626 104.85241 103.40597 102.30064 101.11379 99.80898 98.69241 98.38242 98.23128 97.83812 97.61258 97.45540 97.19650 97.18835 97.16727 97.13522 97.10620 97.07633 97.08116 97.04986 97.07266 97.04983 96.90717 96.81314 96.77609 97.12264 97.01779 97.00296 97.35428 97.73840 97.59199 94.90322 97.31771 95.82587 92.17525 88.70686 76.22062 61.00226 57.37166 55.23070 51.11930 43.44510 38.18673 41.00762 35.11990 32.36710 36.14743 47.89417 50.58866 47.93092 50.00392 48.68594 43.54409 37.47460 33.85494 32.82429 30.75682 31.30629 32.20383 35.72027 36.63638 38.58971 39.43962 38.49680 34.58008 31.78572 29.44701 28.45563 27.19598 26.76130 26.24059 25.90509 25.70010 25.53539 25.40664 25.35119 25.30502 25.29402 25.28457 25.28100
25.25000 25.25945 25.26482 25.27429 25.28546 25.29484 25.30273 25.32041 25.35206 25.42212 25.48507 25.68144 25.97714 26.94550 27.82508 28.25034 28.68661 29.12526 31.81683 32.50011 34.72119 38.14287 40.88940 43.06367 48.05258 51.31397 57.37108 60.63036 61.48592 61.75501 61.99796 61.53694 62.78333 60.44989 56.82553 62.89402 69.86508 77.61619 88.88603 98.58576 103.58327 108.05287 108.39719 107.26579 105.70318 104.52219 102.96551 102.03529 100.73730 99.44684 99.03815 98.93505 98.14055 97.89453 97.58477 97.23585 97.25696 97.28609 97.21140 97.13190 97.10918 97.12020 97.13677 97.12607 97.11970 97.08415 96.97799 97.11138 97.30368 97.39928 97.52063 97.60276 98.07065 98.25421 97.47727 99.14704 98.99319 98.34453 94.21774 85.33757 82.06840 82.15190 77.51941 73.41351 71.65923 68.14918 56.66075 45.92139 45.27193 35.65826 34.22564 39.58935 37.33756 39.04912 43.82252 44.45318 41.04868 37.46367 35.58588 30.23558 29.58666 30.30243 30.14664 32.38140 33.79891 35.60663 36.43506 34.22434 32.62824 29.13647 28.37585 27.10915 26.62925 25.97481 25.68836 25.63153 25.51456 25.43750 25.35934 25.31912 25.29621 25.28393 25.27500
25.25100 25.25100 25.26364 25.27352 25.28477 25.28917 25.31047 25.34088 25.39741 25.57214 25.69119 26.07751 26.93888 27.53906 28.31256 29.09480 29.97076 31.00006 31.98792 32.79440 34.11859 36.40524 39.56934 40.71914 44.21451 49.50175 55.17981 56.61203 54.98490 53.03995 56.20036 52.40896 53.85623 52.99629 54.94611 62.32392 70.57107 81.09342 87.17495 97.52847 102.91260 106.78126 108.13179 108.18032 106.42504 105.44494 104.24782 102.12354 101.22846 100.18087 99.75936 99.19744 98.65939 97.96844 97.63488 97.61540 97.53322 97.45550 97.39360 97.22659 97.25447 97.27014 97.25759 97.23695 97.31438 97.26474 97.22690 97.27217 97.50698 97.83735 97.94160 97.91229 98.43325 98.79966 98.75592 99.67827 101.21609 101.91400 99.07489 96.91319 94.62384 96.64769 92.63089 90.41483 90.23044 79.52301 74.06558 63.33428 59.56923 44.20530 32.53561 29.86224 29.28938 34.75353 38.67282 39.36653 38.77965 36.78727 33.73611 29.22324 27.87873 27.39358 27.38287 28.89904 30.50161 32.03997 33.82807 33.57872 32.08930 30.45914 29.06599 27.60348 26.70620 26.15739 25.83832 25.57428 25.43533 25.38441 25.36248 25.31480 25.29705 25.28496 25.29800
25.25000 25.25319 25.26456 25.27582 25.28293 25.29757 25.34123 25.41418 25.57446 25.75329 26.02270 26.49023 27.22358 27.80178 28.79744 29.56209 29.89893 30.19345 30.29109 30.11657 31.48504 33.30787 37.14830 40.91505 43.46132 48.18418 51.09188 51.45975 48.65802 46.63162 45.81135 45.12940 47.95430 52.15113 59.48465 64.38633 72.97371 82.27949 91.01791 93.87938 99.19246 104.87945 108.39337 108.76082 107.54055 105.85715 104.87555 103.10380 102.21706 101.08996 100.84066 99.64100 98.97246 98.80010 98.19438 97.97179 97.72549 97.66294 97.71553 97.44280 97.37066 97.47988 97.56436 97.47411 97.54508 97.36211 97.35640 97.61841 97.70925 98.04981 98.36039 98.72755 99.30496 99.83237 100.64685 100.61054 101.58138 102.85590 103.89725 101.81855 103.72876 103.95517 104.61857 101.88245 98.09892 93.65718 85.92797 73.91701 68.69177 51.70514 44.73659 39.01054 35.64781 31.65862 30.50860 31.75450 32.48618 31.07063 30.28228 29.46231 27.03986 26.57599 25.97070 26.54045 27.84230 30.29082 31.42192 31.48320 29.91374 29.38958 28.57275 28.18013 27.33616 26.66739 26.14846 25.67760 25.51922 25.43130 25.32861 25.30445 25.29137 25.28924 25.29500
25.25000 25.25351 25.26347 25.27544 25.28275 25.30966 25.37644 25.46173 25.60650 25.82046 26.13564 26.52863 27.16731 27.68978 28.37352 28.43069 28.41627 28.29570 28.89565 29.45092 31.65739 34.05107 38.82890 42.59290 45.75525 46.39239 47.66707 46.10719 41.19393 41.05735 40.10327 41.53056 50.27702 55.33692 62.85186 70.63898 77.44901 82.98718 86.89865 90.14875 98.25566 101.65988 106.17551 108.63724 108.64720 107.63305 106.18619 105.03840 103.21185 102.41179 101.60884 100.51008 99.77972 99.39481 98.94753 98.53803 98.47149 98.46555 98.13681 98.14283 97.67643 97.82246 97.88305 97.81762 97.87539 97.79592 97.67340 97.87993 98.31292 98.51837 99.03196 99.52173 99.70848 100.53585 101.39298 102.46178 103.27367 103.27272 105.59577 106.27850 107.25609 107.71962 106.05226 102.72143 97.18438 92.78853 86.07978 78.29229 71.66984 68.84955 56.15807 51.92944 48.77379 41.85096 35.00629 31.68838 28.48702 27.58985 28.21785 27.11490 26.67154 27.27972 27.36826 26.20003 26.79699 27.75725 28.19546 28.15626 28.05830 27.87190 27.65692 27.42145 27.27237 26.60125 26.38081 25.99649 25.66526 25.41352 25.34012 25.30333 25.28724 25.27770 25.27000
25.25100 25.25100 25.26231 25.27500 25.28307 25.31435 25.35009 25.44445 25.59318 25.81962 25.94841 26.26448 26.62935 26.99053 27.29410 27.44268 26.85567 27.15917 28.08168 29.99914 31.44973 36.73239 39.59183 42.59891 43.91190 42.56912 41.39865 39.14916 35.72372 38.03192 42.63386 47.87010 55.45443 62.98246 67.95887 73.67486 76.41680 78.64584 78.43554 80.55633 92.02940 96.64530 105.04417 108.03921 109.13254 108.43789 107.17444 106.06480 104.32910 104.04840 102.28224 101.68496 101.20568 100.15566 99.53668 99.20793 99.15050 98.62288 98.56725 98.59664 98.23221 98.30853 98.49886 98.32004 98.32728 98.41386 98.05339 98.21116 98.81357 99.37571 99.54117 100.03166 100.63134 101.16702 102.72736 103.05138 104.47159 105.68850 106.84312 108.33326 109.00522 108.15880 104.03999 98.80262 92.70224 86.43289 83.23202 77.17298 73.61059 68.91517 66.45084 60.34517 58.39810 50.86119 43.34909 38.95056 32.58397 29.71293 30.42946 30.44004 30.63317 29.49112 28.51040 26.70707 25.93743 26.49030 26.72051 27.17238 26.50910 26.51260 26.35161 26.48520 26.34041 26.27199 26.10326 25.89338 25.65968 25.46004 25.36709 25.31926 25.28685 25.27928 25.27000
25.25000 25.25899 25.26572 25.27127 25.28355 25.31573 25.35155 25.41230 25.50623 25.63412 25.62978 25.88762 25.87609 26.10501 26.04647 26.08720 26.75972 27.76608 29.16817 31.93043 34.61368 37.21928 38.63102 40.09524 40.61274 38.43503 37.99215 34.62180 36.07140 39.83481 47.08234 52.36954 59.92428 64.16820 68.79219 72.44589 72.94234 71.26045 73.75733 80.29723 87.68909 96.52777 103.49440 106.59160 108.66735 108.96408 108.50462 107.97289 106.73959 105.78784 103.90598 103.39197 102.61270 101.59273 100.39784 100.23624 99.67306 99.87048 99.52132 99.36008 98.73134 99.17369 99.24750 99.41675 99.09557 98.71789 98.53597 98.78155 99.14709 99.75379 100.70503 100.74784 101.71621 103.81273 104.11039 105.36004 106.17224 107.31857 107.88430 107.91018 107.90125 104.42365 101.79596 96.10698 86.01134 76.99147 73.27845 69.34659 67.82664 66.28258 65.19878 63.46860 61.21030 57.52411 49.34539 39.55594 36.80906 36.06293 35.95608 35.72651 34.03197 32.01846 30.87859 27.74264 26.66198 25.69587 25.77822 25.77074 25.79944 25.62050 25.72682 25.63671 25.74535 25.81696 25.86925 25.75282 25.59123 25.45202 25.35443 25.32624 25.28948 25.27828 25.26900
25.25000 25.25203 25.26386 25.27232 25.28463 25.30382 25.33428 25.34595 25.41367 25.37396 25.43125 25.42703 25.62065 25.69715 25.84275 26.50539 27.57866 28.42571 30.57204 32.35142 35.03990 35.79632 37.12860 36.51734 36.52705 34.18954 32.83451 32.85262 37.01358 42.45312 48.37618 51.56540 59.79031 61.27544 62.79057 63.13569 62.77515 67.32262 74.75547 82.98440 89.10143 94.47995 99.32075 102.84630 106.78293 107.91967 108.20269 108.56422 107.80121 107.00465 106.21819 104.46617 103.87187 102.10488 101.39762 101.52566 100.99129 100.53084 100.46313 100.75051 99.88805 100.33427 100.40742 100.16900 99.69171 99.45929 100.15006 100.19068 100.44165 100.73144 101.41552 102.49711 103.34626 104.10889 105.75077 106.74048 107.64161 108.14130 107.59366 106.40027 102.86326 100.57582 97.53041 90.99248 83.42487 73.44916 66.50452 62.36619 59.86894 60.58483 56.38180 58.94672 59.62626 57.29248 51.75136 46.16928 42.52955 43.02339 42.78946 40.47142 38.20539 35.61749 32.35899 30.40992 28.38624 27.25541 26.40733 26.15294 25.81195 25.77897 25.56263 25.42899 25.43069 25.46921 25.50207 25.54877 25.50950 25.40805 25.36574 25.31074 25.29080 25.28028 25.27100
25.24900 25.25125 25.26192 25.27388 25.28579 25.29358 25.30718 25.31585 25.32846 25.35060 25.45895 25.52644 25.64640 25.76432 26.10171 26.74122 27.31249 28.04987 30.34271 31.74299 33.27045 33.62007 31.45948 31.98036 32.04251 31.28482 31.48537 34.73949 40.16485 43.54161 46.97659 49.47093 50.01977 53.12656 52.75371 56.90311 63.08934 72.10665 75.84083 80.21908 85.28011 89.78357 94.32325 96.31185 99.18333 104.04247 104.97497 107.31886 107.80854 107.56360 107.22742 106.32144 105.02963 103.51004 102.87309 101.73090 102.09646 102.20041 101.78185 101.71539 100.60446 101.14990 101.77803 101.59525 100.84802 100.79992 101.23029 101.22731 102.13360 102.04156 102.43206 104.03454 105.03839 105.80313 107.05120 107.70701 108.39860 107.85230 104.17126 99.58420 98.67641 92.76011 92.14121 88.95037 84.22369 75.32392 64.20749 55.11860 51.72428 53.13350 50.95269 51.35102 52.91917 52.36266 54.01024 51.31044 48.91438 49.16307 47.65603 44.36664 41.18808 36.98417 35.80362 34.14206 31.02229 30.00016 28.67205 27.01396 26.77212 26.52876 26.14835 25.81645 25.49815 25.36533 25.39881 25.38362 25.38329 25.38967 25.34764 25.30317 25.28632 25.27247 25.27200
25.25000 25.25225 25.26324 25.27363 25.28021 25.29071 25.29615 25.31186 25.35741 25.44841 25.52929 25.73065 25.93963 26.18594 26.25792 26.71032 27.06200 27.47159 29.14501 30.36429 31.43494 31.08728 29.38417 29.10395 29.89274 30.35407 33.15520 37.24267 40.58916 42.01423 42.62260 41.47995 44.55929 47.38830 53.90889 59.77563 65.74273 73.10741 74.19856 72.30683 76.01990 83.29648 85.72236 93.51862 95.99527 98.98440 98.55916 102.79960 103.77087 106.63631 107.98250 107.48391 106.25046 105.95463 104.84493 104.18379 103.39818 103.73132 103.56751 103.18303 102.23639 102.55175 103.61057 103.06902 102.95318 102.75668 102.62497 103.02016 103.42371 104.41092 104.49296 105.22599 106.32619 107.36254 107.78016 108.59648 108.71709 106.55372 102.10156 96.61447 89.44147 88.15044 82.93587 82.20931 77.79832 71.28911 63.29631 55.93384 48.87612 45.88224 45.64299 44.85117 44.91538 48.77312 51.87231 52.44385 51.70541 51.09203 49.38185 44.02201 41.31091 38.19580 36.41041 33.65435 32.83400 30.82432 29.64023 28.75684 27.84076 27.39922 26.68206 26.16861 25.80594 25.70730 25.39705 25.37212 25.34017 25.32991 25.32170 25.30008 25.28298 25.26952 25.26900
25.25000 25.25919 25.26616 25.27508 25.28097 25.28957 25.29787 25.31999 25.37095 25.47702 25.58475 25.75274 25.97995 26.12859 26.27416 26.30455 26.29869 26.70475 27.97318 28.75482 28.70259 28.51057 27.96753 28.59130 29.96240 32.45592 34.66268 35.83224 38.30321 39.25673 38.05538 40.94809 45.37482 49.30285 57.50140 63.09817 69.53344 71.44842 71.61602 67.47303 68.08455 77.17312 83.23143 88.86024 87.88050 85.70838 92.23209 94.52219 99.38246 105.00912 108.13936 108.16995 107.94574 107.39245 107.02787 106.45292 105.62946 104.78818 104.69592 104.94021 104.07227 104.30051 105.33686 105.17172 104.70229 103.95098 104.65220 104.80333 105.06564 105.13739 105.94427 105.98714 108.31680 108.23282 109.06611 108.26550 107.10994 103.91771 99.14335 90.02838 83.74978 77.09405 75.29867 75.86774 74.79348 67.65630 59.76257 51.68343 46.43702 42.06595 39.99086 39.60271 38.49349 40.41790 45.47037 46.12306 49.40672 50.22573 46.70890 41.96717 38.04326 34.99350 34.67309 33.34770 31.71292 30.88666 29.53792 28.96830 27.97775 27.77726 26.96915 26.65929 26.17144 25.90736 25.58277 25.43958 25.32188 25.31572 25.30130 25.29435 25.28364 25.27863 25.26900
25.25000 25.25805 25.26668 25.27214 25.28036 25.28949 25.30603 25.32808 25.37755 25.50488 25.57747 25.69597 25.69109 25.75802 25.99398 25.86829 25.74942 26.00703 26.54746 27.37052 27.22714 27.47612 28.30920 30.10092 31.35860 32.64103 33.73229 33.91410 33.91985 34.90054 37.58242 39.41666 49.48027 55.24547 60.12569 64.58213 68.18249 66.43856 62.68330 61.74497 68.24655 77.09729 80.07738 78.41093 74.13240 74.89338 84.29257 85.09616 93.25902 100.30295 105.50660 107.69814 108.97105 108.85155 108.54631 108.02178 107.45123 107.05711 106.62668 106.16323 106.21469 106.40825 106.95926 107.21156 106.14924 105.75427 106.58528 106.41888 106.64497 107.38410 107.58447 107.82118 108.22562 108.36785 108.20223 107.05991 104.59828 100.81684 96.04755 90.63602 81.06698 72.80685 68.69092 68.69155 68.26847 66.72326 59.14573 53.36432 49.14997 42.02576 39.82763 36.22417 35.51245 36.60338 38.32692 42.18247 44.30777 46.22777 43.04544 39.03380 34.86003 32.03943 31.24207 30.57008 29.97029 29.07636 28.85833 27.78951 27.64144 27.29632 26.96189 26.44229 26.15194 25.89359 25.58687 25.47596 25.36277 25.32751 25.30786 25.29337 25.28548 25.27663 25.26700
25.25000 25.25973 25.26559 25.27184 25.28272 25.28972 25.30790 25.33572 25.36606 25.41819 25.49950 25.53374 25.52290 25.56048 25.48640 25.57539 25.83787 26.22480 26.21982 26.49107 26.64500 28.14350 28.81979 30.18815 30.74901 31.22605 31.56628 30.30387 32.23797 34.09159 40.29853 43.55822 52.34423 56.19857 61.71377 61.80645 57.84403 57.61433 56.08964 59.48265 70.50105 74.66608 72.84268 68.75420 63.88494 67.71470 73.82735 78.36799 86.37205 95.49886 101.83296 104.79385 107.85569 108.88376 109.05459 109.63254 109.28733 108.81288 108.67359 108.50693 107.90277 107.68046 108.09888 108.48861 108.46986 107.87293 108.03154 107.32557 106.91229 107.21249 107.46756 106.30408 107.12128 106.15738 103.42518 103.03549 98.47798 93.78663 87.88630 85.60498 79.97106 69.59290 61.61904 62.20954 65.70237 65.86148 61.99163 60.34394 53.52897 49.68357 44.14631 39.19651 33.90419 32.71086 34.75606 37.87140 41.39573 43.21821 42.25380 39.33358 35.41687 32.01249 29.57040 28.64208 27.97091 27.09040 27.05753 26.94297 26.59432 26.64676 26.27423 26.26447 25.97892 25.77347 25.56207 25.44823 25.37251 25.32627 25.31156 25.29311 25.28682 25.27863 25.26900
25.25100 25.26073 25.26574 25.27506 25.28565 25.29303 25.30503 25.33148 25.34846 25.37104 25.41770 25.42692 25.40755 25.43863 25.48060 25.74411 26.11987 26.34868 26.70212 26.96060 27.40236 28.01312 28.30237 28.74403 28.65592 28.92566 29.31138 30.72325 35.42659 36.92379 42.13008 47.99059 52.64965 56.24283 57.81733 56.75326 52.18966 50.20480 56.55773 65.99682 70.30110 72.50837 68.54566 61.42913 55.69933 60.04116 67.14048 70.54784 80.33024 87.66161 98.24250 101.84539 103.91783 105.06006 107.49752 109.40879 109.59325 109.58338 109.43975 109.04592 108.32203 107.03110 106.23966 107.32550 107.54725 107.19681 107.47747 105.54773 104.49370 104.42233 102.64851 101.68478 102.51218 100.78063 96.63446 97.09237 97.44171 91.75911 85.61742 78.55807 74.16944 70.05671 56.47331 58.91045 58.05520 60.39904 60.65961 59.63166 55.51712 51.95518 44.18949 39.53646 35.15693 31.74134 31.65082 33.59426 37.61625 38.89834 40.31707 39.09266 36.79377 33.35816 30.63125 29.54437 27.95716 27.01511 26.39317 26.15719 25.94969 25.78112 25.68310 25.71241 25.67732 25.58864 25.51578 25.37519 25.34002 25.31515 25.30219 25.29363 25.28462 25.27823 25.26900
25.25100 25.25109 25.26382 25.27630 25.28239 25.29214 25.30570 25.31717 25.33681 25.35540 25.36929 25.37023 25.40258 25.52513 25.83898 25.95732 26.62010 27.02516 27.18873 27.34736 27.46406 27.48724 27.12283 27.20263 27.65213 28.74885 30.87163 33.24777 37.13670 41.17132 45.51083 49.10111 52.52496 52.61612 49.27085 48.49950 45.71363 47.17085 55.81530 63.40008 66.81921 66.77084 63.84424 58.54190 50.06615 50.45718 59.71317 68.13553 78.47483 91.75343 93.71693 94.22030 95.61930 99.45086 102.52497 106.56853 106.67003 107.42130 107.72119 107.70229 104.59273 104.82842 103.67330 103.52869 104.16063 105.28026 101.87369 100.55497 97.57137 99.04628 93.82231 92.64376 93.78402 95.69778 90.80238 87.18023 89.46355 86.76187 81.50648 73.62279 69.83812 67.16669 57.14041 51.03451 54.48865 56.07859 55.97618 54.28899 52.99056 50.74496 42.94414 41.30589 35.91543 31.81246 30.07846 31.47757 35.02907 34.69487 36.91923 37.67941 37.20502 35.13229 32.39010 30.51000 29.05808 27.86426 26.91797 26.57779 26.03193 25.81110 25.55661 25.46823 25.49546 25.50492 25.43288 25.34647 25.33101 25.31056 25.30138 25.29169 25.28222 25.27623 25.26700
25.25100 25.25100 25.26369 25.27192 25.28566 25.29393 25.30214 25.31545 25.32784 25.34043 25.34598 25.37192 25.46208 25.60990 25.87427 26.23155 26.69089 26.91840 27.04024 27.19298 27.22033 26.89850 26.82812 27.92796 29.41766 31.08363 33.36641 35.93413 39.31807 41.61837 46.07266 47.22940 47.88485 47.84600 44.17015 41.77303 40.29855 47.00083 56.45987 62.41088 60.98253 59.96868 54.98056 48.67599 44.60232 52.51188 58.71033 72.09792 82.41519 88.60899 89.70154 89.65373 89.91241 93.93625 97.84422 102.02381 101.69265 102.18070 103.46687 99.85525 100.79049 97.78349 94.22548 96.21801 97.01724 98.07436 95.63008 94.43146 87.41086 85.97033 87.86185 85.22354 83.07850 85.08793 80.80743 79.96985 83.81324 84.24445 82.57905 70.08093 65.01947 63.37853 59.37919 51.55578 46.72886 47.27096 46.39495 45.43779 46.61286 47.65585 45.36179 42.02872 36.52894 31.45159 29.50078 30.17982 29.69384 30.85195 32.49431 34.22781 35.73479 35.69011 33.58674 31.68082 30.40868 28.34612 27.47264 26.75806 26.54828 26.11507 25.75051 25.50428 25.41078 25.36608 25.36761 25.34061 25.32048 25.30868 25.30058 25.29218 25.27712 25.26772 25.26700
25.25000 25.25887 25.26500 25.27135 25.28376 25.29339 25.30130 25.31246 25.32021 25.32885 25.34395 25.37871 25.45620 25.56343 25.75103 26.15157 26.38228 26.49552 26.32847 26.45714 26.62618 26.38471 27.09004 28.87177 30.39106 32.94522 33.78401 35.99030 38.45514 42.23713 44.01144 43.85286 41.21174 41.37005 38.29273 37.84167 43.59600 48.74942 55.30486 57.58699 52.71456 49.91688 49.61435 46.01723 43.67741 50.72593 59.06582 71.59044 79.62800 82.29712 80.98219 79.86821 85.16785 86.48333 91.09458 93.92497 94.14898 94.32742 96.95437 98.05479 92.54306 86.28990 86.01063 87.45032 91.37573 89.68393 88.41542 84.92944 82.45165 76.40000 75.76423 71.92670 74.74994 75.85835 75.11703 70.50700 73.05132 78.47738 78.40444 70.01258 62.95314 60.74648 57.35105 53.87091 48.06454 43.69122 40.71565 39.15714 39.85595 42.51189 42.67289 40.74466 36.61534 33.56518 29.87299 28.62367 28.50786 28.70556 30.75354 32.40058 33.41324 33.25940 32.50382 31.47812 30.13696 28.19256 27.18666 26.83744 26.47345 26.04701 25.79058 25.56390 25.47164 25.36867 25.33618 25.31730 25.31033 25.30249 25.29470 25.28884 25.27676 25.26590 25.26500
25.25000 25.25987 25.26533 25.27144 25.28109 25.29254 25.29907 25.31081 25.31595 25.32373 25.34494 25.40194 25.48480 25.59964 25.77541 26.00587 25.93043 25.87262 25.74307 25.74514 26.05164 26.47276 27.96892 29.34722 31.34645 32.72156 33.39704 34.55582 36.95951 39.53910 38.83519 37.43210 37.07907 36.22049 35.03197 39.18021 45.51484 50.35439 53.63722 48.94572 45.23052 43.84361 40.47434 39.79437 47.43187 50.75199 61.83338 68.03222 75.77893 76.88286 74.77490 72.65294 74.07498 80.60955 85.78117 87.54694 87.81995 88.48365 91.94498 93.37801 89.74963 78.83052 74.28785 75.89289 88.10133 86.58704 79.81728 75.89374 75.02590 70.93257 64.55759 62.40110 62.54873 63.93213 67.02714 63.78742 66.63071 74.11999 76.00798 68.48603 65.30784 54.30396 49.29418 51.66353 50.15346 46.79087 42.92007 39.20571 35.78771 36.87107 38.33704 38.84869 36.56863 34.55228 31.92546 29.49246 27.58365 27.82883 29.20809 29.71365 30.63033 31.20349 30.48028 29.77593 29.54003 27.95000 26.96421 26.24299 26.02988 25.80583 25.67537 25.56634 25.42856 25.38356 25.33070 25.31785 25.30791 25.30191 25.29331 25.28760 25.27775 25.26681 25.26600
25.25100 25.26074 25.26697 25.27137 25.28026 25.28742 25.29507 25.30707 25.31287 25.32421 25.34114 25.39627 25.43816 25.59579 25.72107 25.81839 25.73620 25.57595 25.55946 25.69154 26.00754 26.79856 28.01635 29.96985 30.37921 31.47706 31.28997 33.19868 36.01484 37.57891 35.25612 32.59037 32.16279 32.42670 36.06534 40.66494 47.30897 48.80066 48.70843 43.75774 40.86925 36.60888 37.56784 38.77506 49.98944 56.02656 62.11432 67.38977 71.73919 73.49792 72.49299 66.34213 70.29854 76.12644 82.20309 81.50975 80.26955 79.97515 82.08402 82.72335 84.43952 75.11171 67.41965 69.34713 79.18868 83.59988 78.38427 65.52924 62.35748 61.45289 56.68318 53.63343 53.50598 59.68845 60.58014 57.50901 60.73602 68.10860 71.82040 68.20035 62.17138 52.24892 47.12921 47.36696 47.82680 47.06830 46.04764 41.52747 36.73546 33.60085 34.50628 34.53847 35.35889 34.70731 33.72494 30.62893 28.96016 26.84431 27.01046 27.46074 28.65445 28.18394 28.78972 29.03285 28.72469 27.90217 26.86878 26.14818 25.78454 25.60820 25.49712 25.48037 25.41747 25.37229 25.33721 25.31649 25.30880 25.30298 25.29549 25.28805 25.28022 25.27563 25.26600
25.24900 25.25874 25.26607 25.27098 25.27890 25.28732 25.29383 25.30421 25.31593 25.32658 25.34179 25.37404 25.43443 25.51192 25.55940 25.53201 25.51351 25.48129 25.56032 25.85747 26.23854 26.86617 27.84927 29.12055 29.39333 29.47789 30.07848 32.25616 34.40498 34.57042 32.90892 30.48380 31.67688 33.64369 39.04495 41.78413 47.24946 47.87109 46.60187 37.17325 35.18037 35.04041 38.40695 46.07552 53.02846 58.50791 61.86980 62.92722 63.81703 66.15179 65.81145 62.75763 63.23699 71.83404 76.13154 72.36912 73.77095 73.84028 77.35607 80.97596 77.42458 70.38659 62.27531 63.27126 76.12536 77.83536 74.38260 65.00718 54.74264 55.98846 50.25685 45.74566 45.90249 51.85279 53.14161 52.38135 53.92112 61.72609 68.16079 67.36174 59.83126 53.44349 47.64370 40.76629 41.20306 44.64632 44.82935 43.43580 37.77782 33.97803 31.02489 31.40067 32.41434 31.85482 32.60889 31.36448 29.70893 27.94052 27.04964 26.52930 26.70015 27.12554 27.19626 27.89415 27.85940 27.43521 26.81480 26.19437 25.75322 25.54404 25.42819 25.37745 25.36926 25.35090 25.33470 25.32095 25.31104 25.30391 25.29470 25.29000 25.28152 25.27578 25.26600
25.25000 25.25000 25.26352 25.27099 25.27918 25.28710 25.29348 25.30435 25.31547 25.32509 25.33476 25.35913 25.39534 25.43112 25.47267 25.48751 25.41769 25.44986 25.63435 25.89279 26.41219 27.05020 27.65560 28.30215 28.47759 28.35756 29.81939 31.45590 33.09574 31.80391 30.65890 29.05898 30.53149 34.12719 37.46263 42.91814 44.97891 43.47793 39.64641 34.15720 32.46858 36.74340 41.46906 49.24619 54.58474 56.83335 56.86545 54.83457 58.08301 58.59962 57.56298 58.58867 58.96509 66.50275 71.05003 66.34040 64.98021 65.76757 69.54994 75.75661 73.92417 64.23472 59.50966 61.53871 67.60787 72.54840 70.90914 60.04435 50.53323 48.06358 40.67424 40.05476 42.17800 46.20212 45.80030 44.84004 51.67505 59.77534 66.10899 67.02589 62.30441 52.67195 46.79360 40.88648 36.73453 38.99154 42.89959 42.53888 38.60835 36.03636 32.66896 29.72576 28.86600 29.85569 30.83185 30.99460 30.18853 28.57794 27.81593 26.35455 26.05547 25.95097 26.15008 27.06930 26.73085 27.08672 26.69092 26.20341 25.83122 25.53620 25.45395 25.36508 25.35040 25.33917 25.32793 25.32102 25.30919 25.30457 25.29491 25.28975 25.27938 25.26819 25.26600
25.24900 25.25013 25.26188 25.27306 25.28140 25.28580 25.29566 25.30559 25.31225 25.32084 25.33335 25.35004 25.37359 25.40693 25.41588 25.40721 25.41694 25.49928 25.62798 25.87563 26.19788 26.48118 26.81922 27.09980 27.50223 27.86968 29.72234 30.54942 30.62187 29.06673 29.02195 28.42189 29.98938 33.35301 37.40557 39.58393 39.96881 39.32287 35.57128 31.97881 31.72700 36.74448 42.30920 50.66157 53.11904 51.09253 51.78170 48.94801 51.06723 53.19976 52.37855 50.11405 54.08195 62.11712 66.91040 61.01964 59.55787 60.76613 62.62189 65.97397 63.82061 58.50330 50.86201 51.13830 61.50937 63.61168 67.89492 61.79853 50.30284 42.63809 38.11831 37.00407 36.87832 39.15375 39.38333 43.53690 50.70214 60.21429 64.62534 66.23253 60.95337 52.13145 42.97836 38.57391 35.56550 36.68194 39.74616 40.67216 40.33081 36.96941 34.55449 30.65528 29.15707 27.78174 28.75039 29.58445 30.03992 29.50749 28.28375 27.10797 26.50836 26.06581 25.66508 25.85958 26.18509 26.35224 26.14568 25.94013 25.70546 25.57006 25.46773 25.37862 25.35100 25.33472 25.32805 25.31855 25.31038 25.30356 25.29604 25.28801 25.27798 25.26700 25.26700
25.24900 25.25894 25.26230 25.27200 25.28118 25.28950 25.29691 25.30599 25.31305 25.32135 25.32997 25.34760 25.36129 25.37042 25.38328 25.39428 25.42409 25.52079 25.62064 25.78271 25.95709 26.07116 26.15350 26.36865 26.99900 28.02502 28.98267 30.07109 29.88981 27.97013 27.34496 28.75893 31.71521 34.32968 37.02052 37.51634 36.15878 34.20326 32.00107 29.86559 31.87818 37.24378 42.58004 49.40524 50.41370 48.24050 42.57476 43.63780 46.09505 46.81670 43.78185 49.16939 54.19172 61.14424 62.23719 56.85260 53.04013 58.70061 61.59985 57.98041 57.67668 55.13598 50.71665 46.09838 52.29531 61.20234 66.16103 61.57979 54.71144 47.25338 39.45972 35.19240 34.42008 33.85674 36.04486 42.91568 49.48546 57.49921 62.36775 63.57848 58.43597 55.46848 46.53838 40.74713 35.57670 32.64050 35.76411 38.10979 39.69561 38.90659 36.81515 33.41547 30.29372 28.33479 27.15597 28.14720 29.06493 29.44956 28.75138 27.91923 26.99843 26.34296 25.83005 25.59264 25.73740 25.86317 25.81453 25.76480 25.60509 25.48186 25.42733 25.37018 25.34288 25.33374 25.32628 25.31787 25.30883 25.30314 25.29393 25.28828 25.28005 25.27591 25.26600
25.25100 25.25100 25.25853 25.27699 25.28266 25.29003 25.29786 25.30423 25.31501 25.32177 25.33187 25.34439 25.35472 25.36151 25.37321 25.39241 25.43735 25.50342 25.54225 25.58327 25.62435 25.70741 26.32291 26.75518 27.59847 28.20936 28.79487 29.26294 28.18555 27.29173 27.53086 30.19176 33.04152 35.02131 35.50421 35.42681 31.95251 30.41483 29.30826 30.54906 33.66380 37.82219 43.22672 47.50760 48.39246 42.07461 38.35133 40.49318 39.70714 41.66630 40.25637 45.81829 52.44189 58.03184 58.92680 50.97926 49.41725 56.42223 57.67773 55.58623 49.73977 48.53149 45.02213 44.49780 53.61686 61.16850 64.29996 62.71993 54.19776 47.08129 40.33983 34.53257 32.16555 32.53388 35.98852 44.56673 49.06443 55.77572 59.11281 60.22015 57.42655 54.06733 48.87908 41.87510 36.47619 31.56885 31.04425 33.96160 36.97046 37.28074 37.31153 34.65097 31.01098 29.10235 26.98927 26.67869 27.88168 28.34612 28.82659 28.08219 27.40788 26.70530 26.05619 25.66692 25.51127 25.57966 25.56669 25.52282 25.49879 25.45330 25.40827 25.36918 25.35139 25.33490 25.32832 25.31886 25.31009 25.30296 25.29341 25.28768 25.28020 25.27592 25.26700
25.25000 25.25002 25.25971 25.27397 25.28111 25.29062 25.29702 25.30381 25.31283 25.32257 25.33207 25.34269 25.34962 25.36028 25.36918 25.38704 25.39991 25.42142 25.44413 25.45148 25.53545 25.75827 26.20152 27.03054 27.45554 27.88497 27.94360 27.75455 27.31699 27.07983 27.09004 29.53615 31.84863 33.19452 33.91155 32.17349 29.98997 28.18946 28.70120 31.87232 35.32636 39.74301 44.06272 45.32346 42.00624 37.98730 34.74929 36.38118 36.81741 35.16617 38.85561 45.23023 52.07999 57.49623 56.39863 49.50573 45.45678 50.10684 54.13580 51.07435 48.26431 42.61019 39.31059 39.08797 44.84024 52.65958 63.39576 62.89006 55.54148 48.59129 40.34744 35.64807 31.11144 32.38934 37.19999 41.18456 44.96100 49.06372 53.28390 55.54720 55.19150 50.53010 46.38599 40.67629 34.97481 31.67332 29.27351 31.01249 32.42085 35.40998 36.43189 34.91021 32.02257 29.03704 27.05831 26.09568 26.99174 27.50678 27.83221 27.81827 27.55398 26.73440 26.25550 25.70945 25.56406 25.43742 25.43663 25.41285 25.42051 25.40891 25.37790 25.35994 25.34735 25.33808 25.33066 25.32123 25.31098 25.30292 25.29770 25.28480 25.27803 25.26904 25.26700
25.25000 25.25983 25.26526 25.27508 25.28027 25.28946 25.29466 25.30355 25.31171 25.31935 25.33069 25.33962 25.34747 25.35474 25.36515 25.37277 25.38257 25.38414 25.40622 25.46298 25.59941 25.74514 26.35492 26.68953 27.37590 27.44101 26.88448 26.83219 26.94072 26.54190 27.26560 28.55564 31.08104 32.20070 30.67543 29.90218 27.43598 27.50978 29.41974 31.46188 34.77255 42.67881 43.46033 42.94425 39.66089 35.35954 32.79459 34.28005 32.78639 32.76866 37.99536 44.76676 50.07416 54.50187 53.00504 48.42892 43.77774 46.93419 51.79332 48.85633 42.52959 36.55681 35.54999 39.20472 43.59412 48.35628 55.59392 60.04254 55.42780 46.26575 41.39916 35.73902 31.23126 29.92249 33.56348 39.40654 41.86298 47.20720 48.98759 49.85529 51.02522 47.64214 43.04421 38.26687 35.17322 31.96388 28.86008 28.26492 30.16979 31.81792 34.13466 34.19280 31.46690 28.51613 27.28107 26.04444 26.22620 26.60049 26.72152 27.14740 26.99493 26.54375 26.24512 25.79923 25.59989 25.47390 25.39159 25.38736 25.37667 25.36838 25.35923 25.35338 25.34557 25.33747 25.32802 25.32100 25.31409 25.30271 25.29394 25.28551 25.27551 25.26804 25.26600
25.25100 25.26083 25.26568 25.27517 25.28117 25.28837 25.29435 25.30271 25.31364 25.32043 25.32972 25.33588 25.34354 25.35246 25.35778 25.36389 25.36892 25.39736 25.42998 25.54465 25.67594 25.90568 26.12614 26.28868 26.83929 26.58366 26.27132 26.07933 25.97672 26.49043 28.08802 29.30374 30.32108 30.20873 29.07519 27.83563 27.12251 27.15361 29.47413 31.78298 36.21048 40.43822 41.79812 40.62684 37.22546 34.11374 29.98216 31.20310 30.80616 33.01158 38.08371 44.84396 49.76126 51.56453 49.48799 43.32745 39.86549 44.72497 47.99048 47.99259 43.98738 36.18772 33.65896 33.53212 39.04678 43.48881 55.29219 57.23458 52.78797 45.38813 41.06291 35.25377 30.95759 29.49364 32.16081 37.43538 40.16649 43.23835 44.56656 45.98791 46.55211 45.38825 40.72650 38.50254 35.66647 31.19793 28.76805 27.61057 27.95896 30.11428 31.87725 32.91270 30.48119 28.91312 27.54841 26.48521 25.73376 25.85853 26.01408 26.29575 26.55422 26.29712 26.03876 25.74973 25.58163 25.48905 25.42080 25.39161 25.37948 25.36994 25.35943 25.35214 25.34348 25.33645 25.32939 25.32018 25.31145 25.30422 25.29474 25.28355 25.27546 25.26404 25.26200
25.25100 25.25100 25.26199 25.27361 25.28114 25.28750 25.29552 25.30150 25.30868 25.31888 25.32545 25.33263 25.33829 25.34622 25.35260 25.36352 25.37342 25.40496 25.43652 25.50193 25.66028 25.79751 25.91677 25.97969 25.93049 25.84558 25.84442 25.82748 26.24237 26.83942 27.88824 29.18135 28.96614 28.44754 27.91715 26.65510 26.81430 28.17474 30.73656 35.02682 38.13502 40.40117 39.77088 37.58903 35.26645 32.18789 29.28164 29.43749 29.53115 31.25056 37.72267 42.71019 48.66480 47.83272 43.59365 40.65990 37.62704 42.03705 46.01272 45.61040 41.17801 34.39215 31.93744 33.04220 37.92016 44.56095 52.44429 53.25073 47.55953 43.57917 37.94607 34.58655 31.20665 28.37842 31.51459 36.47335 39.50437 39.69755 40.71160 41.57342 44.30041 41.47650 38.44268 35.22596 32.81604 30.10855 28.59383 27.21664 26.99977 28.13357 29.82533 31.50488 30.63476 28.91144 27.25651 26.45514 25.96939 25.61760 25.61563 25.87865 26.08753 26.06738 25.84218 25.59120 25.50031 25.43839 25.41750 25.39542 25.37920 25.36634 25.35844 25.34992 25.34179 25.33525 25.32718 25.31975 25.31090 25.30548 25.29561 25.28669 25.27701 25.26722 25.26600
25.25100 25.26097 25.26420 25.27379 25.27974 25.28518 25.29232 25.30107 25.30736 25.31336 25.32208 25.33070 25.33885 25.34372 25.35296 25.36042 25.36920 25.38600 25.41097 25.49000 25.52330 25.65220 25.65106 25.70307 25.59743 25.53544 25.60409 26.22114 26.81900 27.48556 27.82628 27.67501 27.43858 26.80119 26.24234 26.18318 28.03551 29.69077 32.49239 35.87077 38.71988 38.53727 36.13864 34.06518 31.09144 29.90096 28.09365 28.10703 29.07627 30.20926 40.87528 42.90980 45.45333 43.91614 40.64468 35.43407 35.90560 38.76365 42.56726 41.52678 36.74605 33.19848 30.92103 31.47939 36.28968 46.35251 49.44215 50.49990 43.80358 39.53243 36.26706 32.15998 29.72745 27.93817 31.06221 34.48999 37.93190 37.18026 37.02360 37.78957 38.70772 39.97282 37.39302 33.57173 31.07050 29.13747 27.58462 26.52626 26.80724 27.89350 28.31393 29.21644 29.99778 28.76654 27.65799 26.90448 26.05596 25.68332 25.53344 25.69300 25.90616 25.85225 25.71884 25.57023 25.47058 25.42123 25.39779 25.38993 25.37672 25.36815 25.35981 25.34947 25.34123 25.33392 25.32690 25.32062 25.31181 25.30251 25.29625 25.28753 25.27971 25.27576 25.26600
25.25100 25.26065 25.26574 25.26984 25.27879 25.28579 25.29052 25.29868 25.30701 25.31268 25.32234 25.32950 25.33939 25.34452 25.35204 25.36103 25.36720 25.37970 25.39521 25.43154 25.48401 25.54173 25.56066 25.55417 25.46687 25.60140 25.77187 26.43691 26.90517 27.32106 27.46810 26.94530 26.25179 26.09256 26.03916 26.83060 28.63632 30.94986 33.51137 36.51272 37.36082 36.69869 34.52265 32.74236 30.13991 28.54966 27.23274 27.34652 27.73287 31.48798 35.99914 41.58683 42.64319 39.08469 35.58094 32.25613 33.05528 38.46548 40.41045 38.03096 35.77871 30.29651 29.48840 31.26282 39.42940 44.21391 47.40921 47.79191 40.14890 36.95296 32.49378 31.08971 28.72009 27.72981 30.91604 33.92864 36.73927 35.87940 33.57985 34.90396 36.13958 36.75139 34.47023 32.22245 30.11719 28.47327 27.45146 26.37755 26.24266 26.82379 27.79215 28.36508 28.69960 28.53746 27.63648 27.12676 26.19545 25.79043 25.48525 25.55686 25.63204 25.67165 25.61729 25.54478 25.45691 25.41253 25.39523 25.38441 25.37771 25.36739 25.35725 25.34952 25.34029 25.33472 25.32495 25.31986 25.31177 25.30345 25.29512 25.28928 25.28060 25.27594 25.26600
25.25100 25.25100 25.26241 25.26911 25.27626 25.28349 25.28976 25.30025 25.30641 25.31313 25.32237 25.33227 25.33961 25.34479 25.35129 25.35973 25.36693 25.37799 25.38834 25.41151 25.44101 25.46879 25.49816 25.44330 25.48326 25.66289 25.94669 26.25061 26.65281 26.86577 26.43318 26.00533 25.91696 25.80024 26.38081 27.28444 28.55031 31.17022 33.38452 35.00594 34.92829 34.27118 31.78809 29.47928 28.75473 27.44639 26.92153 27.67428 29.01821 31.62767 36.12036 39.92377 41.02989 37.56276 34.47888 30.97931 32.51723 37.01957 38.72822 34.81414 32.22791 30.15172 29.54758 31.83282 36.70138 43.73971 46.83669 45.48450 39.67210 34.05315 30.62624 28.77870 28.26280 27.85572 29.72905 32.85111 35.24986 34.77469 31.33009 31.35438 33.18804 33.53677 32.65270 31.62146 30.50603 28.48337 27.11712 26.30695 26.01618 26.03141 26.92900 27.25355 27.67723 27.89080 27.34713 26.79023 26.41273 25.76335 25.53058 25.46863 25.50245 25.50128 25.49122 25.48491 25.44220 25.41720 25.39819 25.38746 25.37529 25.36937 25.35771 25.35081 25.33950 25.33338 25.32568 25.31984 25.31122 25.30410 25.29536 25.28535 25.28005 25.27494 25.26500
25.25100 25.25100 25.26157 25.26813 25.27624 25.28483 25.29184 25.29806 25.30771 25.31365 25.32065 25.33196 25.33776 25.34563 25.35095 25.36013 25.36763 25.37644 25.38693 25.39695 25.40908 25.42008 25.41550 25.43467 25.51012 25.64682 25.89460 26.22931 26.45777 26.43944 26.06055 25.78317 25.55219 25.98632 26.40760 27.61761 29.15951 30.85034 32.62010 33.74917 33.81032 32.35699 30.80278 27.94210 27.24732 26.79539 26.93659 28.91498 31.09034 33.77883 36.92244 39.68112 39.35359 34.84817 32.96160 30.02327 32.32325 35.73135 36.15613 33.82761 29.94397 28.70354 29.47760 31.99856 36.30687 39.33934 45.19673 44.02919 40.57919 34.97928 32.25353 28.75989 27.12050 27.26224 29.47833 31.91111 32.70755 33.62271 30.45291 30.19166 29.34933 29.76525 30.35574 30.83653 30.04357 28.70358 27.35073 26.33626 26.07815 25.72707 26.15621 26.47465 26.63289 26.88254 26.59538 26.38039 26.15780 25.84134 25.53535 25.47402 25.43863 25.44994 25.43789 25.43368 25.42150 25.40616 25.39651 25.38532 25.37125 25.36592 25.35953 25.34906 25.34136 25.33301 25.32685 25.31836 25.31088 25.30129 25.29376 25.28664 25.27815 25.27294 25.26300
25.25000 25.25000 25.25856 25.26713 25.27401 25.28300 25.28919 25.29904 25.30602 25.31346 25.32292 25.33093 25.33759 25.34638 25.35427 25.35905 25.36605 25.37245 25.37918 25.38162 25.38820 25.40017 25.41331 25.44162 25.50843 25.57599 25.74917 25.89409 25.99716 25.96928 25.77147 25.60071 25.67665 26.17271 26.72617 27.65369 28.99513 30.11155 30.71467 32.41965 32.74874 31.45015 29.99626 27.18402 26.51262 26.38391 27.58141 29.00246 32.12370 34.88230 38.00793 38.84408 34.93609 31.73863 29.68333 29.14229 31.88345 33.94694 33.69793 31.41536 28.83499 27.53116 27.47373 30.97527 36.56120 40.18222 43.96015 42.92696 40.21132 36.03607 33.02596 29.81003 27.61360 27.05354 28.04178 29.54528 30.75862 32.88333 31.60215 29.46986 28.26765 28.32769 28.81365 29.57788 29.68403 28.63849 27.55425 26.83118 26.20933 25.74680 25.58819 25.88410 26.22998 26.32737 26.19562 26.10399 25.95555 25.76854 25.55368 25.46468 25.42418 25.41402 25.41600 25.41275 25.40774 25.39934 25.39009 25.38164 25.37099 25.36373 25.35561 25.34866 25.33990 25.33267 25.32378 25.31677 25.31113 25.30189 25.29627 25.28608 25.27617 25.26500 25.26500
25.25100 25.25100 25.25920 25.26424 25.27288 25.28001 25.29087 25.29674 25.30513 25.31321 25.32295 25.33218 25.34057 25.34571 25.35284 25.35848 25.36298 25.36746 25.37213 25.37556 25.38280 25.38688 25.40153 25.42235 25.44186 25.49051 25.51114 25.60418 25.71757 25.65739 25.67246 25.49800 25.52964 26.03105 26.73282 27.53795 28.15320 28.22610 28.80323 30.67293 31.13166 30.75967 28.91588 27.42924 26.32174 26.35842 27.39381 29.41909 31.59297 34.12190 35.70238 35.75328 33.40653 31.29563 28.57346 28.48307 30.06914 32.41931 31.88148 29.78930 27.72718 27.21578 29.14025 31.69510 37.85066 40.35528 42.21723 40.23775 38.94796 37.76583 33.57083 30.28046 28.69949 26.63557 26.70816 28.57728 30.28643 31.83371 31.86714 30.25188 28.51452 27.29236 27.51520 28.10171 29.06439 28.96024 27.95343 27.12945 26.43589 25.75091 25.54495 25.72823 25.90693 25.94620 25.75413 25.68460 25.65502 25.63084 25.54486 25.46848 25.40960 25.40381 25.39848 25.40011 25.39188 25.38831 25.38427 25.37728 25.36799 25.35959 25.35374 25.34693 25.33783 25.32885 25.32420 25.31847 25.30837 25.30049 25.29295 25.28585 25.27895 25.27480 25.26500
25.25000 25.25000 25.25591 25.26362 25.27088 25.27855 25.28451 25.29448 25.30273 25.31450 25.32083 25.32864 25.33706 25.34268 25.34931 25.35474 25.36009 25.36429 25.36723 25.37135 25.37235 25.37543 25.38793 25.39947 25.40419 25.41049 25.43061 25.47701 25.51700 25.48900 25.41460 25.44286 25.64418 25.90021 26.36316 26.90042 27.11922 27.58214 28.00753 29.22303 29.60741 29.47905 28.06953 27.30193 26.13007 26.25372 27.30032 29.44026 31.15581 32.85797 32.82290 33.17831 31.55454 28.73207 27.30730 28.07935 29.69459 31.57593 30.91479 28.33318 26.90666 27.90125 30.02113 32.68936 36.23221 39.33432 39.74944 38.51600 36.13551 35.19824 33.48865 31.01205 28.19618 27.08820 26.41879 27.26519 28.82201 30.41412 30.93137 30.37832 28.83499 27.12779 26.47190 27.14156 28.13604 28.62424 28.10317 27.06510 26.30565 25.67070 25.52224 25.61258 25.59775 25.58359 25.62369 25.57866 25.54902 25.47924 25.46807 25.42283 25.40710 25.39201 25.38799 25.38520 25.38480 25.38104 25.37551 25.36659 25.36375 25.35733 25.35175 25.34355 25.33619 25.32891 25.32149 25.31621 25.30758 25.29953 25.29218 25.28469 25.27681 25.26982 25.26100
25.25100 25.25100 25.25701 25.26135 25.26996 25.27730 25.28530 25.29312 25.30098 25.31049 25.31944 25.32754 25.33445 25.34108 25.34637 25.35165 25.35403 25.35691 25.36012 25.36156 25.36446 25.36540 25.36752 25.37087 25.36942 25.38246 25.39084 25.42828 25.41004 25.39922 25.44886 25.52053 25.64790 25.91198 26.21640 26.47001 26.27890 26.65346 26.93852 27.95980 28.14272 27.69446 27.24805 26.45238 25.89471 26.29232 27.32265 29.07302 30.63774 31.60268 31.36465 30.69363 29.87604 28.14914 27.06945 28.49401 30.60572 31.11896 29.33376 27.82242 26.67336 28.04414 28.99188 32.33767 35.11559 36.93745 37.83690 34.89546 33.69393 32.51324 32.63280 30.85671 28.31178 26.82294 25.88665 26.06203 27.32092 28.79136 29.56275 29.87487 28.85341 27.04165 26.34626 26.39002 27.30020 27.91440 27.49995 27.20671 26.46013 25.88618 25.55637 25.47692 25.45143 25.46146 25.45566 25.46013 25.43995 25.43020 25.41688 25.39499 25.38757 25.38131 25.37279 25.37567 25.37511 25.37155 25.36901 25.36477 25.35877 25.35216 25.34520 25.34158 25.33209 25.32543 25.31998 25.30964 25.30467 25.29854 25.28949 25.28359 25.27594 25.26980 25.26000
25.25000 25.25000 25.25661 25.26086 25.26724 25.27499 25.28162 25.29159 25.29484 25.30691 25.31333 25.32404 25.33157 25.33686 25.34174 25.34736 25.34783 25.35248 25.35353 25.35585 25.35779 25.35938 25.36093 25.36118 25.36071 25.35870 25.37176 25.37823 25.38114 25.39193 25.44310 25.52084 25.57790 25.76489 25.92948 25.94752 25.94063 26.24722 26.74911 26.80510 27.00309 26.59258 26.08451 25.88370 25.99555 26.35653 27.51698 29.00985 30.10806 29.26145 28.04515 28.90867 27.85906 26.90098 27.15658 29.08000 30.46871 30.36311 29.06114 27.97835 26.24691 27.54381 28.80942 30.79845 33.78687 36.38944 36.13783 33.85338 31.31296 31.07333 31.28538 30.36426 28.62000 26.78310 26.22280 25.77161 26.45071 27.57554 28.59546 28.96528 28.24204 26.44889 26.01874 25.98734 26.50589 27.10119 27.13441 26.89463 26.33319 25.97165 25.69585 25.45284 25.41551 25.38456 25.38220 25.39973 25.39239 25.37562 25.37560 25.37437 25.37476 25.37317 25.36803 25.36653 25.36282 25.36201 25.36163 25.35679 25.35134 25.34716 25.34095 25.33592 25.32846 25.32195 25.31394 25.30683 25.30217 25.29585 25.28853 25.28124 25.27411 25.26986 25.26300
25.25000 25.25000 25.25471 25.26025 25.26553 25.27076 25.27766 25.28550 25.29472 25.30005 25.31163 25.31697 25.32582 25.33142 25.33749 25.34141 25.34330 25.34545 25.34803 25.34696 25.34893 25.34963 25.35154 25.35119 25.35068 25.35051 25.35526 25.36093 25.36906 25.38989 25.39780 25.44207 25.51553 25.58951 25.65883 25.62432 25.84683 25.97064 26.36067 26.61485 26.35110 26.03626 25.80707 25.62898 25.88271 26.62652 27.78343 28.95660 29.13418 27.79882 27.09886 27.10706 26.57611 26.29939 27.53637 28.69479 30.03021 29.88671 28.64468 27.17108 26.21385 26.95409 28.18051 30.25998 32.78414 34.87658 34.81249 32.42789 29.86108 29.22525 30.15999 29.51131 28.24137 26.89642 26.10018 25.65082 26.35258 27.13102 28.32092 28.46912 27.46282 26.74916 25.87746 25.80921 26.05859 26.38083 26.55337 26.47779 26.06912 25.81841 25.65058 25.52706 25.43779 25.38897 25.36831 25.36136 25.36939 25.36309 25.36154 25.36667 25.36147 25.36192 25.35953 25.35519 25.35260 25.35186 25.34914 25.34865 25.34517 25.33966 25.33563 25.32437 25.32220 25.31617 25.31046 25.30471 25.29818 25.29169 25.28569 25.27970 25.27148 25.26300 25.26300
25.24900 25.24900 25.25319 25.25858 25.26395 25.26921 25.27400 25.28137 25.28927 25.29585 25.30555 25.31271 25.32204 25.32567 25.33197 25.33486 25.33770 25.33918 25.33870 25.33971 25.34167 25.34165 25.34102 25.34218 25.34103 25.34487 25.34997 25.35440 25.36273 25.36598 25.37401 25.39935 25.44815 25.47223 25.46796 25.48661 25.66078 25.78554 26.13277 26.13890 26.12131 25.65883 25.57974 25.58719 25.93953 26.66292 27.50076 28.22035 28.27902 27.50584 26.41181 26.26404 26.00847 26.12006 27.49707 28.74127 29.31380 29.22100 26.37790 26.37881 26.23681 26.76196 27.97022 30.18364 32.03006 33.33086 33.90253 31.37057 29.34322 27.78568 28.13360 28.61369 27.75702 26.82920 25.85148 25.59620 25.82654 27.04020 27.44477 27.46551 27.04894 26.24056 25.88641 25.56878 25.55063 25.94006 26.07942 26.07388 25.83673 25.67345 25.57965 25.48789 25.44424 25.39177 25.36200 25.35523 25.35495 25.35341 25.35192 25.35104 25.35478 25.35275 25.35015 25.34774 25.34517 25.34276 25.34444 25.34086 25.33610 25.33146 25.32850 25.32014 25.31538 25.30620 25.30382 25.29433 25.29115 25.28927 25.28333 25.27531 25.26990 25.26100 25.26100
25.25000 25.25000 25.25281 25.25693 25.26087 25.26432 25.27095 25.27803 25.28427 25.29394 25.30233 25.30845 25.31563 25.31944 25.32468 25.32843 25.32986 25.33038 25.33126 25.33143 25.33276 25.33454 25.33485 25.33340 25.33383 25.33667 25.34064 25.34124 25.34665 25.35240 25.35342 25.36170 25.38854 25.40184 25.41580 25.40742 25.44173 25.59733 25.82183 25.83790 25.70032 25.43179 25.43074 25.49567 25.94213 26.33487 27.24430 27.87730 27.65362 27.02870 26.37750 25.77499 25.64761 26.13647 26.78203 28.36958 28.72287 28.07582 26.19606 25.71815 25.83998 26.57332 27.66205 28.99517 30.79834 31.37569 30.80211 30.05977 29.24302 27.21348 27.01768 27.06657 26.79717 26.41014 25.68176 25.50383 25.68938 26.29365 26.61434 26.95496 26.85946 26.31266 25.79759 25.53057 25.52273 25.52910 25.62981 25.67580 25.54827 25.50054 25.45011 25.44050 25.39309 25.36113 25.35225 25.34710 25.34550 25.34521 25.34520 25.34236 25.34275 25.34171 25.34266 25.34096 25.33684 25.33659 25.33405 25.33074 25.32938 25.32415 25.31650 25.30991 25.30221 25.29823 25.29134 25.29123 25.28787 25.28384 25.27870 25.27536 25.26855 25.26100 25.26100
25.25100 25.25100 25.25255 25.25485 25.25818 25.26287 25.26754 25.27269 25.27837 25.28773 25.29398 25.30276 25.30785 25.31690 25.31915 25.32023 25.32130 25.32414 25.32592 25.32566 25.32665 25.32699 25.32490 25.32591 25.32716 25.33049 25.33301 25.33672 25.33769 25.33347 25.33500 25.34090 25.35115 25.35942 25.34607 25.35802 25.40201 25.47392 25.61667 25.66189 25.53697 25.40233 25.46022 25.54793 25.86821 26.33167 26.93775 27.06617 26.95423 26.62786 26.12458 25.63066 25.67667 26.10579 26.98934 27.61629 28.03848 27.28519 26.25773 25.64914 26.00216 26.32134 27.43005 28.45531 29.14692 29.79222 29.41918 28.68032 27.95740 26.71175 26.23752 26.11695 26.13845 25.89781 25.66896 25.44438 25.64371 25.94771 26.20695 26.65115 26.51855 26.20897 25.77818 25.62305 25.48659 25.37680 25.49519 25.51970 25.42606 25.40393 25.38139 25.36449 25.36149 25.34576 25.34123 25.33878 25.33547 25.33618 25.33334 25.33443 25.33462 25.33540 25.33261 25.33188 25.32740 25.32828 25.32749 25.32404 25.31952 25.31497 25.31049 25.30194 25.29715 25.29353 25.28613 25.28372 25.28149 25.27751 25.27675 25.27253 25.26722 25.26200 25.26200
25.25100 25.25100 25.25237 25.25369 25.25578 25.25859 25.26216 25.26784 25.27401 25.28015 25.28904 25.29197 25.30031 25.30716 25.31136 25.31343 25.31561 25.31830 25.31531 25.31857 25.31880 25.31897 25.31812 25.31892 25.32030 25.32727 25.32727 25.32826 25.32710 25.32616 25.32764 25.32457 25.33301 25.33266 25.33137 25.33566 25.34718 25.39054 25.44765 25.43941 25.39905 25.35658 25.44445 25.59814 25.87450 26.13174 26.60986 26.63619 26.42230 26.21968 25.75788 25.50496 25.68050 26.09995 26.66503 27.02008 27.32876 26.75173 26.15460 25.59042 25.83052 26.18713 26.63981 27.62300 27.87514 28.15652 28.00315 27.70076 27.14545 26.61308 26.10344 25.66873 25.62272 25.72396 25.59402 25.38966 25.46083 25.63396 25.87823 25.83018 26.10862 25.93555 25.75673 25.57094 25.43705 25.36896 25.38399 25.39688 25.37664 25.35468 25.34376 25.33932 25.33927 25.33751 25.33460 25.33053 25.32591 25.32791 25.32752 25.32494 25.32562 25.32775 25.32511 25.32234 25.32274 25.31997 25.31821 25.31753 25.31280 25.30771 25.30231 25.29222 25.28838 25.27944 25.27925 25.27653 25.27603 25.27415 25.27238 25.26996 25.26670 25.26400 25.26400
25.25100 25.25100 25.25170 25.25230 25.25331 25.25638 25.25927 25.26372 25.26840 25.27480 25.28034 25.28956 25.29489 25.30014 25.30588 25.30565 25.30637 25.30659 25.30970 25.30979 25.31163 25.31094 25.31053 25.31034 25.31185 25.31366 25.31622 25.31689 25.31923 25.32023 25.31902 25.31933 25.31977 25.32200 25.32398 25.32351 25.32435 25.32462 25.35506 25.36799 25.34468 25.36920 25.40408 25.54375 25.66516 25.95071 26.15675 26.23635 26.09744 25.95193 25.71172 25.42581 25.52599 25.78022 26.32859 26.64010 26.48492 26.06234 25.76745 25.48369 25.61425 25.98334 26.38896 26.76418 26.87537 27.03134 27.03956 26.91889 26.47199 26.09110 25.87811 25.64300 25.48592 25.48012 25.48400 25.41750 25.37717 25.46957 25.67911 25.72598 25.70596 25.60050 25.55728 25.49997 25.40107 25.33749 25.34107 25.36260 25.34145 25.33589 25.32767 25.32613 25.32731 25.32374 25.32634 25.32497 25.32133 25.31849 25.31830 25.31913 25.31806 25.32047 25.31758 25.31926 25.31482 25.31344 25.31236 25.31017 25.30403 25.29946 25.29364 25.28646 25.28207 25.27585 25.27394 25.27141 25.27154 25.26938 25.26930 25.26782 25.26576 25.26400 25.26400
25.24900 25.24900 25.25037 25.25162 25.25246 25.25497 25.25655 25.26011 25.26528 25.26891 25.27541 25.28289 25.28956 25.29217 25.29584 25.29925 25.29860 25.30111 25.30220 25.30292 25.30240 25.30350 25.30436 25.30542 25.30723 25.30787 25.31019 25.30774 25.30992 25.30952 25.30997 25.30924 25.31047 25.31331 25.31117 25.30909 25.30983 25.31352 25.31844 25.31410 25.32590 25.35309 25.37878 25.44964 25.50153 25.67516 25.65040 25.86845 25.84013 25.67161 25.53956 25.45251 25.46481 25.56408 25.94424 26.26013 26.14853 25.73353 25.59129 25.40594 25.53105 25.73502 26.11134 26.19501 26.22034 26.23850 26.38871 26.29332 26.13813 25.85929 25.72300 25.62937 25.50520 25.40005 25.41136 25.36426 25.33910 25.39737 25.50546 25.48061 25.45637 25.42596 25.42861 25.38724 25.34369 25.32128 25.32289 25.31726 25.31842 25.31751 25.31507 25.31528 25.31523 25.31539 25.31440 25.31271 25.30954 25.30910 25.30895 25.31032 25.30998 25.30870 25.30983 25.30442 25.30597 25.30416 25.30140 25.30257 25.29903 25.29157 25.28757 25.28020 25.27457 25.27041 25.26713 25.26590 25.26578 25.26621 25.26501 25.26441 25.26391 25.26400 25.26400
25.25000 25.25000 25.25029 25.25079 25.25155 25.25308 25.25429 25.25745 25.26143 25.26476 25.26925 25.27685 25.27922 25.28548 25.28978 25.29209 25.29197 25.29315 25.29552 25.29458 25.29474 25.29577 25.29891 25.30055 25.29632 25.30026 25.30041 25.30166 25.29998 25.30134 25.30343 25.30315 25.30183 25.30363 25.30285 25.30095 25.29939 25.29863 25.30342 25.30613 25.30861 25.32815 25.33327 25.37475 25.44510 25.50994 25.58404 25.54550 25.65174 25.56990 25.47068 25.40105 25.36919 25.48247 25.77716 25.85154 25.84399 25.64508 25.43529 25.37207 25.43871 25.55583 25.72000 25.71940 25.93730 25.91359 25.89235 25.94930 25.82866 25.68050 25.52968 25.50105 25.45634 25.38866 25.36490 25.33301 25.31334 25.34773 25.36728 25.37149 25.38397 25.35943 25.33673 25.33892 25.31885 25.30474 25.30270 25.30497 25.30364 25.30502 25.30782 25.30551 25.30667 25.30538 25.30464 25.30728 25.30227 25.30268 25.30295 25.30111 25.30334 25.30314 25.30332 25.30192 25.30151 25.29839 25.29604 25.29419 25.29240 25.28655 25.27983 25.27486 25.27060 25.26554 25.26420 25.26202 25.26155 25.26156 25.26117 25.26159 25.26119 25.26100 25.26100
25.25000 25.25000 25.24996 25.25035 25.25094 25.25199 25.25293 25.25556 25.25813 25.26164 25.26538 25.27090 25.27367 25.28046 25.28128 25.28311 25.28514 25.28731 25.28553 25.28794 25.28847 25.28830 25.28952 25.29165 25.29109 25.29096 25.29210 25.28918 25.29271 25.29192 25.29199 25.29294 25.29603 25.29410 25.29436 25.29227 25.29194 25.29247 25.29415 25.29748 25.30226 25.30610 25.30905 25.33953 25.34483 25.37721 25.40865 25.47468 25.48402 25.43148 25.38963 25.35949 25.34636 25.43524 25.50301 25.66625 25.66444 25.55457 25.43210 25.36143 25.41078 25.52105 25.51475 25.55886 25.63488 25.66544 25.69743 25.64943 25.54906 25.48584 25.44229 25.40687 25.38559 25.33731 25.32931 25.32582 25.30863 25.31084 25.33099 25.32655 25.32340 25.31933 25.30917 25.29970 25.30004 25.29743 25.29458 25.29228 25.29592 25.29458 25.29495 25.29476 25.29672 25.29674 25.29659 25.29541 25.29394 25.29450 25.29469 25.29650 25.29536 25.29541 25.29270 25.29213 25.28952 25.28929 25.28765 25.28590 25.28458 25.27966 25.27622 25.27051 25.26681 25.26168 25.25875 25.25889 25.25836 25.25843 25.25848 25.25755 25.25754 25.25600 25.25600
25.24900 25.24900 25.24950 25.25001 25.25028 25.25084 25.25175 25.25333 25.25629 25.25768 25.26168 25.26529 25.26877 25.27083 25.27500 25.27599 25.27499 25.27778 25.27773 25.27750 25.27723 25.28170 25.28130 25.28194 25.28432 25.28464 25.28276 25.28254 25.28342 25.28257 25.28614 25.28745 25.28769 25.28897 25.28391 25.28431 25.27994 25.28269 25.28431 25.28636 25.29105 25.29581 25.29933 25.30383 25.30778 25.31492 25.33228 25.34595 25.36885 25.37448 25.36636 25.33257 25.33133 25.37203 25.40206 25.49054 25.50590 25.43174 25.39271 25.34609 25.34633 25.39256 25.39560 25.40246 25.42524 25.43042 25.46448 25.49929 25.42937 25.40334 25.35529 25.36234 25.34369 25.32800 25.32382 25.30701 25.29267 25.28977 25.29774 25.29797 25.29596 25.29566 25.28917 25.28900 25.28744 25.28791 25.28510 25.28669 25.28947 25.28807 25.28426 25.28729 25.28499 25.28574 25.28863 25.28885 25.28687 25.28676 25.28642 25.28801 25.28748 25.28938 25.28517 25.28618 25.28473 25.28186 25.28134 25.27930 25.27736 25.27384 25.26936 25.26638 25.26085 25.25768 25.25633 25.25537 25.25520 25.25559 25.25508 25.25583 25.25459 25.25300 25.25300
25.25100 25.25100 25.24968 25.24952 25.25005 25.25041 25.25065 25.25140 25.25302 25.25443 25.25579 25.25863 25.26134 25.26256 25.26489 25.26597 25.26919 25.27253 25.27249 25.27118 25.27065 25.27385 25.27597 25.27533 25.27677 25.27439 25.27655 25.27644 25.27475 25.27538 25.27700 25.28056 25.28075 25.28017 25.27671 25.27325 25.27317 25.27571 25.27754 25.27897 25.27924 25.28217 25.28392 25.28640 25.28618 25.28893 25.29500 25.29575 25.32034 25.31897 25.32515 25.31319 25.30965 25.32318 25.35282 25.37172 25.37658 25.37764 25.35115 25.33176 25.33125 25.34793 25.36071 25.36948 25.38180 25.38908 25.38287 25.37420 25.36090 25.34902 25.33458 25.32398 25.32314 25.31833 25.31092 25.30055 25.28920 25.28397 25.28568 25.28694 25.28926 25.28364 25.27979 25.27646 25.27864 25.27861 25.27938 25.27693 25.27953 25.28237 25.27825 25.27634 25.27695 25.27996 25.28101 25.28145 25.28210 25.28203 25.27895 25.28037 25.27927 25.27761 25.27711 25.27593 25.27408 25.27259 25.27242 25.27414 25.27249 25.26844 25.26629 25.26157 25.25830 25.25521 25.25291 25.25226 25.25217 25.25244 25.25330 25.25325 25.25255 25.25200 25.25200
25.24900 25.24900 25.24900 25.24900 25.25000 25.25000 25.25000 25.25000 25.25100 25.25100 25.25300 25.25600 25.25400 25.25700 25.25800 25.26000 25.26300 25.26500 25.26502 25.26102 25.26002 25.26992 25.26995 25.26500 25.27289 25.26500 25.26600 25.26700 25.26704 25.26604 25.26931 25.27587 25.27572 25.27472 25.26598 25.26298 25.26400 25.26500 25.26600 25.26700 25.26800 25.27579 25.27571 25.27585 25.27300 25.28091 25.27991 25.28052 25.28900 25.29891 25.30898 25.30501 25.29601 25.29664 25.30672 25.31690 25.32688 25.33698 25.33059 25.31866 25.31900 25.32832 25.33856 25.34891 25.35879 25.36898 25.35960 25.34930 25.33989 25.32947 25.31947 25.31047 25.31052 25.31189 25.30595 25.29566 25.28550 25.27499 25.27540 25.27700 25.28532 25.27832 25.27132 25.26300 25.27259 25.27159 25.27168 25.26600 25.27461 25.27475 25.27372 25.26500 25.26600 25.27541 25.27541 25.27599 25.27487 25.27489 25.26613 25.27595 25.27395 25.27095 25.26995 25.26996 25.26500 25.26322 25.26600 25.26600 25.26711 25.26512 25.26012 25.25712 25.25212 25.25112 25.25012 25.25010 25.25019 25.25000 25.25100 25.25100 25.25100 25.25100 25.25100
